ply
format ascii 1.0
element vertex 1102
property float x
property float y
property float z
property uchar red
property uchar green
property uchar blue
property uchar alpha
end_header
-4.150857 -2.916818 45.789929 123 123 123 0
-4.022237 -2.904949 45.603589 119 119 119 0
-3.897507 -2.895291 45.451972 119 119 119 0
-3.778188 -2.889202 45.356397 118 118 118 0
-3.662367 -2.885501 45.298296 120 120 120 0
-3.542622 -2.878380 45.186503 119 119 119 0
-3.430235 -2.876972 45.164389 118 118 118 0
-3.318868 -2.876352 45.154668 117 117 117 0
-3.204630 -2.873116 45.103866 117 117 117 0
-3.092720 -2.871812 45.083387 116 116 116 0
-2.982922 -2.872443 45.093299 116 116 116 0
-2.870647 -2.870647 45.065110 116 116 116 0
-2.758304 -2.868636 45.033528 115 115 115 0
-2.650843 -2.871746 45.082356 115 115 115 0
-2.539858 -2.871144 45.072906 115 115 115 0
-2.429938 -2.871745 45.082344 114 114 114 0
-2.320854 -2.873439 45.108931 115 115 115 0
-2.210403 -2.873524 45.110272 117 117 117 0
-2.100616 -2.874528 45.126022 115 115 115 0
-1.992678 -2.878312 45.185434 117 117 117 0
-1.882174 -2.878619 45.190254 118 118 118 0
-1.771536 -2.878747 45.192256 118 118 118 0
-1.662426 -2.881539 45.236094 116 116 116 0
-1.551455 -2.881274 45.231936 116 116 116 0
-1.439858 -2.879716 45.207465 116 116 116 0
-1.329728 -2.881078 45.228860 115 115 115 0
-1.219496 -2.882444 45.250298 116 116 116 0
-1.108859 -2.883034 45.259568 114 114 114 0
-0.997934 -2.882921 45.257793 113 113 113 0
-0.888301 -2.886977 45.321457 111 111 111 0
-0.777172 -2.886639 45.316149 111 111 111 0
-0.666167 -2.886723 45.317475 108 108 108 0
-0.556101 -2.891727 45.396033 111 111 111 0
-0.445077 -2.893000 45.416017 108 108 108 0
-0.333656 -2.891683 45.395343 107 107 107 0
-0.222742 -2.895651 45.457627 107 107 107 0
-0.111406 -2.896544 45.471655 108 108 108 0
0.000000 -2.900442 45.532843 109 109 109 0
0.111694 -2.904035 45.589252 108 108 108 0
0.223535 -2.905960 45.619464 106 106 106 0
0.299442 -2.595168 40.740465 108 108 108 0
0.447974 -2.911829 45.711596 107 107 107 0
0.500039 -2.600202 40.819496 106 106 106 0
0.599570 -2.598137 40.787082 104 104 104 0
0.701844 -2.606847 40.923822 103 103 103 0
0.807131 -2.623177 41.180172 104 104 104 0
0.904187 -2.612096 41.006222 104 104 104 0
1.007844 -2.620393 41.136473 119 119 119 0
1.114203 -2.633570 41.343334 138 138 138 0
1.371883 -2.972413 46.662678 143 143 143 0
1.486730 -2.973460 46.679115 146 146 146 0
1.600993 -2.973273 46.676190 146 146 146 0
1.710823 -2.965426 46.552993 147 147 147 0
1.827231 -2.969250 46.613035 148 148 148 0
1.718556 -2.628380 41.261852 146 146 146 0
2.051959 -2.963941 46.529685 139 139 139 0
2.172123 -2.972378 46.662142 143 143 143 0
2.283662 -2.968760 46.605343 144 144 144 0
2.393069 -2.962847 46.512512 142 142 142 0
2.511424 -2.968047 46.594138 149 149 149 0
2.627119 -2.969786 46.621448 149 149 149 0
2.738894 -2.967135 46.579823 149 149 149 0
2.853571 -2.967713 46.588907 148 148 148 0
2.968958 -2.968958 46.608444 147 147 147 0
3.074104 -2.960248 46.471712 142 142 142 0
3.186123 -2.958543 46.444943 143 143 143 0
3.295801 -2.954856 46.387070 150 150 150 0
3.403515 -2.949713 46.306330 153 153 153 0
3.515748 -2.948692 46.290301 146 146 146 0
3.623949 -2.944459 46.223845 138 138 138 0
3.731484 -2.939957 46.153174 135 135 135 0
3.864781 -2.955421 46.395929 134 134 134 0
4.002281 -2.973123 46.673826 136 136 136 0
4.089175 -2.953293 46.362523 125 125 125 0
4.160602 -2.923666 45.897433 126 126 126 0
4.250898 -2.908509 45.659489 122 122 122 0
4.351154 -2.900769 45.537975 121 121 121 0
4.451153 -2.893249 45.419924 120 120 120 0
4.550696 -2.885807 45.303094 118 118 118 0
4.652379 -2.880044 45.212622 120 120 120 0
4.755075 -2.875162 45.135978 118 118 118 0
4.845863 -2.863465 44.952351 118 118 118 0
4.964587 -2.868428 45.030266 117 117 117 0
5.066633 -2.863749 44.956814 118 118 118 0
5.167095 -2.858393 44.872733 116 116 116 0
5.276809 -2.858272 44.870826 115 115 115 0
5.379965 -2.854675 44.814370 114 114 114 0
5.486986 -2.853233 44.791720 115 115 115 0
5.600939 -2.855381 44.825445 113 113 113 0
5.703238 -2.851619 44.766392 113 113 113 0
5.817955 -2.854091 44.805195 113 113 113 0
5.923697 -2.852151 44.774735 111 111 111 0
6.047109 -2.858633 44.876506 114 114 114 0
6.159903 -2.859955 44.897251 108 108 108 0
6.268965 -2.859528 44.890547 109 109 109 0
6.385996 -2.862688 44.940158 109 109 109 0
6.501737 -2.865172 44.979154 110 110 110 0
6.612915 -2.865596 44.985816 109 109 109 0
6.726947 -2.867223 45.011356 112 112 112 0
6.844747 -2.870378 45.060875 113 113 113 0
6.956828 -2.871072 45.071775 114 114 114 0
7.076679 -2.874901 45.131883 114 114 114 0
7.186113 -2.874445 45.124726 111 111 111 0
7.294877 -2.873739 45.113647 112 112 112 0
7.407009 -2.874362 45.123419 110 110 110 0
7.509424 -2.871250 45.074576 110 110 110 0
7.640146 -2.878896 45.194596 111 111 111 0
7.739781 -2.874776 45.129917 108 108 108 0
7.871611 -2.882562 45.252146 107 107 107 0
7.975622 -2.880086 45.213274 107 107 107 0
8.089919 -2.881341 45.232984 104 104 104 0
8.201154 -2.881486 45.235265 105 105 105 0
8.311107 -2.881184 45.230516 102 102 102 0
8.436163 -2.886056 45.306996 99 99 99 0
8.562680 -2.891294 45.389238 101 101 101 0
8.691492 -2.897164 45.481382 96 96 96 0
8.821067 -2.903136 45.575135 92 92 92 0
-9.391561 -2.934863 47.916128 127 127 127 0
-9.255616 -2.928992 47.820282 129 129 129 0
-9.131523 -2.926770 47.784004 130 130 130 0
-8.996711 -2.921010 47.689959 132 132 132 0
-8.869259 -2.917520 47.632972 134 134 134 0
-8.752012 -2.917337 47.629996 136 136 136 0
-8.617616 -2.911357 47.532358 137 137 137 0
-8.498147 -2.910324 47.515497 139 139 139 0
-8.379831 -2.909663 47.504709 144 144 144 0
-8.246587 -2.903728 47.407801 140 140 140 0
-8.133677 -2.904885 47.426690 139 139 139 0
-8.009525 -2.902002 47.379624 138 138 138 0
-7.881460 -2.897596 47.307684 138 138 138 0
-7.765904 -2.897725 47.309801 137 137 137 0
-7.640457 -2.894113 47.250819 135 135 135 0
-7.515045 -2.890402 47.190235 133 133 133 0
-7.402617 -2.891647 47.210568 132 132 132 0
-7.285105 -2.890915 47.198606 130 130 130 0
-7.166423 -2.889687 47.178557 130 130 130 0
-7.059845 -2.893379 47.238840 130 130 130 0
-6.942935 -2.892890 47.230849 132 132 132 0
-6.825000 -2.891949 47.215493 132 132 132 0
-6.717550 -2.895496 47.273400 131 131 131 0
-6.600014 -2.894743 47.261111 131 131 131 0
-6.480734 -2.893185 47.235669 133 133 133 0
-6.371183 -2.895992 47.281508 133 133 133 0
-6.246850 -2.892060 47.217307 133 133 133 0
-6.127137 -2.890159 47.186265 133 133 133 0
-6.016075 -2.892344 47.221942 130 130 130 0
-5.892249 -2.888357 47.156855 128 128 128 0
-5.772392 -2.886196 47.121568 130 130 130 0
-5.662461 -2.889011 47.167519 129 129 129 0
-5.535820 -2.883240 47.073303 136 136 136 0
-5.416723 -2.881236 47.040580 136 136 136 0
-5.300812 -2.880876 47.034713 139 139 139 0
-5.176327 -2.875737 46.950812 138 138 138 0
-5.055549 -2.872471 46.897482 140 140 140 0
-4.935891 -2.869704 46.852316 144 144 144 0
-4.817123 -2.867335 46.813635 144 144 144 0
-4.692449 -2.861249 46.714274 142 142 142 0
-4.582605 -2.864128 46.761278 144 144 144 0
-4.477782 -2.870373 46.863230 139 139 139 0
-4.360717 -2.868893 46.839071 131 131 131 0
-4.183314 -2.826564 46.147978 123 123 123 0
-4.041521 -2.806612 45.822232 119 119 119 0
-3.913912 -2.795651 45.643284 117 117 117 0
-3.788688 -2.785800 45.482451 119 119 119 0
-3.676398 -2.785150 45.471833 118 118 118 0
-3.552114 -2.775089 45.307581 120 120 120 0
-3.439687 -2.773941 45.288836 118 118 118 0
-3.329452 -2.774543 45.298667 118 118 118 0
-3.211711 -2.768716 45.203531 117 117 117 0
-3.101588 -2.769275 45.212658 116 116 116 0
-2.991382 -2.769798 45.221198 116 116 116 0
-2.878866 -2.768141 45.194135 115 115 115 0
-2.767404 -2.767404 45.182113 116 116 116 0
-2.657865 -2.768609 45.201787 117 117 117 0
-2.547496 -2.769017 45.208439 116 116 116 0
-2.434921 -2.766955 45.174782 116 116 116 0
-2.327313 -2.770611 45.234462 116 116 116 0
-2.216225 -2.770281 45.229072 116 116 116 0
-2.105155 -2.769940 45.223513 115 115 115 0
-1.997760 -2.774666 45.300677 117 117 117 0
-1.887194 -2.775286 45.310784 116 116 116 0
-1.775929 -2.774889 45.304304 115 115 115 0
-1.666454 -2.777424 45.345690 113 113 113 0
-1.555372 -2.777451 45.346136 111 111 111 0
-1.443953 -2.776833 45.336057 111 111 111 0
-1.334574 -2.780362 45.393663 111 111 111 0
-1.223980 -2.781772 45.416689 110 110 110 0
-1.112975 -2.782437 45.427535 110 110 110 0
-1.001879 -2.782997 45.436691 110 110 110 0
-0.891674 -2.786482 45.493587 111 111 111 0
-0.779236 -2.782985 45.436486 108 108 108 0
-0.668217 -2.784238 45.456947 110 110 110 0
-0.558061 -2.790307 45.556034 109 109 109 0
-0.447155 -2.794716 45.628012 109 109 109 0
-0.334755 -2.789621 45.544836 108 108 108 0
-0.223610 -2.795128 45.634750 110 110 110 0
-0.111911 -2.797764 45.677783 108 108 108 0
0.000000 -2.798701 45.693078 110 110 110 0
0.112138 -2.803449 45.770591 108 108 108 0
0.224447 -2.805585 45.805466 107 107 107 0
0.336439 -2.803662 45.774072 105 105 105 0
0.401623 -2.510143 40.981934 105 105 105 0
0.562174 -2.810871 45.891779 105 105 105 0
0.677342 -2.822260 46.077717 102 102 102 0
0.703526 -2.512595 41.021953 105 105 105 0
0.906014 -2.831295 46.225226 107 107 107 0
1.025040 -2.847332 46.487054 116 116 116 0
1.143478 -2.858694 46.672553 137 137 137 0
1.257869 -2.858793 46.674170 145 145 145 0
1.371896 -2.858116 46.663120 145 145 145 0
1.487382 -2.860350 46.699591 145 145 145 0
1.601093 -2.859094 46.679083 146 146 146 0
1.712232 -2.853721 46.591357 148 148 148 0
1.828571 -2.857142 46.647221 145 145 145 0
1.941730 -2.855486 46.620175 139 139 139 0
2.052747 -2.851038 46.547560 140 140 140 0
2.173761 -2.860212 46.697335 141 141 141 0
2.285200 -2.856500 46.636743 140 140 140 0
2.397205 -2.853815 46.592898 141 141 141 0
2.513249 -2.855965 46.627998 147 147 147 0
2.627808 -2.856313 46.633680 149 149 149 0
2.737657 -2.851726 46.558795 152 152 152 0
2.852866 -2.852866 46.577404 150 150 150 0
2.969584 -2.855370 46.618280 148 148 148 0
3.076774 -2.848864 46.512072 143 143 143 0
3.188468 -2.846847 46.479128 144 144 144 0
3.299587 -2.844472 46.440355 147 147 147 0
3.403526 -2.836271 46.306471 152 152 152 0
3.517505 -2.836698 46.313432 148 148 148 0
3.628385 -2.834676 46.280426 142 142 142 0
3.734125 -2.828882 46.185836 138 138 138 0
3.857757 -2.836586 46.311614 134 134 134 0
3.992200 -2.851572 46.556270 142 142 142 0
4.113123 -2.856336 46.634051 133 133 133 0
4.193775 -2.833631 46.263371 124 124 124 0
4.264532 -2.805613 45.805933 122 122 122 0
4.366541 -2.799065 45.699020 121 121 121 0
4.471830 -2.794894 45.630917 119 119 119 0
4.558419 -2.779524 45.379978 118 118 118 0
4.668360 -2.778785 45.367926 119 119 119 0
4.770732 -2.773682 45.284596 118 118 118 0
4.873509 -2.769039 45.208807 117 117 117 0
4.974351 -2.763529 45.118833 117 117 117 0
5.082987 -2.762493 45.101921 114 114 114 0
5.184796 -2.757870 45.026454 114 114 114 0
5.296005 -2.758336 45.034060 116 116 116 0
5.400808 -2.755514 44.987987 114 114 114 0
5.511953 -2.755977 44.995536 113 113 113 0
5.616250 -2.753064 44.947976 111 111 111 0
5.734296 -2.756873 45.010172 111 111 111 0
5.836325 -2.752984 44.946670 109 109 109 0
5.942637 -2.751221 44.917892 110 110 110 0
6.055285 -2.752402 44.937178 109 109 109 0
6.168820 -2.753938 44.962248 108 108 108 0
6.290722 -2.759088 45.046343 109 109 109 0
6.398548 -2.757995 45.028487 108 108 108 0
6.519773 -2.762616 45.103931 108 108 108 0
6.628404 -2.761835 45.091184 107 107 107 0
6.745387 -2.764503 45.134739 108 108 108 0
6.865734 -2.768441 45.199036 109 109 109 0
6.978117 -2.769094 45.209700 110 110 110 0
7.090191 -2.769606 45.218054 109 109 109 0
7.203815 -2.770698 45.235886 110 110 110 0
7.316401 -2.771364 45.246761 111 111 111 0
7.432201 -2.773209 45.276888 109 109 109 0
7.552488 -2.776650 45.333061 108 108 108 0
7.663522 -2.776638 45.332873 109 109 109 0
7.782232 -2.779369 45.377446 106 106 106 0
7.893226 -2.779305 45.376410 106 106 106 0
8.006092 -2.779893 45.386008 105 105 105 0
8.125899 -2.782842 45.434158 105 105 105 0
7.519529 -2.540381 41.475613 102 102 102 0
8.369561 -2.789854 45.548631 100 100 100 0
8.450858 -2.779887 45.385916 96 96 96 0
8.161162 -2.649728 43.260864 95 95 95 0
8.440640 -2.705333 44.168707 95 95 95 0
8.900645 -2.816660 45.986280 94 94 94 0
-9.411094 -2.823328 48.015787 127 127 127 0
-9.276611 -2.818211 47.928760 128 128 128 0
-9.147058 -2.814479 47.865296 129 129 129 0
-9.012687 -2.809149 47.774645 129 129 129 0
-8.883678 -2.805372 47.710409 130 130 130 0
-8.761633 -2.803723 47.682355 133 133 133 0
-8.630635 -2.799125 47.604163 133 133 133 0
-8.508152 -2.797201 47.571442 136 136 136 0
-8.386504 -2.795501 47.542542 137 137 137 0
-8.256166 -2.790817 47.462871 137 137 137 0
-8.136972 -2.789819 47.445900 136 136 136 0
-8.016693 -2.788415 47.422026 135 135 135 0
-7.891312 -2.785169 47.366819 134 134 134 0
-7.773942 -2.784695 47.358767 134 134 134 0
-7.650521 -2.782008 47.313055 135 135 135 0
-7.523595 -2.777943 47.243925 135 135 135 0
-7.413892 -2.780210 47.282477 132 132 132 0
-7.295171 -2.779113 47.263825 131 131 131 0
-7.176560 -2.778023 47.245296 133 133 133 0
-7.069291 -2.781360 47.302047 128 128 128 0
-6.952333 -2.780933 47.294781 130 130 130 0
-6.831144 -2.778771 47.258003 131 131 131 0
-6.725858 -2.783114 47.331864 133 133 133 0
-6.609533 -2.782961 47.329276 131 131 131 0
-6.486008 -2.779718 47.274109 134 134 134 0
-6.376969 -2.782677 47.324445 131 131 131 0
-6.259027 -2.781790 47.309352 130 130 130 0
-6.139798 -2.780286 47.283772 129 129 129 0
-6.023961 -2.780290 47.283840 128 128 128 0
-5.905525 -2.779071 47.263108 124 124 124 0
-5.786613 -2.777574 47.237659 128 128 128 0
-5.670732 -2.777501 47.236416 135 135 135 0
-5.546752 -2.773376 47.166255 136 136 136 0
-5.427851 -2.771669 47.137225 137 137 137 0
-5.307975 -2.769378 47.098270 135 135 135 0
-5.180365 -2.762862 46.987442 136 136 136 0
-5.060302 -2.760165 46.941576 139 139 139 0
-4.938233 -2.756223 46.874546 139 139 139 0
-4.822015 -2.755437 46.861176 142 142 142 0
-4.695209 -2.748415 46.741749 146 146 146 0
-4.582144 -2.749287 46.756575 140 140 140 0
-4.474220 -2.753366 46.825957 138 138 138 0
-4.366268 -2.757643 46.898693 141 141 141 0
-4.235245 -2.747186 46.720848 123 123 123 0
-4.066662 -2.711108 46.107276 119 119 119 0
-3.933024 -2.696931 45.866165 118 118 118 0
-3.807813 -2.687868 45.712035 118 118 118 0
-3.686956 -2.681423 45.602427 117 117 117 0
-3.567496 -2.675622 45.503775 116 116 116 0
-3.451607 -2.672212 45.445780 116 116 116 0
-3.340953 -2.672763 45.455147 119 119 119 0
-3.224494 -2.668547 45.383444 116 116 116 0
-3.112760 -2.668080 45.375511 116 116 116 0
-3.001079 -2.667625 45.367779 116 116 116 0
-2.887247 -2.665151 45.325705 116 116 116 0
-2.774581 -2.663597 45.299275 116 116 116 0
-2.663694 -2.663694 45.300919 117 117 117 0
-2.553250 -2.664261 45.310555 117 117 117 0
-2.439739 -2.661533 45.264172 115 115 115 0
-2.334828 -2.668374 45.380518 115 115 115 0
-2.222967 -2.667560 45.366675 113 113 113 0
-2.110484 -2.665875 45.338006 112 112 112 0
-2.002709 -2.670278 45.412893 111 111 111 0
-1.892788 -2.672171 45.445089 113 113 113 0
-1.780475 -2.670713 45.420289 111 111 111 0
-1.673217 -2.677148 45.529721 111 111 111 0
-1.560326 -2.674844 45.490539 111 111 111 0
-1.450395 -2.677653 45.538313 111 111 111 0
-1.339261 -2.678523 45.553107 111 111 111 0
-1.228118 -2.679531 45.570248 110 110 110 0
-1.116596 -2.679830 45.575332 110 110 110 0
-1.004590 -2.678907 45.559644 112 112 112 0
-0.894439 -2.683318 45.634661 109 109 109 0
-0.782076 -2.681405 45.602120 109 109 109 0
-0.671313 -2.685254 45.667581 110 110 110 0
-0.560573 -2.690748 45.761029 107 107 107 0
-0.448058 -2.688348 45.720204 110 110 110 0
-0.336436 -2.691491 45.773656 107 107 107 0
-0.201008 -2.412099 41.022090 111 111 111 0
-0.112182 -2.692356 45.788368 109 109 109 0
0.000000 -2.695448 45.840945 106 106 106 0
0.112522 -2.700526 45.927311 107 107 107 0
0.225090 -2.701076 45.936675 105 105 105 0
0.302224 -2.417792 41.118904 104 104 104 0
0.452666 -2.715999 46.190459 104 104 104 0
0.564472 -2.709466 46.079361 103 103 103 0
0.680566 -2.722263 46.296996 103 103 103 0
0.794285 -2.723263 46.313998 109 109 109 0
0.912002 -2.736005 46.530701 121 121 121 0
1.028504 -2.742677 46.644164 144 144 144 0
1.145311 -2.748747 46.747391 150 150 150 0
1.258942 -2.746784 46.714006 149 149 149 0
1.369851 -2.739702 46.593577 145 145 145 0
1.488100 -2.747261 46.722134 150 150 150 0
1.599966 -2.742799 46.646246 149 149 149 0
1.711820 -2.738911 46.580124 144 144 144 0
1.827628 -2.741442 46.623169 139 139 139 0
1.941716 -2.741246 46.619838 135 135 135 0
2.054200 -2.738933 46.580492 138 138 138 0
2.171891 -2.743441 46.657158 139 139 139 0
2.284883 -2.741859 46.630258 138 138 138 0
2.397145 -2.739594 46.591741 140 140 140 0
2.514414 -2.742998 46.649620 146 146 146 0
2.628767 -2.743062 46.650710 150 150 150 0
2.739592 -2.739592 46.591694 150 150 150 0
2.853336 -2.739203 46.585077 149 149 149 0
2.967235 -2.738986 46.581396 145 145 145 0
3.076934 -2.735053 46.514505 143 143 143 0
3.189235 -2.733630 46.490301 140 140 140 0
3.298177 -2.729526 46.420507 141 141 141 0
3.405271 -2.724217 46.330214 147 147 147 0
3.516334 -2.722323 46.298017 149 149 149 0
3.630805 -2.723104 46.311288 144 144 144 0
3.734770 -2.716196 46.193812 137 137 137 0
3.847312 -2.715750 46.186217 133 133 133 0
3.975163 -2.725826 46.357587 134 134 134 0
4.111015 -2.740676 46.610142 142 142 142 0
4.210818 -2.731342 46.451388 124 124 124 0
4.296055 -2.713298 46.144522 122 122 122 0
4.390660 -2.701945 45.951437 119 119 119 0
4.485308 -2.691185 45.768446 122 122 122 0
4.583576 -2.683069 45.630419 119 119 119 0
4.686596 -2.678055 45.545154 120 120 120 0
4.778291 -2.666953 45.356350 120 120 120 0
4.884265 -2.664145 45.308584 118 118 118 0
4.989187 -2.660900 45.253395 117 117 117 0
5.097661 -2.659649 45.232133 114 114 114 0
5.204309 -2.657519 45.195907 113 113 113 0
5.303762 -2.651881 45.100019 115 115 115 0
5.419176 -2.654290 45.140993 113 113 113 0
5.529331 -2.654079 45.137396 113 113 113 0
5.626794 -2.647903 45.032368 109 109 109 0
5.738511 -2.648544 45.043258 110 110 110 0
5.848337 -2.648304 45.039176 111 111 111 0
5.967133 -2.652059 45.103043 108 108 108 0
6.081877 -2.653910 45.134520 106 106 106 0
6.196892 -2.655811 45.166849 107 107 107 0
6.311542 -2.657491 45.195428 107 107 107 0
6.422703 -2.657670 45.198474 108 108 108 0
6.531684 -2.656956 45.186333 106 106 106 0
5.600991 -2.240396 38.101978 109 109 109 0
6.769711 -2.663493 45.297499 110 110 110 0
6.881193 -2.663687 45.300807 108 108 108 0
6.999072 -2.666313 45.345464 108 108 108 0
7.102800 -2.663550 45.298468 109 109 109 0
7.226665 -2.668307 45.379372 108 108 108 0
7.341495 -2.669634 45.401947 108 108 108 0
7.452622 -2.669596 45.401289 108 108 108 0
7.580900 -2.675612 45.503600 105 105 105 0
7.688371 -2.674216 45.479861 104 104 104 0
7.802949 -2.675297 45.498247 107 107 107 0
7.923289 -2.678295 45.549233 108 108 108 0
8.039767 -2.679922 45.576911 105 105 105 0
8.144760 -2.677729 45.539612 103 103 103 0
8.253484 -2.676805 45.523903 101 101 101 0
8.420776 -2.694648 45.827351 97 97 97 0
8.501895 -2.684809 45.660014 94 94 94 0
8.667576 -2.701582 45.945277 98 98 98 0
8.753455 -2.693371 45.805625 95 95 95 0
8.383494 -2.546884 43.314359 91 91 91 0
-9.430051 -2.711140 48.112507 124 124 124 0
-9.295534 -2.706295 48.026525 125 125 125 0
-9.162850 -2.701866 47.947936 127 127 127 0
-9.032199 -2.697930 47.878076 128 128 128 0
-8.895196 -2.691967 47.772269 129 129 129 0
-8.773179 -2.690442 47.745194 129 129 129 0
-8.640650 -2.685607 47.659404 130 130 130 0
-8.518676 -2.683966 47.630282 132 132 132 0
-8.396532 -2.682225 47.599386 131 131 131 0
-8.263725 -2.676981 47.506326 134 134 134 0
-8.149470 -2.677683 47.518778 134 134 134 0
-8.029037 -2.676346 47.495043 134 134 134 0
-7.901200 -2.672465 47.426171 134 134 134 0
-7.784087 -2.672149 47.420574 133 133 133 0
-7.664167 -2.670846 47.397445 133 133 133 0
-7.533386 -2.665660 47.305406 133 133 133 0
-7.425081 -2.668388 47.353830 131 131 131 0
-7.308414 -2.668151 47.349618 130 130 130 0
-7.186635 -2.666010 47.311617 129 129 129 0
-7.082545 -2.670468 47.390735 129 129 129 0
-6.962062 -2.668790 47.360965 130 130 130 0
-6.843907 -2.667964 47.346298 130 130 130 0
-6.734874 -2.670726 47.395313 131 131 131 0
-6.617862 -2.670365 47.388916 132 132 132 0
-6.496355 -2.668146 47.349529 132 132 132 0
-6.386651 -2.670781 47.396300 131 131 131 0
-6.269236 -2.670230 47.386518 134 134 134 0
-6.145732 -2.667016 47.329472 131 131 131 0
-6.033443 -2.668638 47.358263 133 133 133 0
-5.916048 -2.668022 47.347323 133 133 133 0
-5.796374 -2.666332 47.317336 133 133 133 0
-5.681114 -2.666645 47.322895 130 130 130 0
-5.554386 -2.661477 47.231172 128 128 128 0
-5.431873 -2.658150 47.172146 130 130 130 0
-5.308336 -2.654168 47.101475 134 134 134 0
-5.185645 -2.650441 47.035331 136 136 136 0
-5.064577 -2.647393 46.981236 137 137 137 0
-4.943247 -2.644062 46.922137 135 135 135 0
-4.823063 -2.641201 46.871360 137 137 137 0
-4.700103 -2.636643 46.790472 142 142 142 0
-4.585128 -2.636449 46.787025 145 145 145 0
-4.471651 -2.637127 46.799063 136 136 136 0
-4.363385 -2.640996 46.867721 137 137 137 0
-4.256328 -2.645826 46.953427 147 147 147 0
-4.120056 -2.632258 46.712648 122 122 122 0
-3.955317 -2.599208 46.126147 117 117 117 0
-3.819579 -2.583833 45.853287 119 119 119 0
-3.702380 -2.580447 45.793202 114 114 114 0
-3.577344 -2.571216 45.629394 116 116 116 0
-3.462106 -2.568659 45.584015 115 115 115 0
-3.350271 -2.568541 45.581924 116 116 116 0
-3.237969 -2.568045 45.573109 116 116 116 0
-3.120058 -2.562905 45.481892 115 115 115 0
-3.010328 -2.564353 45.507598 114 114 114 0
-2.897546 -2.563213 45.487373 116 116 116 0
-2.785589 -2.562742 45.479011 114 114 114 0
-2.673496 -2.562100 45.467617 113 113 113 0
-2.561660 -2.561660 45.459809 114 114 114 0
-2.449547 -2.560890 45.446148 113 113 113 0
-2.339404 -2.562204 45.469461 113 113 113 0
-2.230873 -2.565503 45.528012 112 112 112 0
-2.117193 -2.562918 45.482136 110 110 110 0
-2.008699 -2.566672 45.548741 111 111 111 0
-1.899848 -2.570382 45.614594 109 109 109 0
-1.787280 -2.569215 45.593883 110 110 110 0
-1.678129 -2.573132 45.663381 110 110 110 0
-1.566787 -2.574008 45.678935 110 110 110 0
-1.454526 -2.573392 45.668009 112 112 112 0
-1.342853 -2.573802 45.675274 112 112 112 0
-1.230973 -2.573853 45.676180 111 111 111 0
-1.120265 -2.576610 45.725116 110 110 110 0
-1.008592 -2.577512 45.741118 110 110 110 0
-0.898034 -2.581847 45.818055 112 112 112 0
-0.784932 -2.579063 45.768642 108 108 108 0
-0.673192 -2.580569 45.795371 107 107 107 0
-0.561896 -2.584723 45.869088 111 111 111 0
-0.449409 -2.584099 45.858015 108 108 108 0
-0.337265 -2.585698 45.886384 108 108 108 0
-0.225246 -2.590332 45.968620 108 108 108 0
-0.112501 -2.587519 45.918707 106 106 106 0
0.000000 -2.593870 46.031411 107 107 107 0
0.112948 -2.597797 46.101102 106 106 106 0
0.226074 -2.599856 46.137632 105 105 105 0
0.339447 -2.602425 46.183226 103 103 103 0
0.453627 -2.608356 46.288475 101 101 101 0
0.568153 -2.613503 46.379824 106 106 106 0
0.683781 -2.621162 46.515746 117 117 117 0
0.800706 -2.630892 46.688419 133 133 133 0
0.914724 -2.629830 46.669572 145 145 145 0
1.029646 -2.631317 46.695946 146 146 146 0
1.144743 -2.632909 46.724214 147 147 147 0
1.257874 -2.630101 46.674377 146 146 146 0
1.368855 -2.623639 46.559692 144 144 144 0
1.485786 -2.628699 46.649489 145 145 145 0
1.598692 -2.626422 46.609094 142 142 142 0
1.713638 -2.627579 46.629614 138 138 138 0
1.829571 -2.630008 46.672718 132 132 132 0
1.943524 -2.629473 46.663233 131 131 131 0
2.056604 -2.627883 46.635018 136 136 136 0
2.173800 -2.631442 46.698172 137 137 137 0
2.287713 -2.630870 46.688016 140 140 140 0
2.399588 -2.628120 46.639225 143 143 143 0
2.513864 -2.628131 46.639415 146 146 146 0
2.629743 -2.629743 46.668018 145 145 145 0
2.740426 -2.626242 46.605888 147 147 147 0
2.853828 -2.625522 46.593111 146 146 146 0
2.968413 -2.625904 46.599893 143 143 143 0
3.078812 -2.622692 46.542893 141 141 141 0
3.192690 -2.622567 46.540674 137 137 137 0
3.305744 -2.621797 46.527014 137 137 137 0
3.408399 -2.613106 46.372778 137 137 137 0
3.519435 -2.611193 46.338836 142 142 142 0
3.632010 -2.610507 46.326660 147 147 147 0
3.742888 -2.608680 46.294227 140 140 140 0
3.845841 -2.601598 46.168556 137 137 137 0
3.967244 -2.607046 46.265234 130 130 130 0
4.094628 -2.616012 46.424349 139 139 139 0
4.229109 -2.628906 46.653161 135 135 135 0
4.326684 -2.618782 46.473508 119 119 119 0
4.412673 -2.602346 46.181825 121 121 121 0
4.504826 -2.590275 45.967613 118 118 118 0
4.596008 -2.578248 45.754181 117 117 117 0
4.700470 -2.574067 45.679981 118 118 118 0
4.795921 -2.565260 45.523694 118 118 118 0
4.903739 -2.563318 45.489234 117 117 117 0
5.000014 -2.555563 45.351602 116 116 116 0
5.119032 -2.559516 45.421755 114 114 114 0
5.219537 -2.554241 45.328153 113 113 113 0
5.331248 -2.554556 45.333740 113 113 113 0
5.430644 -2.549078 45.236520 112 112 112 0
5.545339 -2.550856 45.268070 109 109 109 0
5.647565 -2.546941 45.198597 110 110 110 0
5.768401 -2.551408 45.277874 111 111 111 0
5.875796 -2.549874 45.250641 111 111 111 0
5.991579 -2.551969 45.287821 111 111 111 0
6.114497 -2.556971 45.376601 108 108 108 0
6.216377 -2.553155 45.308870 108 108 108 0
6.326637 -2.552853 45.303522 107 107 107 0
6.440156 -2.553855 45.321297 107 107 107 0
6.569239 -2.560890 45.446135 106 106 106 0
6.675894 -2.559093 45.414246 107 107 107 0
6.791562 -2.560753 45.443708 109 109 109 0
6.914869 -2.565194 45.522511 109 109 109 0
7.012495 -2.560117 45.432428 109 109 109 0
7.138146 -2.565271 45.523889 108 108 108 0
7.251296 -2.565843 45.534044 109 109 109 0
7.362894 -2.565857 45.534287 107 107 107 0
7.484273 -2.569228 45.594108 105 105 105 0
7.605951 -2.572601 45.653969 104 104 104 0
7.720780 -2.573593 45.671576 106 106 106 0
7.830718 -2.572950 45.660164 108 108 108 0
7.958201 -2.578009 45.749933 103 103 103 0
8.089792 -2.584239 45.860497 105 105 105 0
8.194257 -2.581752 45.816364 99 99 99 0
8.306969 -2.581896 45.818915 97 97 97 0
8.441022 -2.588580 45.937534 97 97 97 0
8.552447 -2.588241 45.931509 98 98 98 0
8.169709 -2.440303 43.306170 97 97 97 0
7.934792 -2.339746 41.521676 95 95 95 0
8.964227 -2.609838 46.314786 89 89 89 0
-9.452191 -2.599352 48.225464 124 124 124 0
-9.316749 -2.594538 48.136137 125 125 125 0
-9.181546 -2.589667 48.045767 125 125 125 0
-9.047630 -2.585037 47.959875 125 125 125 0
-8.914540 -2.580525 47.876154 127 127 127 0
-8.787922 -2.577790 47.825426 128 128 128 0
-8.660155 -2.574641 47.766986 129 129 129 0
-8.529585 -2.570560 47.691280 131 131 131 0
-8.412185 -2.570390 47.688123 130 130 130 0
-8.280831 -2.565891 47.604665 130 130 130 0
-8.158133 -2.563985 47.569289 132 132 132 0
-8.043353 -2.564547 47.579728 131 131 131 0
-7.910193 -2.559180 47.480152 133 133 133 0
-7.791874 -2.558526 47.468012 131 131 131 0
-7.673632 -2.557877 47.455979 132 132 132 0
-7.546105 -2.554066 47.385273 132 132 132 0
-7.432407 -2.554890 47.400556 131 131 131 0
-7.320627 -2.556409 47.428746 132 132 132 0
-7.196908 -2.553741 47.379248 129 129 129 0
-7.091557 -2.557611 47.451035 128 128 128 0
-6.971797 -2.556326 47.427191 131 131 131 0
-6.852977 -2.555347 47.409042 129 129 129 0
-6.744178 -2.558137 47.460791 129 129 129 0
-6.628496 -2.558367 47.465063 134 134 134 0
-6.505287 -2.555649 47.414631 132 132 132 0
-6.396073 -2.558429 47.466218 134 134 134 0
-6.276418 -2.557059 47.440799 135 135 135 0
-6.155480 -2.555105 47.404542 131 131 131 0
-6.042543 -2.556460 47.429692 132 132 132 0
-5.922293 -2.554715 47.397304 134 134 134 0
-5.803189 -2.553403 47.372972 137 137 137 0
-5.689345 -2.554400 47.391459 135 135 135 0
-5.568357 -2.552163 47.349971 131 131 131 0
-5.441588 -2.547126 47.256514 131 131 131 0
-5.319019 -2.543878 47.196262 133 133 133 0
-5.195322 -2.539935 47.123106 135 135 135 0
-5.071851 -2.535925 47.048709 135 135 135 0
-4.948707 -2.531897 46.973962 134 134 134 0
-4.829363 -2.529667 46.932588 136 136 136 0
-4.708504 -2.526514 46.874108 139 139 139 0
-4.588141 -2.523478 46.817770 140 140 140 0
-4.470904 -2.522048 46.791250 139 139 139 0
-4.361071 -2.524830 46.842864 135 135 135 0
-4.253150 -2.528900 46.918366 140 140 140 0
-4.145241 -2.533203 46.998199 137 137 137 0
-4.010806 -2.521078 46.773245 122 122 122 0
-3.858205 -2.496486 46.316987 117 117 117 0
-3.719244 -2.479496 46.001783 117 117 117 0
-3.597537 -2.473307 45.886953 112 112 112 0
-3.473292 -2.464917 45.731302 116 116 116 0
-3.362728 -2.466001 45.751402 114 114 114 0
-3.246992 -2.463236 45.700104 113 113 113 0
-3.131703 -2.460624 45.651645 113 113 113 0
-3.019503 -2.460336 45.646303 114 114 114 0
-2.907366 -2.460079 45.641539 116 116 116 0
-2.794022 -2.458739 45.616681 114 114 114 0
-2.681708 -2.458232 45.607281 116 116 116 0
-2.571154 -2.459365 45.628290 114 114 114 0
-2.457512 -2.457512 45.593911 114 114 114 0
-2.346839 -2.458593 45.613969 112 112 112 0
-2.236786 -2.460464 45.648687 109 109 109 0
-2.123813 -2.459152 45.624342 111 111 111 0
-2.015794 -2.463749 45.709623 112 112 112 0
-1.905127 -2.465459 45.741356 111 111 111 0
-1.792019 -2.464027 45.714778 110 110 110 0
-1.681303 -2.465911 45.749732 111 111 111 0
-1.570353 -2.467697 45.782878 112 112 112 0
-1.459557 -2.470020 45.825972 111 111 111 0
-1.347930 -2.471205 45.847967 110 110 110 0
-1.237227 -2.474454 45.908233 110 110 110 0
-1.123395 -2.471469 45.852862 108 108 108 0
-1.013518 -2.477487 45.964517 110 110 110 0
-0.902005 -2.480515 46.020683 107 107 107 0
-0.787966 -2.476463 45.945518 107 107 107 0
-0.677055 -2.482534 46.058153 107 107 107 0
-0.564143 -2.482229 46.052477 108 108 108 0
-0.451172 -2.481446 46.037960 108 108 108 0
-0.338729 -2.484013 46.085588 109 109 109 0
-0.225935 -2.485290 46.109281 108 108 108 0
-0.113041 -2.486897 46.139092 106 106 106 0
0.000000 -2.492597 46.244840 105 105 105 0
0.113367 -2.494084 46.272424 109 109 109 0
0.227632 -2.503954 46.455550 103 103 103 0
0.341112 -2.501487 46.409774 106 106 106 0
0.456232 -2.509277 46.554304 117 117 117 0
0.570854 -2.511757 46.600322 125 125 125 0
0.686338 -2.516572 46.689655 142 142 142 0
0.802759 -2.522956 46.808095 148 148 148 0
0.915308 -2.517097 46.699391 146 146 146 0
1.029385 -2.516275 46.684142 149 149 149 0
1.143800 -2.516361 46.685734 146 146 146 0
1.257551 -2.515103 46.662390 147 147 147 0
1.370147 -2.511937 46.603649 145 145 145 0
1.486474 -2.515571 46.671085 141 141 141 0
1.600214 -2.514622 46.653472 136 136 136 0
1.711275 -2.509870 46.565298 132 132 132 0
1.829760 -2.515920 46.677559 131 131 131 0
1.945733 -2.518008 46.716285 134 134 134 0
2.057905 -2.515217 46.664510 135 135 135 0
2.174932 -2.518343 46.722496 136 136 136 0
2.288486 -2.517334 46.703790 138 138 138 0
2.399153 -2.513398 46.630764 139 139 139 0
2.515755 -2.515755 46.674497 139 139 139 0
2.631875 -2.517446 46.705864 138 138 138 0
2.741092 -2.512668 46.617213 139 139 139 0
2.857237 -2.514369 46.648770 140 140 140 0
2.973059 -2.515665 46.672828 140 140 140 0
3.079935 -2.509576 46.559857 139 139 139 0
3.191732 -2.507789 46.526706 137 137 137 0
3.307909 -2.509448 46.557476 137 137 137 0
3.415381 -2.504612 46.467763 136 136 136 0
3.524745 -2.501432 46.408754 136 136 136 0
3.638350 -2.501366 46.407528 138 138 138 0
3.740421 -2.493614 46.263715 142 142 142 0
3.853821 -2.493649 46.264361 134 134 134 0
3.965421 -2.492550 46.243974 129 129 129 0
4.081167 -2.494046 46.271733 126 126 126 0
4.211871 -2.504356 46.463003 134 134 134 0
4.345008 -2.515531 46.670334 134 134 134 0
4.442848 -2.506222 46.497627 120 120 120 0
4.527588 -2.490173 46.199876 117 117 117 0
4.627115 -2.482842 46.063866 118 118 118 0
4.724893 -2.474944 45.917328 116 116 116 0
4.817296 -2.464663 45.726585 117 117 117 0
4.918388 -2.459194 45.625124 115 115 115 0
5.024800 -2.456569 45.576417 117 117 117 0
5.135715 -2.456212 45.569788 115 115 115 0
5.235349 -2.450589 45.465469 113 113 113 0
5.348378 -2.451340 45.479407 114 114 114 0
5.464867 -2.453614 45.521591 112 112 112 0
5.555728 -2.444520 45.352878 114 114 114 0
5.662470 -2.442634 45.317890 113 113 113 0
5.787151 -2.448410 45.425050 112 112 112 0
5.885227 -2.442924 45.323272 112 112 112 0
6.013473 -2.449933 45.453308 110 110 110 0
6.121398 -2.448559 45.427815 109 109 109 0
6.229049 -2.447126 45.401229 108 108 108 0
6.348622 -2.450345 45.460952 108 108 108 0
6.464281 -2.451969 45.491072 107 107 107 0
6.588650 -2.456785 45.580419 108 108 108 0
6.699137 -2.456350 45.572358 106 106 106 0
6.817318 -2.458705 45.616042 107 107 107 0
6.926702 -2.457862 45.600410 110 110 110 0
7.045286 -2.460258 45.644870 106 106 106 0
7.160136 -2.461297 45.664131 110 110 110 0
7.264710 -2.458825 45.618274 107 107 107 0
7.386002 -2.462001 45.677190 107 107 107 0
7.501411 -2.463150 45.698511 106 106 106 0
7.635423 -2.470284 45.830870 106 106 106 0
7.747946 -2.470360 45.832274 105 105 105 0
7.870011 -2.473432 45.889278 102 102 102 0
7.975834 -2.471385 45.851301 102 102 102 0
8.115620 -2.479773 46.006913 103 103 103 0
8.234621 -2.481667 46.042053 101 101 101 0
8.329241 -2.476261 45.941762 99 99 99 0
8.453433 -2.479674 46.005079 99 99 99 0
8.617216 -2.494457 46.279354 96 96 96 0
8.173886 -2.335396 43.328313 96 96 96 0
8.459443 -2.385997 44.267102 91 91 91 0
9.024653 -2.513194 46.626983 92 92 92 0
-9.475713 -2.487375 48.345476 123 123 123 0
-9.340883 -2.483020 48.260828 124 124 124 0
-9.205647 -2.478443 48.171881 124 124 124 0
-9.069147 -2.473404 48.073932 124 124 124 0
-8.934637 -2.468781 47.984086 125 125 125 0
-8.807284 -2.466040 47.930797 125 125 125 0
-8.678950 -2.462945 47.870659 128 128 128 0
-8.545304 -2.458238 47.779168 126 126 126 0
-8.423266 -2.456786 47.750940 128 128 128 0
-8.295142 -2.453493 47.686933 130 130 130 0
-8.170314 -2.451094 47.640317 128 128 128 0
-8.051943 -2.450591 47.630544 130 130 130 0
-7.926111 -2.447770 47.575695 128 128 128 0
-7.805715 -2.446567 47.552329 128 128 128 0
-7.685365 -2.445343 47.528538 130 130 130 0
-7.556963 -2.441480 47.453460 130 130 130 0
-7.443625 -2.442439 47.472098 130 130 130 0
-7.332397 -2.444132 47.504999 130 130 130 0
-7.207379 -2.441209 47.448180 129 129 129 0
-7.097128 -2.443273 47.488308 130 130 130 0
-6.986177 -2.445162 47.525014 132 132 132 0
-6.862232 -2.442489 47.473067 132 132 132 0
-6.751269 -2.444425 47.510687 131 131 131 0
-6.640238 -2.446404 47.549146 133 133 133 0
-6.514317 -2.442869 47.480441 134 134 134 0
-6.404106 -2.445204 47.525834 133 133 133 0
-6.289778 -2.446025 47.541782 132 132 132 0
-6.163305 -2.442064 47.464803 133 133 133 0
-6.048340 -2.442599 47.475194 131 131 131 0
-5.938415 -2.445230 47.526328 131 131 131 0
-5.809123 -2.439832 47.421415 130 130 130 0
-5.697479 -2.441777 47.459214 132 132 132 0
-5.578673 -2.440670 47.437699 133 133 133 0
-5.448767 -2.434555 47.318862 134 134 134 0
-5.326817 -2.431808 47.265459 132 132 132 0
-5.199039 -2.426218 47.156812 132 132 132 0
-5.076518 -2.422884 47.092006 133 133 133 0
-4.958143 -2.421419 47.063534 134 134 134 0
-4.835616 -2.417808 46.993356 134 134 134 0
-4.714232 -2.414607 46.931133 136 136 136 0
-4.594661 -2.412197 46.884293 137 137 137 0
-4.476309 -2.410320 46.847817 141 141 141 0
-4.359861 -2.409397 46.829869 138 138 138 0
-4.248738 -2.411446 46.869693 135 135 135 0
-4.141006 -2.415587 46.950182 136 136 136 0
-4.033385 -2.420031 47.036565 134 134 134 0
-3.903713 -2.411117 46.863298 123 123 123 0
-3.748302 -2.385283 46.361192 116 116 116 0
-3.622911 -2.377535 46.210602 113 113 113 0
-3.495173 -2.367698 46.019389 114 114 114 0
-3.380097 -2.366068 45.987714 113 113 113 0
-3.259524 -2.360345 45.876475 113 113 113 0
-3.146201 -2.359651 45.862995 114 114 114 0
-3.032587 -2.358679 45.844099 114 114 114 0
-2.916139 -2.355343 45.779258 115 115 115 0
-2.803275 -2.354751 45.767759 114 114 114 0
-2.687764 -2.351794 45.710277 114 114 114 0
-2.577397 -2.353275 45.739074 116 116 116 0
-2.466143 -2.354046 45.754044 114 114 114 0
-2.355233 -2.355233 45.777133 112 112 112 0
-2.245607 -2.357888 45.828722 113 113 113 0
-2.131027 -2.355346 45.779315 112 112 112 0
-2.021696 -2.358645 45.843443 112 112 112 0
-1.909424 -2.358700 45.844518 113 113 113 0
-1.799451 -2.361779 45.904354 110 110 110 0
-1.686708 -2.361392 45.896824 109 109 109 0
-1.577075 -2.365613 45.978865 112 112 112 0
-1.464250 -2.365327 45.973306 110 110 110 0
-1.353257 -2.368200 46.029158 109 109 109 0
-1.242185 -2.371445 46.092224 108 108 108 0
-1.129456 -2.371858 46.100256 108 108 108 0
-1.017473 -2.374105 46.143921 108 108 108 0
-0.905103 -2.375896 46.178737 108 108 108 0
-0.791815 -2.375444 46.169960 109 109 109 0
-0.680163 -2.380569 46.269565 108 108 108 0
-0.566958 -2.381222 46.282259 108 108 108 0
-0.453326 -2.379961 46.257745 110 110 110 0
-0.340761 -2.385324 46.361980 111 111 111 0
-0.227146 -2.385038 46.356414 106 106 106 0
-0.113835 -2.390541 46.463373 105 105 105 0
0.000000 -2.387583 46.405893 104 104 104 0
0.114027 -2.394564 46.541567 109 109 109 0
0.228346 -2.397637 46.601301 113 113 113 0
0.343047 -2.401329 46.673070 126 126 126 0
0.458697 -2.408160 46.805836 138 138 138 0
0.572941 -2.406351 46.770665 148 148 148 0
0.687610 -2.406635 46.776183 149 149 149 0
0.802556 -2.407667 46.796241 145 145 145 0
0.915433 -2.403011 46.705749 146 146 146 0
1.027718 -2.398008 46.608521 144 144 144 0
1.143896 -2.402183 46.689652 144 144 144 0
1.256037 -2.397889 46.606199 144 144 144 0
1.369122 -2.395963 46.568759 138 138 138 0
1.487396 -2.402716 46.700019 136 136 136 0
1.600410 -2.400615 46.659185 130 130 130 0
1.714846 -2.400784 46.662468 129 129 129 0
1.831360 -2.403660 46.718365 131 131 131 0
1.946064 -2.403962 46.724231 133 133 133 0
2.060278 -2.403658 46.718323 133 133 133 0
2.176356 -2.405447 46.753091 138 138 138 0
2.289706 -2.404191 46.728691 138 138 138 0
2.403571 -2.403571 46.716628 135 135 135 0
2.516186 -2.401813 46.682477 138 138 138 0
2.633140 -2.404171 46.728297 139 139 139 0
2.744759 -2.401664 46.679582 140 140 140 0
2.856095 -2.399120 46.630127 140 140 140 0
2.973878 -2.401978 46.685678 139 139 139 0
3.081635 -2.396827 46.585558 139 139 139 0
3.195733 -2.396799 46.585024 138 138 138 0
3.310542 -2.397289 46.594539 135 135 135 0
3.415468 -2.390827 46.468950 135 135 135 0
3.526961 -2.389231 46.437927 133 133 133 0
3.643350 -2.390949 46.471304 134 134 134 0
3.747206 -2.384586 46.347637 136 136 136 0
3.858649 -2.383283 46.322316 138 138 138 0
3.968685 -2.381211 46.282043 133 133 133 0
4.075820 -2.377562 46.211113 129 129 129 0
4.200371 -2.383994 46.336135 132 132 132 0
4.333213 -2.394670 46.543637 137 137 137 0
4.464564 -2.403996 46.724894 130 130 130 0
4.566343 -2.397330 46.595342 120 120 120 0
4.655502 -2.384525 46.346460 119 119 119 0
4.747153 -2.373576 46.133650 116 116 116 0
4.839313 -2.363386 45.935581 114 114 114 0
4.936608 -2.356109 45.794140 115 115 115 0
5.050644 -2.356967 45.810826 115 115 115 0
5.158308 -2.354880 45.770260 114 114 114 0
5.260402 -2.350392 45.683038 116 116 116 0
5.365159 -2.347257 45.622100 113 113 113 0
5.476850 -2.347221 45.621407 110 110 110 0
5.574968 -2.341486 45.509939 113 113 113 0
5.696473 -2.345606 45.590016 111 111 111 0
5.803867 -2.343869 45.556256 111 111 111 0
5.908218 -2.340992 45.500330 111 111 111 0
6.031718 -2.345668 45.591213 108 108 108 0
6.139596 -2.344209 45.562866 106 106 106 0
6.253696 -2.345136 45.580875 107 107 107 0
6.369573 -2.346685 45.610979 107 107 107 0
6.487607 -2.348961 45.655223 110 110 110 0
6.602166 -2.349923 45.673926 109 109 109 0
6.715633 -2.350472 45.684579 110 110 110 0
6.836723 -2.353626 45.745891 108 108 108 0
6.944412 -2.352140 45.716999 109 109 109 0
7.061061 -2.353687 45.747075 110 110 110 0
7.185076 -2.357603 45.823186 110 110 110 0
7.303017 -2.359436 45.858817 106 106 106 0
7.411786 -2.358296 45.836648 108 108 108 0
7.539393 -2.363093 45.929900 104 104 104 0
7.652997 -2.363426 45.936359 106 106 106 0
7.781459 -2.368270 46.030519 102 102 102 0
7.895926 -2.368778 46.040384 101 101 101 0
8.021048 -2.372423 46.111227 103 103 103 0
6.863740 -2.001924 38.910090 99 99 99 0
8.274321 -2.380284 46.264027 100 100 100 0
8.380940 -2.378375 46.226915 100 100 100 0
7.637096 -2.138387 41.562430 99 99 99 0
8.660685 -2.393084 46.512809 96 96 96 0
8.773133 -2.392673 46.504813 92 92 92 0
7.945333 -2.139128 41.576836 90 90 90 0
8.571080 -2.278388 44.283543 87 87 87 0
-9.505093 -2.376273 48.495372 121 121 121 0
-9.361349 -2.369962 48.366568 124 124 124 0
-9.226466 -2.365761 48.280828 126 126 126 0
-9.086642 -2.360167 48.166671 124 124 124 0
-8.957283 -2.357180 48.105707 124 124 124 0
-8.823500 -2.352933 48.019050 125 125 125 0
-8.693046 -2.349472 47.948406 125 125 125 0
-8.563259 -2.346098 47.879560 126 126 126 0
-8.441281 -2.344800 47.853068 126 126 126 0
-8.314907 -2.342227 47.800557 126 126 126 0
-8.183153 -2.338044 47.715180 126 126 126 0
-8.068921 -2.338818 47.730975 126 126 126 0
-7.940163 -2.335342 47.660044 128 128 128 0
-7.817501 -2.333582 47.624132 129 129 129 0
-7.699225 -2.333099 47.614257 129 129 129 0
-7.570446 -2.329368 47.538123 129 129 129 0
-7.450570 -2.328303 47.516389 131 131 131 0
-7.341960 -2.330781 47.566955 129 129 129 0
-7.219220 -2.328781 47.526134 129 129 129 0
-7.107789 -2.330423 47.559645 129 129 129 0
-6.995788 -2.331929 47.590397 131 131 131 0
-6.871825 -2.329432 47.539430 131 131 131 0
-6.759606 -2.330898 47.569356 132 132 132 0
-6.645940 -2.331909 47.589978 132 132 132 0
-6.522872 -2.329597 47.542797 131 131 131 0
-6.409806 -2.330838 47.568132 131 131 131 0
-6.298453 -2.332760 47.607355 132 132 132 0
-6.171569 -2.328894 47.528445 133 133 133 0
-6.061016 -2.331160 47.574692 132 132 132 0
-5.944253 -2.331079 47.573050 134 134 134 0
-5.818977 -2.327591 47.501852 134 134 134 0
-5.705666 -2.328843 47.527415 134 134 134 0
-5.587811 -2.328255 47.515403 133 133 133 0
-5.455328 -2.321416 47.375840 133 133 133 0
-5.334623 -2.319401 47.334724 130 130 130 0
-5.208721 -2.314987 47.244634 130 130 130 0
-5.084154 -2.310979 47.162834 131 131 131 0
-4.963948 -2.308813 47.118634 132 132 132 0
-4.841276 -2.305370 47.048361 132 132 132 0
-4.718866 -2.301886 46.977257 132 132 132 0
-4.600780 -2.300390 46.946737 135 135 135 0
-4.480745 -2.297818 46.894240 140 140 140 0
-4.360083 -2.294780 46.832252 139 139 139 0
-4.246806 -2.295571 46.848378 133 133 133 0
-4.139068 -2.299482 46.928209 138 138 138 0
-4.028891 -2.302223 46.984146 137 137 137 0
-3.924597 -2.308586 47.114010 136 136 136 0
-3.803007 -2.304853 47.037815 127 127 127 0
-3.654206 -2.283879 46.609771 116 116 116 0
-3.522886 -2.272830 46.384283 113 113 113 0
-3.397651 -2.265101 46.226545 109 109 109 0
-3.281189 -2.262889 46.181413 114 114 114 0
-3.158234 -2.255881 46.038396 112 112 112 0
-3.038648 -2.250850 45.935720 112 112 112 0
-2.927156 -2.251658 45.952207 112 112 112 0
-2.812870 -2.250296 45.924407 113 113 113 0
-2.701869 -2.251558 45.950156 112 112 112 0
-2.584971 -2.247801 45.873488 112 112 112 0
-2.474825 -2.249841 45.915122 113 113 113 0
-2.363929 -2.251361 45.946135 112 112 112 0
-2.250175 -2.250175 45.921930 112 112 112 0
-2.138481 -2.251033 45.939452 110 110 110 0
-2.027474 -2.252749 45.974475 108 108 108 0
-1.915631 -2.253684 45.993545 109 109 109 0
-1.804981 -2.256226 46.045431 108 108 108 0
-1.694502 -2.259336 46.108890 110 110 110 0
-1.582240 -2.260343 46.129455 107 107 107 0
-1.468515 -2.259254 46.107222 108 108 108 0
-1.358713 -2.264522 46.214735 108 108 108 0
-1.246083 -2.265605 46.236840 108 108 108 0
-1.132849 -2.265697 46.238722 108 108 108 0
-1.022749 -2.272776 46.383189 107 107 107 0
-0.909143 -2.272857 46.384841 109 109 109 0
-0.794479 -2.269940 46.325300 107 107 107 0
-0.682326 -2.274418 46.416702 109 109 109 0
-0.569156 -2.276624 46.461719 109 109 109 0
-0.454659 -2.273294 46.393747 106 106 106 0
-0.341645 -2.277634 46.482324 111 111 111 0
-0.227820 -2.278204 46.493963 110 110 110 0
-0.114131 -2.282616 46.584007 109 109 109 0
0.000000 -2.291860 46.772663 119 119 119 0
0.114552 -2.291039 46.755908 129 129 129 0
0.229421 -2.294215 46.820712 141 141 141 0
0.344513 -2.296753 46.872502 148 148 148 0
0.459413 -2.297065 46.878886 151 151 151 0
0.573323 -2.293291 46.801864 148 148 148 0
0.686662 -2.288873 46.711694 144 144 144 0
0.801973 -2.291353 46.762301 147 147 147 0
0.914257 -2.285642 46.645751 145 145 145 0
1.028619 -2.285820 46.649384 143 143 143 0
1.143167 -2.286334 46.659868 139 139 139 0
1.257389 -2.286163 46.656379 133 133 133 0
1.370731 -2.284552 46.623502 130 130 130 0
1.487223 -2.288035 46.694595 128 128 128 0
1.601429 -2.287756 46.688892 127 127 127 0
1.714401 -2.285868 46.650367 127 127 127 0
1.832397 -2.290496 46.744816 129 129 129 0
1.948601 -2.292472 46.785138 131 131 131 0
2.063133 -2.292370 46.783070 131 131 131 0
2.179196 -2.293890 46.814087 134 134 134 0
2.292100 -2.292100 46.777555 134 134 134 0
2.406733 -2.292127 46.778092 131 131 131 0
2.519365 -2.290332 46.741467 134 134 134 0
2.637202 -2.293219 46.800397 136 136 136 0
2.744990 -2.287492 46.683510 139 139 139 0
2.859723 -2.287778 46.689351 137 137 137 0
2.975982 -2.289217 46.718719 136 136 136 0
3.087206 -2.286819 46.669780 134 134 134 0
3.198469 -2.284620 46.624905 133 133 133 0
3.313372 -2.285084 46.634373 135 135 135 0
3.420965 -2.280643 46.543736 137 137 137 0
3.532249 -2.278870 46.507558 137 137 137 0
3.648610 -2.280381 46.538395 135 135 135 0
3.752989 -2.274539 46.419162 134 134 134 0
3.864396 -2.273174 46.391308 137 137 137 0
3.975416 -2.271666 46.360537 135 135 135 0
4.076996 -2.264998 46.224447 129 129 129 0
4.197751 -2.269055 46.307237 128 128 128 0
4.322823 -2.275170 46.432037 130 130 130 0
4.450464 -2.282289 46.577331 134 134 134 0
4.575585 -2.287792 46.689638 132 132 132 0
4.692429 -2.288990 46.714080 123 123 123 0
4.787707 -2.279861 46.527766 118 118 118 0
4.874777 -2.267338 46.272210 113 113 113 0
4.980257 -2.263753 46.199043 116 116 116 0
5.078834 -2.257260 46.066524 114 114 114 0
5.166671 -2.246379 45.844465 112 112 112 0
5.276553 -2.245342 45.823301 112 112 112 0
5.391919 -2.246633 45.849652 113 113 113 0
5.493381 -2.242196 45.759108 110 110 110 0
5.597028 -2.238811 45.690028 112 112 112 0
5.706819 -2.237968 45.672824 109 109 109 0
5.820417 -2.238622 45.686160 110 110 110 0
5.938479 -2.240935 45.733377 107 107 107 0
6.052028 -2.241492 45.744728 108 108 108 0
6.159294 -2.239743 45.709048 107 107 107 0
6.273033 -2.240369 45.721817 108 108 108 0
6.383379 -2.239782 45.709841 109 109 109 0
6.508155 -2.244191 45.799822 109 109 109 0
6.625511 -2.245936 45.835428 109 109 109 0
6.732952 -2.244317 45.802392 109 109 109 0
6.859824 -2.249123 45.900462 111 111 111 0
6.964641 -2.246658 45.850173 107 107 107 0
7.090837 -2.251059 45.939986 108 108 108 0
7.209764 -2.253051 45.980640 105 105 105 0
7.324537 -2.253704 45.993956 105 105 105 0
7.457530 -2.259858 46.119543 106 106 106 0
7.577687 -2.261996 46.163184 104 104 104 0
7.678682 -2.258436 46.090528 100 100 100 0
7.808532 -2.263343 46.190668 101 101 101 0
7.930841 -2.265954 46.243969 102 102 102 0
8.053078 -2.268473 46.295360 101 101 101 0
8.177302 -2.271473 46.356590 99 99 99 0
7.277923 -1.993951 40.692886 98 98 98 0
8.425394 -2.277134 46.472113 99 99 99 0
8.568195 -2.284852 46.629632 98 98 98 0
8.674557 -2.282778 46.587308 97 97 97 0
8.015423 -2.081928 42.488326 92 92 92 0
8.980896 -2.302794 46.995793 91 91 91 0
9.162990 -2.319744 47.341722 106 106 106 0
-9.535941 -2.264786 48.652760 120 120 120 0
-9.388048 -2.257885 48.504511 123 123 123 0
-9.248625 -2.252870 48.396782 123 123 123 0
-9.107641 -2.247340 48.277980 125 125 125 0
-8.980601 -2.245150 48.230938 125 125 125 0
-8.848860 -2.241711 48.157063 123 123 123 0
-8.712389 -2.236965 48.055094 122 122 122 0
-8.586410 -2.234819 48.009004 123 123 123 0
-8.458994 -2.232235 47.953484 124 124 124 0
-8.332274 -2.229763 47.900397 124 124 124 0
-8.200863 -2.225948 47.818440 125 125 125 0
-8.086435 -2.226699 47.834575 125 125 125 0
-7.957749 -2.223489 47.765602 126 126 126 0
-7.830036 -2.220458 47.700495 129 129 129 0
-7.715361 -2.221089 47.714046 130 130 130 0
-7.583346 -2.216670 47.619129 129 129 129 0
-7.463336 -2.215678 47.597808 129 129 129 0
-7.349439 -2.216498 47.615416 130 130 130 0
-7.222478 -2.213340 47.547585 127 127 127 0
-7.114836 -2.216096 47.606795 128 128 128 0
-7.007066 -2.218904 47.667116 129 129 129 0
-6.883346 -2.216671 47.619134 130 130 130 0
-6.768329 -2.217211 47.630743 131 131 131 0
-6.655969 -2.218656 47.661791 132 132 132 0
-6.531263 -2.215964 47.603957 131 131 131 0
