ply
format ascii 1.0
element vertex 1124
property float x
property float y
property float z
property uchar red
property uchar green
property uchar blue
property uchar alpha
end_header
5.951103 0.238044 48.580429 108 108 108 0
6.085874 0.238662 48.706471 106 106 106 0
6.207552 0.238752 48.724902 104 104 104 0
6.342823 0.239352 48.847305 105 105 105 0
6.474813 0.239808 48.940382 108 108 108 0
6.596249 0.239864 48.951758 107 107 107 0
6.733028 0.240465 49.074546 108 108 108 0
6.861297 0.240747 49.132095 105 105 105 0
5.924517 0.204294 41.692590 106 106 106 0
7.121359 0.241402 49.265716 105 105 105 0
7.248140 0.241605 49.307075 102 102 102 0
6.240365 0.204602 41.755536 102 102 102 0
6.337317 0.204430 41.720323 105 105 105 0
7.643793 0.242660 49.522468 104 104 104 0
6.538336 0.204323 41.698570 102 102 102 0
7.923046 0.243786 49.752253 104 104 104 0
8.063632 0.244352 49.867855 103 103 103 0
6.849819 0.204472 41.729024 106 106 106 0
6.961194 0.204741 41.783879 103 103 103 0
8.491778 0.246138 50.232346 105 105 105 0
8.615290 0.246151 50.234924 107 107 107 0
8.742004 0.246254 50.255846 104 104 104 0
7.369634 0.204712 41.777972 101 101 101 0
9.039917 0.247669 50.544688 107 107 107 0
9.160071 0.247569 50.524384 105 105 105 0
7.878257 0.210087 42.874868 102 102 102 0
8.150918 0.214498 43.775069 102 102 102 0
9.606480 0.249519 50.922239 105 105 105 0
9.721445 0.249268 50.870985 105 105 105 0
9.874057 0.249976 51.015535 103 103 103 0
-10.134961 0.380061 51.708986 134 134 134 0
-9.978281 0.378922 51.554022 130 130 130 0
-10.508832 0.404186 54.991273 133 133 133 0
-10.373898 0.404178 54.990183 135 135 135 0
-10.239935 0.404208 54.994282 131 131 131 0
-10.105856 0.404234 54.997854 133 133 133 0
-9.942661 0.403081 54.840930 131 131 131 0
-9.751293 0.400738 54.522184 128 128 128 0
-9.551713 0.397988 54.148032 124 124 124 0
-9.382696 0.396452 53.939041 126 126 126 0
-9.181869 0.393509 53.538594 125 125 125 0
-9.014533 0.391936 53.324656 123 123 123 0
-8.823614 0.389277 52.962868 123 123 123 0
-8.664525 0.387964 52.784190 119 119 119 0
-8.483096 0.385595 52.461940 122 122 122 0
-8.304608 0.383290 52.148245 122 122 122 0
-8.142662 0.381687 51.930241 120 120 120 0
-7.985422 0.380258 51.735805 120 120 120 0
-7.825142 0.378636 51.515091 119 119 119 0
-7.666403 0.377036 51.297443 120 120 120 0
-7.499547 0.374977 51.017327 119 119 119 0
-7.323874 0.372400 50.666718 120 120 120 0
-7.177920 0.371272 50.513156 119 119 119 0
-7.029725 0.369986 50.338165 116 116 116 0
-6.876274 0.368372 50.118618 118 118 118 0
-6.739109 0.367588 50.011939 121 121 121 0
-6.606793 0.367044 49.937965 116 116 116 0
-6.462282 0.365790 49.767285 115 115 115 0
-6.330016 0.365193 49.686150 115 115 115 0
-6.202933 0.364878 49.643322 117 117 117 0
-6.062645 0.363759 49.490982 113 113 113 0
-5.935836 0.363419 49.444700 111 111 111 0
-5.796350 0.362272 49.288694 112 112 112 0
-5.666971 0.361722 49.213819 116 116 116 0
-5.544760 0.361615 49.199291 115 115 115 0
-5.415648 0.361043 49.121520 113 113 113 0
-5.289656 0.360658 49.069164 116 116 116 0
-5.160398 0.360028 48.983371 111 111 111 0
-5.041597 0.360114 48.995115 116 116 116 0
-4.913137 0.359498 48.911268 115 115 115 0
-4.793254 0.359494 48.910754 114 114 114 0
-4.670186 0.359245 48.876878 116 116 116 0
-4.549654 0.359183 48.868462 114 114 114 0
-4.421140 0.358471 48.771537 115 115 115 0
-4.302772 0.358564 48.784266 116 116 116 0
-4.176138 0.357955 48.701320 116 116 116 0
-4.064617 0.358643 48.794921 116 116 116 0
-3.940864 0.358260 48.742904 117 117 117 0
-3.815354 0.357689 48.665230 119 119 119 0
-3.697572 0.357830 48.684298 117 117 117 0
-3.578855 0.357885 48.691903 118 118 118 0
-3.455404 0.357456 48.633408 118 118 118 0
-3.334413 0.357259 48.606605 118 118 118 0
-3.214843 0.357205 48.599287 119 119 119 0
-3.091682 0.356733 48.535041 121 121 121 0
-2.973234 0.356788 48.542588 119 119 119 0
-2.855445 0.356931 48.561982 118 118 118 0
-2.732865 0.356461 48.498053 118 118 118 0
-2.615987 0.356725 48.534081 119 119 119 0
-2.496719 0.356674 48.527085 118 118 118 0
-2.374773 0.356216 48.464747 118 118 118 0
-2.259053 0.356693 48.529595 120 120 120 0
-2.139187 0.356531 48.507645 120 120 120 0
-2.018679 0.356238 48.467692 119 119 119 0
-1.902804 0.356776 48.540907 117 117 117 0
-1.781494 0.356299 48.476014 118 118 118 0
-1.663565 0.356478 48.500450 118 118 118 0
-1.546388 0.356859 48.552225 117 117 117 0
-1.428497 0.357124 48.588328 117 117 117 0
-1.307176 0.356503 48.503748 116 116 116 0
-1.191015 0.357305 48.612863 116 116 116 0
-1.070531 0.356844 48.550176 117 117 117 0
-0.952137 0.357052 48.578439 118 118 118 0
-0.833703 0.357301 48.612447 116 116 116 0
-0.715367 0.357683 48.664415 118 118 118 0
-0.595705 0.357423 48.628947 119 119 119 0
-0.477252 0.357939 48.699151 116 116 116 0
-0.357724 0.357724 48.669913 117 117 117 0
-0.238206 0.357309 48.613536 118 118 118 0
-0.119289 0.357866 48.689231 118 118 118 0
0.000000 0.357770 48.676254 117 117 117 0
0.119254 0.357763 48.675250 118 118 118 0
0.238663 0.357995 48.706776 117 117 117 0
0.358021 0.358021 48.710304 118 118 118 0
0.477028 0.357771 48.676317 120 120 120 0
0.596577 0.357946 48.700158 127 127 127 0
0.716096 0.358048 48.713989 129 129 129 0
0.834810 0.357776 48.676953 125 125 125 0
0.954316 0.357868 48.689579 124 124 124 0
1.073491 0.357830 48.684401 123 123 123 0
1.190405 0.357121 48.587955 123 123 123 0
1.309919 0.357251 48.605514 121 121 121 0
1.429222 0.357305 48.612986 121 121 121 0
1.546625 0.356913 48.559645 121 121 121 0
1.666624 0.357134 48.589630 118 118 118 0
1.786297 0.357259 48.606717 119 119 119 0
1.902390 0.356698 48.530345 118 118 118 0
2.020924 0.356634 48.521579 120 120 120 0
2.139539 0.356590 48.515615 119 119 119 0
2.254771 0.356016 48.437616 120 120 120 0
2.373965 0.356095 48.448266 119 119 119 0
2.492186 0.356027 48.438983 119 119 119 0
2.605314 0.355270 48.336059 116 116 116 0
2.725450 0.355493 48.366457 117 117 117 0
2.843501 0.355438 48.358865 114 114 114 0
2.957181 0.354862 48.280498 117 117 117 0
3.077570 0.355104 48.313505 118 118 118 0
3.196377 0.355153 48.320134 114 114 114 0
3.308676 0.354501 48.231423 114 114 114 0
3.429595 0.354786 48.270162 116 116 116 0
3.546775 0.354678 48.255446 115 115 115 0
3.665748 0.354750 48.265279 115 115 115 0
3.778277 0.354214 48.192314 116 116 116 0
3.899954 0.354541 48.236904 114 114 114 0
4.017941 0.354524 48.234582 114 114 114 0
4.136168 0.354529 48.235195 111 111 111 0
4.258728 0.354894 48.284894 110 110 110 0
4.381535 0.355260 48.334642 109 109 109 0
4.501793 0.355405 48.354386 111 111 111 0
4.626609 0.355893 48.420821 111 111 111 0
4.742286 0.355671 48.390674 112 112 112 0
4.867200 0.356137 48.453955 110 110 110 0
4.984579 0.356041 48.441003 111 111 111 0
5.105545 0.356201 48.462697 109 109 109 0
5.235666 0.356977 48.568331 109 109 109 0
5.357277 0.357152 48.592077 107 107 107 0
5.478228 0.357276 48.608946 108 108 108 0
5.597592 0.357293 48.611303 106 106 106 0
5.726017 0.357876 48.690619 105 105 105 0
5.852695 0.358328 48.752143 108 108 108 0
5.989872 0.359392 48.896912 107 107 107 0
6.108775 0.359340 48.889755 105 105 105 0
5.323601 0.307131 41.786504 107 107 107 0
6.354322 0.359679 48.935864 109 109 109 0
6.498018 0.361001 49.115782 107 107 107 0
6.614087 0.360768 49.084132 108 108 108 0
6.749727 0.361593 49.196262 109 109 109 0
5.831550 0.306924 41.758321 104 104 104 0
7.021344 0.363173 49.411287 108 108 108 0
7.146098 0.363361 49.436858 103 103 103 0
7.278065 0.363903 49.510645 105 105 105 0
7.395578 0.363717 49.485297 103 103 103 0
6.356803 0.307587 41.848602 106 106 106 0
6.453366 0.307303 41.809954 105 105 105 0
7.810627 0.366123 49.812672 105 105 105 0
6.663257 0.307535 41.841488 105 105 105 0
8.078474 0.367203 49.959640 104 104 104 0
8.218207 0.367979 50.065229 103 103 103 0
8.352262 0.368482 50.133625 102 102 102 0
8.502390 0.369669 50.295117 103 103 103 0
7.174403 0.307474 41.833255 104 104 104 0
7.302532 0.308558 41.980638 102 102 102 0
8.927908 0.371996 50.611724 103 103 103 0
9.036380 0.371358 50.524911 104 104 104 0
7.614391 0.308692 41.998846 103 103 103 0
9.334285 0.373371 50.798831 104 104 104 0
7.805258 0.308102 41.918679 104 104 104 0
9.639130 0.375551 51.095308 104 104 104 0
8.539294 0.328434 44.684951 104 104 104 0
9.881829 0.375259 51.055691 106 106 106 0
-9.955695 0.497785 50.794362 132 132 132 0
-9.888589 0.500688 51.090620 138 138 138 0
-10.507909 0.538867 54.986439 129 129 129 0
-10.373003 0.538857 54.985440 131 131 131 0
-10.238674 0.538878 54.987509 136 136 136 0
-10.104739 0.538919 54.991775 133 133 133 0
-9.970694 0.538956 54.995554 134 134 134 0
-9.832673 0.538777 54.977202 132 132 132 0
-9.640820 0.535601 54.653172 134 134 134 0
-9.459406 0.532924 54.380031 125 125 125 0
-9.292398 0.530994 54.183076 129 129 129 0
-9.101826 0.527642 53.841031 127 127 127 0
-8.932889 0.525464 53.618780 123 123 123 0
-8.734317 0.521452 53.209361 124 124 124 0
-8.579158 0.519949 53.056015 123 123 123 0
-8.412921 0.517718 52.828387 123 123 123 0
-8.221519 0.513845 52.433157 118 118 118 0
-8.053478 0.511332 52.176728 121 121 121 0
-7.889839 0.509022 51.941006 118 118 118 0
-7.733153 0.507092 51.744084 122 122 122 0
-7.576662 0.505111 51.541922 117 117 117 0
-7.422667 0.503232 51.350169 118 118 118 0
-7.245524 0.499691 50.988909 118 118 118 0
-7.107024 0.498739 50.891687 118 118 118 0
-6.926592 0.494757 50.485368 121 121 121 0
-6.786542 0.493567 50.363949 115 115 115 0
-6.644859 0.492212 50.225689 115 115 115 0
-6.493824 0.490100 50.010194 113 113 113 0
-6.360199 0.489246 49.923070 116 116 116 0
-6.228571 0.488515 49.848507 113 113 113 0
-6.096415 0.487713 49.766657 118 118 118 0
-5.966167 0.487034 49.697354 115 115 115 0
-5.832546 0.486046 49.596483 115 115 115 0
-5.697690 0.484910 49.480593 116 116 116 0
-5.574707 0.484757 49.465018 114 114 114 0
-5.433872 0.483011 49.286818 115 115 115 0
-5.311723 0.482884 49.273871 114 114 114 0
-5.191596 0.482939 49.279508 116 116 116 0
-5.061173 0.482016 49.185357 115 115 115 0
-4.933863 0.481352 49.117596 116 116 116 0
-4.809674 0.480967 49.078310 113 113 113 0
-4.686652 0.480682 49.049208 114 114 114 0
-4.562037 0.480214 49.001474 115 115 115 0
-4.440465 0.480050 48.984721 115 115 115 0
-4.318551 0.479839 48.963167 116 116 116 0
-4.194577 0.479380 48.916346 116 116 116 0
-4.073198 0.479200 48.897933 114 114 114 0
-3.951698 0.478994 48.876905 117 117 117 0
-3.826558 0.478320 48.808139 117 117 117 0
-3.710041 0.478715 48.848467 115 115 115 0
-3.588618 0.478482 48.824740 116 116 116 0
-3.463220 0.477686 48.743419 115 115 115 0
-3.344384 0.477769 48.751951 119 119 119 0
-3.222185 0.477361 48.710285 119 119 119 0
-3.101731 0.477189 48.692794 120 120 120 0
-2.984170 0.477467 48.721144 116 116 116 0
-2.861964 0.476994 48.672858 119 119 119 0
-2.738879 0.476327 48.604766 117 117 117 0
-2.622960 0.476902 48.663460 118 118 118 0
-2.502867 0.476737 48.646587 118 118 118 0
-2.379735 0.475947 48.566024 119 119 119 0
-2.261806 0.476170 48.588737 121 121 121 0
-2.142804 0.476179 48.589654 118 118 118 0
-2.023551 0.476130 48.584667 115 115 115 0
-1.906830 0.476708 48.643630 116 116 116 0
-1.788087 0.476823 48.655441 116 116 116 0
-1.667842 0.476526 48.625133 115 115 115 0
-1.549867 0.476882 48.661446 118 118 118 0
-1.432139 0.477380 48.712203 117 117 117 0
-1.310985 0.476722 48.645084 115 115 115 0
-1.193720 0.477488 48.723279 117 117 117 0
-1.075253 0.477890 48.764311 116 116 116 0
-0.954356 0.477178 48.691625 115 115 115 0
-0.836241 0.477852 48.760397 116 116 116 0
-0.716956 0.477971 48.772543 115 115 115 0
-0.597068 0.477654 48.740219 117 117 117 0
-0.478426 0.478426 48.818971 116 116 116 0
-0.358873 0.478498 48.826310 117 117 117 0
-0.238930 0.477860 48.761181 118 118 118 0
-0.119576 0.478305 48.806603 117 117 117 0
0.000000 0.478239 48.799917 118 118 118 0
0.119588 0.478352 48.811479 120 120 120 0
0.239180 0.478360 48.812249 119 119 119 0
0.358753 0.478338 48.809985 121 121 121 0
0.478118 0.478118 48.787590 123 123 123 0
0.597995 0.478396 48.815947 123 123 123 0
0.717601 0.478400 48.816371 121 121 121 0
0.835251 0.477286 48.702679 121 121 121 0
0.956015 0.478007 48.776270 121 121 121 0
1.075395 0.477953 48.770759 120 120 120 0
1.193627 0.477451 48.719462 120 120 120 0
1.312351 0.477218 48.695753 119 119 119 0
1.432455 0.477485 48.722960 120 120 120 0
1.550505 0.477079 48.681488 119 119 119 0
1.668703 0.476772 48.650241 117 117 117 0
1.789665 0.477244 48.698370 119 119 119 0
1.905678 0.476419 48.614227 118 118 118 0
2.025495 0.476587 48.631326 119 119 119 0
2.145474 0.476772 48.650212 116 116 116 0
2.258860 0.475549 48.525448 118 118 118 0
2.382072 0.476414 48.613711 118 118 118 0
2.498571 0.475918 48.563084 117 117 117 0
2.614735 0.475406 48.510850 114 114 114 0
2.736397 0.475895 48.560735 116 116 116 0
2.856007 0.476001 48.571555 115 115 115 0
2.967316 0.474771 48.445979 113 113 113 0
3.089752 0.475346 48.504741 115 115 115 0
3.207018 0.475114 48.480993 115 115 115 0
3.317064 0.473866 48.353702 117 117 117 0
3.438728 0.474307 48.398700 115 115 115 0
3.556394 0.474186 48.386312 115 115 115 0
3.674242 0.474096 48.377110 115 115 115 0
3.788075 0.473509 48.317281 111 111 111 0
3.913383 0.474349 48.403003 111 111 111 0
4.031600 0.474306 48.398563 110 110 110 0
4.147438 0.473993 48.366626 109 109 109 0
4.277361 0.475262 48.496154 109 109 109 0
4.391301 0.474735 48.442377 109 109 109 0
4.520433 0.475835 48.554600 111 111 111 0
4.645208 0.476432 48.615464 109 109 109 0
4.759422 0.475942 48.565528 111 111 111 0
4.883310 0.476420 48.614336 110 110 110 0
5.008690 0.477018 48.675317 109 109 109 0
5.131683 0.477366 48.710799 109 109 109 0
5.247984 0.477089 48.682601 110 110 110 0
5.373361 0.477632 48.737971 108 108 108 0
5.495309 0.477853 48.760508 108 108 108 0
5.618671 0.478185 48.794363 109 109 109 0
5.753761 0.479480 48.926537 108 108 108 0
5.884438 0.480362 49.016557 106 106 106 0
5.999706 0.479977 48.977195 107 107 107 0
6.128653 0.480679 49.048844 110 110 110 0
6.258791 0.481445 49.127092 109 109 109 0
6.382831 0.481723 49.155415 107 107 107 0
6.507053 0.482004 49.184073 108 108 108 0
6.629974 0.482180 49.202030 106 106 106 0
6.778314 0.484165 49.404622 106 106 106 0
6.901217 0.484296 49.417955 105 105 105 0
7.013380 0.483681 49.355244 107 107 107 0
7.156371 0.485178 49.507928 105 105 105 0
7.303677 0.486912 49.684877 102 102 102 0
6.283425 0.412028 42.043660 105 105 105 0
7.563468 0.487966 49.792418 107 107 107 0
6.495734 0.412428 42.084447 105 105 105 0
7.841674 0.490105 50.010675 103 103 103 0
7.970507 0.490493 50.050278 104 104 104 0
8.095756 0.490652 50.066517 103 103 103 0
8.237724 0.491804 50.184126 104 104 104 0
8.387456 0.493380 50.344874 104 104 104 0
7.110913 0.412227 42.063966 107 107 107 0
8.681384 0.496079 50.620313 104 104 104 0
8.808579 0.496258 50.638567 103 103 103 0
8.976126 0.498674 50.885071 104 104 104 0
7.543026 0.413316 42.175150 104 104 104 0
7.634413 0.412671 42.109280 105 105 105 0
9.357416 0.499062 50.924711 102 102 102 0
9.475430 0.498707 50.888455 105 105 105 0
8.264764 0.429338 43.810038 104 104 104 0
9.776988 0.501384 51.161635 106 106 106 0
8.652870 0.438120 44.706121 105 105 105 0
-9.866637 0.616665 50.339984 134 134 134 0
-9.850596 0.623455 50.894322 133 133 133 0
-9.881623 0.633437 51.709173 136 136 136 0
-10.372333 0.673528 54.981886 137 137 137 0
-10.237937 0.673548 54.983549 138 138 138 0
-10.103735 0.673582 54.986311 133 133 133 0
-9.969420 0.673609 54.988526 134 134 134 0
-9.835536 0.673667 54.993214 139 139 139 0
-9.701612 0.673723 54.997799 133 133 133 0
-9.550871 0.672597 54.905841 133 133 133 0
-9.349186 0.667799 54.514202 130 130 130 0
-9.185201 0.665594 54.334228 130 130 130 0
-9.014169 0.662807 54.106658 126 126 126 0
-8.828796 0.658865 53.784926 127 127 127 0
-8.656181 0.655771 53.532348 124 124 124 0
-8.464053 0.651081 53.149471 125 125 125 0
-8.297321 0.648228 52.916587 124 124 124 0
-8.132498 0.645436 52.688684 124 124 124 0
-7.971847 0.642891 52.480887 123 123 123 0
-7.803732 0.639650 52.216337 122 122 122 0
-7.630682 0.635890 51.909400 120 120 120 0
-7.470912 0.633128 51.683932 120 120 120 0
-7.319953 0.631030 51.512686 121 121 121 0
-7.162771 0.628313 51.290877 118 118 118 0
-7.000132 0.625012 51.021371 119 119 119 0
-6.842161 0.622015 50.776701 121 121 121 0
-6.691947 0.619625 50.581607 118 118 118 0
-6.531743 0.616202 50.302215 116 116 116 0
-6.401492 0.615528 50.247189 115 115 115 0
-6.258407 0.613569 50.087295 114 114 114 0
-6.125786 0.612579 50.006418 118 118 118 0
-5.989570 0.611181 49.892293 115 115 115 0
-5.859802 0.610396 49.828247 114 114 114 0
-5.724701 0.609011 49.715164 114 114 114 0
-5.600682 0.608770 49.695496 119 119 119 0
-5.467060 0.607451 49.587842 113 113 113 0
-5.330505 0.605739 49.448101 116 116 116 0
-5.209741 0.605784 49.451743 115 115 115 0
-5.080694 0.604844 49.375059 116 116 116 0
-4.955542 0.604334 49.333419 115 115 115 0
-4.832481 0.604060 49.311033 116 116 116 0
-4.704196 0.603102 49.232820 117 117 117 0
-4.580204 0.602658 49.196608 115 115 115 0
-4.458977 0.602565 49.188940 114 114 114 0
-4.335556 0.602161 49.155962 115 115 115 0
-4.209893 0.601413 49.094958 115 115 115 0
-4.088294 0.601220 49.079154 113 113 113 0
-3.966005 0.600910 49.053865 115 115 115 0
-3.844640 0.600725 49.038773 116 116 116 0
-3.724775 0.600770 49.042464 114 114 114 0
-3.598205 0.599701 48.955164 115 115 115 0
-3.476069 0.599322 48.924269 117 117 117 0
-3.353022 0.598754 48.877866 117 117 117 0
-3.234336 0.598951 48.893972 116 116 116 0
-3.111745 0.598413 48.850003 117 117 117 0
-2.993522 0.598704 48.873834 117 117 117 0
-2.868314 0.597565 48.780850 117 117 117 0
-2.748094 0.597412 48.768301 117 117 117 0
-2.630987 0.597952 48.812374 118 118 118 0
-2.509546 0.597511 48.776409 117 117 117 0
-2.390020 0.597505 48.775922 118 118 118 0
-2.269168 0.597149 48.746891 115 115 115 0
-2.149425 0.597062 48.739788 116 116 116 0
-2.028316 0.596563 48.699057 116 116 116 0
-1.909748 0.596796 48.718067 117 117 117 0
-1.792610 0.597537 48.778492 117 117 117 0
-1.672298 0.597249 48.755048 117 117 117 0
-1.554207 0.597772 48.797711 114 114 114 0
-1.435032 0.597930 48.810600 116 116 116 0
-1.315025 0.597739 48.795005 117 117 117 0
-1.196569 0.598284 48.839533 117 117 117 0
-1.076816 0.598231 48.835188 115 115 115 0
-0.957809 0.598631 48.867797 116 116 116 0
-0.839016 0.599297 48.922208 117 117 117 0
-0.718654 0.598878 48.887996 117 117 117 0
-0.598620 0.598620 48.866935 118 118 118 0
-0.479564 0.599455 48.935103 118 118 118 0
-0.359401 0.599002 48.898106 117 117 117 0
-0.239539 0.598848 48.885550 119 119 119 0
-0.119835 0.599176 48.912337 119 119 119 0
0.000000 0.599604 48.947255 119 119 119 0
0.119851 0.599256 48.918846 119 119 119 0
0.239833 0.599584 48.945600 121 121 121 0
0.359652 0.599420 48.932205 119 119 119 0
0.478978 0.598723 48.875319 120 120 120 0
0.599041 0.599041 48.901312 119 119 119 0
0.719087 0.599240 48.917517 119 119 119 0
0.837814 0.598439 48.852145 119 119 119 0
0.958147 0.598842 48.885029 119 119 119 0
1.078265 0.599036 48.900892 119 119 119 0
1.196599 0.598299 48.840770 119 119 119 0
1.316019 0.598190 48.831875 118 118 118 0
1.435939 0.598308 48.841452 119 119 119 0
1.554094 0.597729 48.794165 118 118 118 0
1.673895 0.597820 48.801598 118 118 118 0
1.793614 0.597871 48.805836 117 117 117 0
1.910277 0.596961 48.731548 117 117 117 0
2.031430 0.597479 48.773831 118 118 118 0
2.151471 0.597631 48.786184 118 118 118 0
2.267162 0.596622 48.703801 118 118 118 0
2.387950 0.596988 48.733681 114 114 114 0
2.504047 0.596202 48.669528 114 114 114 0
2.622330 0.595984 48.651766 114 114 114 0
2.744822 0.596700 48.710242 113 113 113 0
2.860961 0.596034 48.655801 113 113 113 0
2.980373 0.596075 48.659148 113 113 113 0
3.100432 0.596237 48.672403 117 117 117 0
3.215883 0.595534 48.615009 116 116 116 0
3.329130 0.594488 48.529598 114 114 114 0
3.451165 0.595028 48.573755 116 116 116 0
3.566142 0.594357 48.518935 113 113 113 0
3.680620 0.593648 48.461091 111 111 111 0
3.803984 0.594373 48.520209 111 111 111 0
3.926469 0.594919 48.564855 112 112 112 0
4.043923 0.594695 48.546497 110 110 110 0
4.167151 0.595307 48.596517 110 110 110 0
4.289969 0.595829 48.639106 110 110 110 0
4.402997 0.595000 48.571393 111 111 111 0
4.529397 0.595973 48.650880 111 111 111 0
4.657588 0.597127 48.745034 110 110 110 0
4.787931 0.598491 48.856440 111 111 111 0
4.895087 0.596962 48.731580 110 110 110 0
5.021207 0.597763 48.796955 111 111 111 0
5.146832 0.598469 48.854599 108 108 108 0
5.263653 0.598142 48.827948 110 110 110 0
5.392278 0.599142 48.909553 108 108 108 0
5.511930 0.599123 48.907988 108 108 108 0
5.628151 0.598739 48.876688 108 108 108 0
5.768585 0.600894 49.052593 108 108 108 0
5.896958 0.601730 49.120847 109 109 109 0
6.017400 0.601740 49.121631 107 107 107 0
6.155690 0.603499 49.265224 108 108 108 0
6.276088 0.603470 49.262860 108 108 108 0
6.409576 0.604677 49.361387 108 108 108 0
5.579992 0.516666 42.176811 106 106 106 0
6.665685 0.605971 49.467047 108 108 108 0
5.771518 0.515314 42.066457 108 108 108 0
6.911254 0.606250 49.489823 107 107 107 0
7.056037 0.608279 49.655431 108 108 108 0
6.088958 0.516013 42.123545 105 105 105 0
7.314298 0.609525 49.757132 104 104 104 0
7.440059 0.609841 49.782929 104 104 104 0
7.580368 0.611320 49.903674 106 106 106 0
7.715306 0.612326 49.985789 105 105 105 0
6.617335 0.516979 42.202394 105 105 105 0
7.998023 0.615233 50.223067 103 103 103 0
8.120604 0.615197 50.220188 104 104 104 0
6.902842 0.515137 42.052036 104 104 104 0
8.415498 0.618787 50.513196 104 104 104 0
8.542755 0.619040 50.533895 104 104 104 0
7.226448 0.516175 42.136724 103 103 103 0
7.345227 0.517269 42.226080 105 105 105 0
7.458547 0.517955 42.282014 107 107 107 0
7.551001 0.517192 42.219741 105 105 105 0
7.667492 0.518074 42.291738 103 103 103 0
9.395413 0.626361 51.131499 105 105 105 0
9.550162 0.628300 51.289806 105 105 105 0
9.711881 0.630642 51.480947 105 105 105 0
8.545182 0.547768 44.715761 105 105 105 0
9.987798 0.632139 51.603193 108 108 108 0
-10.044606 0.753345 51.247990 139 139 139 0
-9.887329 0.750936 51.084109 140 140 140 0
-9.735469 0.748882 50.944371 139 139 139 0
-10.372273 0.808229 54.981570 142 142 142 0
-10.237045 0.808188 54.978761 144 144 144 0
-10.102867 0.808229 54.981589 135 135 135 0
-9.968532 0.808259 54.983629 137 137 137 0
-9.834647 0.808327 54.988239 133 133 133 0
-9.700540 0.808378 54.991725 132 132 132 0
-9.566375 0.808426 54.994967 132 132 132 0
-9.429719 0.808262 54.983784 129 129 129 0
-9.256290 0.804895 54.754748 134 134 134 0
-9.065752 0.799919 54.416280 129 129 129 0
-8.886342 0.795792 54.135501 126 126 126 0
-8.733339 0.793940 54.009516 126 126 126 0
-8.553372 0.789542 53.710344 127 127 127 0
-8.369753 0.784664 53.378526 125 125 125 0
-8.199250 0.780881 53.121154 125 125 125 0
-8.040680 0.778130 52.934038 128 128 128 0
-7.878130 0.774898 52.714155 121 121 121 0
-7.703804 0.770380 52.406832 122 122 122 0
-7.544372 0.767224 52.192124 118 118 118 0
-7.376892 0.763127 51.913387 121 121 121 0
-7.222774 0.760292 51.720544 119 119 119 0
-7.063696 0.756825 51.484662 118 118 118 0
-6.898617 0.752576 51.195676 121 121 121 0
-6.755423 0.750603 51.061402 119 119 119 0
-6.601278 0.747315 50.837722 120 120 120 0
-6.452600 0.744531 50.648353 119 119 119 0
-6.309559 0.742301 50.496670 114 114 114 0
-6.154185 0.738502 50.238248 115 115 115 0
-6.027772 0.738094 50.210509 117 117 117 0
-5.897742 0.737218 50.150871 115 115 115 0
-5.754499 0.734617 49.973942 115 115 115 0
-5.628668 0.734174 49.943819 116 116 116 0
-5.500474 0.733396 49.890916 114 114 114 0
-5.362668 0.731273 49.746460 116 116 116 0
-5.242333 0.731488 49.761110 117 117 117 0
-5.108331 0.729762 49.643641 116 116 116 0
-4.977455 0.728408 49.551568 115 115 115 0
-4.854941 0.728241 49.540215 115 115 115 0
-4.725644 0.727022 49.457292 115 115 115 0
-4.596487 0.725761 49.371508 114 114 114 0
-4.480137 0.726509 49.422363 114 114 114 0
-4.353891 0.725649 49.363845 117 117 117 0
-4.225392 0.724353 49.275705 115 115 115 0
-4.107652 0.724880 49.311550 115 115 115 0
-3.979688 0.723580 49.223101 115 115 115 0
-3.857115 0.723209 49.197894 115 115 115 0
-3.738769 0.723633 49.226717 115 115 115 0
-3.612872 0.722574 49.154723 116 116 116 0
-3.488365 0.721731 49.097329 117 117 117 0
-3.368777 0.721881 49.107539 115 115 115 0
-3.244149 0.720922 49.042312 115 115 115 0
-3.122794 0.720645 49.023460 117 117 117 0
-3.003575 0.720858 49.037951 116 116 116 0
-2.881751 0.720438 49.009370 115 115 115 0
-2.758180 0.719525 48.947289 116 116 116 0
-2.638095 0.719481 48.944257 115 115 115 0
-2.517380 0.719251 48.928672 117 117 117 0
-2.394037 0.718211 48.857904 116 116 116 0
-2.274884 0.718385 48.869697 115 115 115 0
-2.154378 0.718126 48.852105 115 115 115 0
-2.034959 0.718221 48.858560 114 114 114 0
-1.916817 0.718806 48.898387 115 115 115 0
-1.796286 0.718515 48.878542 114 114 114 0
-1.677330 0.718856 48.901756 114 114 114 0
-1.558305 0.719218 48.926381 114 114 114 0
-1.437395 0.718697 48.890985 115 115 115 0
-1.318984 0.719446 48.941877 115 115 115 0
-1.199366 0.719620 48.953710 116 116 116 0
-1.079368 0.719578 48.950913 115 115 115 0
-0.959603 0.719702 48.959342 115 115 115 0
-0.840058 0.720049 48.982951 116 116 116 0
-0.720433 0.720433 49.009055 115 115 115 0
-0.599888 0.719865 48.970432 116 116 116 0
-0.480406 0.720609 49.021048 116 116 116 0
-0.360349 0.720697 49.027022 118 118 118 0
-0.240031 0.720093 48.985932 119 119 119 0
-0.120107 0.720642 49.023277 117 117 117 0
0.000000 0.720511 49.014341 118 118 118 0
0.119961 0.719765 48.963590 119 119 119 0
0.240276 0.720827 49.035881 117 117 117 0
0.360045 0.720091 48.985779 118 118 118 0
0.480983 0.721474 49.079888 119 119 119 0
0.600548 0.720657 49.024306 118 118 118 0
0.720614 0.720614 49.021353 120 120 120 0
0.839467 0.719543 48.948525 121 121 121 0
0.959985 0.719989 48.978814 119 119 119 0
1.080365 0.720244 48.996161 118 118 118 0
1.199898 0.719939 48.975435 118 118 118 0
1.319500 0.719727 48.961037 118 118 118 0
1.439563 0.719781 48.964721 119 119 119 0
1.559064 0.719568 48.950206 118 118 118 0
1.679185 0.719651 48.955832 117 117 117 0
1.798378 0.719351 48.935456 118 118 118 0
1.918449 0.719418 48.940016 117 117 117 0
2.036239 0.718673 48.889298 118 118 118 0
2.156514 0.718838 48.900546 117 117 117 0
2.274496 0.718262 48.861353 116 116 116 0
2.393619 0.718086 48.849374 116 116 116 0
2.517411 0.719260 48.929269 117 117 117 0
2.630753 0.717478 48.808041 115 115 115 0
2.752275 0.717985 48.842499 115 115 115 0
2.870154 0.717538 48.812139 114 114 114 0
2.987768 0.717064 48.779879 117 117 117 0
3.103421 0.716174 48.719325 117 117 117 0
3.225947 0.716877 48.767158 117 117 117 0
3.345682 0.716932 48.770874 116 116 116 0
3.463926 0.716674 48.753364 115 115 115 0
3.581211 0.716242 48.723954 116 116 116 0
3.698623 0.715863 48.698130 115 115 115 0
3.813239 0.714982 48.638249 115 115 115 0
3.942103 0.716746 48.758233 112 112 112 0
4.054307 0.715466 48.671156 114 114 114 0
4.186006 0.717601 48.816401 109 109 109 0
4.300020 0.716670 48.753065 107 107 107 0
4.423617 0.717343 48.798862 110 110 110 0
4.547272 0.717990 48.842877 109 109 109 0
4.667661 0.718102 48.850456 109 109 109 0
4.787649 0.718147 48.853558 109 109 109 0
4.915284 0.719310 48.932643 109 109 109 0
5.041503 0.720215 48.994202 109 109 109 0
5.160092 0.720013 48.980466 109 109 109 0
5.292270 0.721673 49.093410 107 107 107 0
5.403883 0.720518 49.014813 109 109 109 0
5.543576 0.723075 49.188784 109 109 109 0
5.667838 0.723554 49.221347 108 108 108 0
5.790494 0.723812 49.238892 109 109 109 0
5.916811 0.724507 49.286221 107 107 107 0
6.045136 0.725416 49.348052 107 107 107 0
6.160951 0.724818 49.307335 107 107 107 0
6.292073 0.726008 49.388330 109 109 109 0
6.425411 0.727405 49.483335 107 107 107 0
6.538558 0.726506 49.422206 108 108 108 0
6.682755 0.729028 49.593729 106 106 106 0
6.812244 0.729883 49.651922 108 108 108 0
6.946003 0.731158 49.738654 107 107 107 0
7.067962 0.731169 49.739354 106 106 106 0
7.212581 0.733483 49.896792 106 106 106 0
6.213908 0.621391 42.271482 105 105 105 0
7.479428 0.735681 50.046357 108 108 108 0
7.602230 0.735700 50.047595 106 106 106 0
7.747860 0.737891 50.196693 105 105 105 0
6.650666 0.623500 42.414964 106 106 106 0
8.022312 0.740521 50.375585 104 104 104 0
6.837480 0.621589 42.284975 102 102 102 0
8.308215 0.744019 50.613555 106 106 106 0
8.450585 0.745640 50.723797 103 103 103 0
8.595695 0.747452 50.847058 105 105 105 0
7.263301 0.622569 42.351611 103 103 103 0
7.347992 0.620957 42.241977 105 105 105 0
9.016887 0.751407 51.116137 105 105 105 0
7.559795 0.621353 42.268914 106 106 106 0
7.674669 0.622270 42.331325 106 106 106 0
9.421403 0.753712 51.272941 107 107 107 0
9.579178 0.756251 51.445637 105 105 105 0
9.719914 0.757396 51.523530 106 106 106 0
9.869571 0.759198 51.646105 107 107 107 0
8.481769 0.644185 43.822110 110 110 110 0
-9.775514 0.855357 49.875072 142 142 142 0
-9.941594 0.880901 51.364475 143 143 143 0
-10.002841 0.897691 52.343491 141 141 141 0
-10.372535 0.942958 54.982960 140 140 140 0
-10.236677 0.942852 54.976780 139 139 139 0
-10.102059 0.942859 54.977194 139 139 139 0
-9.967961 0.942915 54.980481 140 140 140 0
-9.833563 0.942944 54.982183 139 139 139 0
-9.699628 0.943019 54.986555 134 134 134 0
-9.565486 0.943076 54.989858 140 140 140 0
-9.431698 0.943170 54.995321 137 137 137 0
-9.297710 0.943246 54.999762 135 135 135 0
-9.128386 0.939687 54.792234 130 130 130 0
-8.958930 0.936008 54.577705 135 135 135 0
-8.791272 0.932408 54.367794 130 130 130 0
-8.613150 0.927570 54.085713 129 129 129 0
-8.417658 0.920681 53.684041 129 129 129 0
-8.260550 0.917839 53.518300 126 126 126 0
-8.095196 0.913974 53.292927 125 125 125 0
-7.937951 0.910912 53.114427 125 125 125 0
-7.786147 0.908384 52.966989 123 123 123 0
-7.593987 0.900982 52.535366 123 123 123 0
-7.431411 0.896894 52.297049 124 124 124 0
-7.262196 0.891849 52.002834 125 125 125 0
-7.116561 0.889570 51.869981 120 120 120 0
-6.957866 0.885547 51.635370 119 119 119 0
-6.810756 0.882876 51.479634 118 118 118 0
-6.663011 0.880020 51.313136 117 117 117 0
-6.514149 0.876905 51.131464 114 114 114 0
-6.365536 0.873701 50.944662 114 114 114 0
-6.204423 0.868619 50.648348 117 117 117 0
-6.071190 0.867313 50.572174 117 117 117 0
-5.929378 0.864701 50.419884 117 117 117 0
-5.793140 0.862808 50.309508 113 113 113 0
-5.662255 0.861648 50.241838 114 114 114 0
-5.526056 0.859609 50.122959 113 113 113 0
-5.392228 0.857854 50.020670 115 115 115 0
-5.263603 0.856866 49.963010 115 115 115 0
-5.126665 0.854444 49.821817 114 114 114 0
-5.004341 0.854400 49.819227 113 113 113 0
-4.875514 0.853215 49.750146 115 115 115 0
-4.745110 0.851686 49.661016 114 114 114 0
-4.617483 0.850589 49.597025 114 114 114 0
-4.502167 0.851761 49.665382 114 114 114 0
-4.369934 0.849709 49.545732 114 114 114 0
-4.244348 0.848870 49.496770 114 114 114 0
-4.120776 0.848395 49.469103 115 115 115 0
-3.996435 0.847729 49.430243 117 117 117 0
-3.870247 0.846617 49.365396 114 114 114 0
-3.752064 0.847240 49.401766 115 115 115 0
-3.624670 0.845756 49.315239 116 116 116 0
-3.502067 0.845326 49.290170 114 114 114 0
-3.383323 0.845831 49.319574 116 116 116 0
-3.255910 0.844125 49.220108 115 115 115 0
-3.134517 0.843908 49.207482 115 115 115 0
-3.012218 0.843421 49.179075 117 117 117 0
-2.889658 0.842817 49.143835 116 116 116 0
-2.768098 0.842465 49.123308 114 114 114 0
-2.648089 0.842574 49.129671 117 117 117 0
-2.524750 0.841583 49.071916 114 114 114 0
-2.402893 0.841013 49.038639 117 117 117 0
-2.282131 0.840785 49.025370 113 113 113 0
-2.160835 0.840325 48.998519 116 116 116 0
-2.040058 0.840024 48.980986 112 112 112 0
-1.922332 0.841020 49.039083 112 112 112 0
-1.802163 0.841010 49.038459 114 114 114 0
-1.682062 0.841031 49.039721 113 113 113 0
-1.564176 0.842248 49.110699 114 114 114 0
-1.443576 0.842086 49.101223 115 115 115 0
-1.322322 0.841478 49.065767 116 116 116 0
-1.203211 0.842247 49.110636 114 114 114 0
-1.083423 0.842662 49.134826 115 115 115 0
-0.962231 0.841952 49.093405 115 115 115 0
-0.842474 0.842474 49.123829 116 116 116 0
-0.722248 0.842622 49.132506 116 116 116 0
-0.601833 0.842566 49.129202 116 116 116 0
-0.482176 0.843807 49.201587 118 118 118 0
-0.361407 0.843283 49.171034 117 117 117 0
-0.240944 0.843305 49.172275 117 117 117 0
-0.120464 0.843245 49.168802 116 116 116 0
0.000000 0.843181 49.165083 117 117 117 0
0.120459 0.843213 49.166961 118 118 118 0
0.240865 0.843028 49.156157 118 118 118 0
0.361086 0.842535 49.127410 118 118 118 0
0.481287 0.842252 49.110891 118 118 118 0
0.602656 0.843719 49.196423 121 121 121 0
0.722326 0.842714 49.137818 119 119 119 0
0.843149 0.843149 49.163231 119 119 119 0
0.963397 0.842972 49.152915 120 120 120 0
1.082587 0.842012 49.096935 117 117 117 0
1.202982 0.842087 49.101304 116 116 116 0
1.323519 0.842239 49.110156 118 118 118 0
1.443659 0.842134 49.104046 115 115 115 0
1.562781 0.841498 49.066922 117 117 117 0
1.682501 0.841250 49.052499 118 118 118 0
1.803043 0.841420 49.062387 116 116 116 0
1.922834 0.841240 49.051894 116 116 116 0
2.041233 0.840508 49.009206 117 117 117 0
2.161478 0.840575 49.013117 119 119 119 0
2.280883 0.840325 48.998563 116 116 116 0
2.402323 0.840813 49.026996 116 116 116 0
2.522828 0.840943 49.034565 116 116 116 0
2.639013 0.839686 48.961285 119 119 119 0
2.759244 0.839770 48.966170 116 116 116 0
2.875851 0.838790 48.909036 117 117 117 0
2.998450 0.839566 48.954293 119 119 119 0
3.118379 0.839564 48.954141 115 115 115 0
3.236982 0.839218 48.933974 115 115 115 0
3.351527 0.837882 48.856084 116 116 116 0
3.469787 0.837535 48.835846 114 114 114 0
3.593827 0.838560 48.895611 116 116 116 0
3.704690 0.836543 48.778008 114 114 114 0
3.831594 0.838161 48.872367 116 116 116 0
3.949121 0.837692 48.845039 109 109 109 0
4.067793 0.837487 48.833053 112 112 112 0
3.648481 0.729696 42.547888 109 109 109 0
4.312164 0.838476 48.890750 107 107 107 0
4.441065 0.840201 48.991339 110 110 110 0
4.560766 0.840141 48.987821 111 111 111 0
4.689724 0.841745 49.081356 111 111 111 0
4.803600 0.840630 49.016322 109 109 109 0
4.935632 0.842669 49.135207 108 108 108 0
5.052839 0.842140 49.104360 107 107 107 0
5.176009 0.842606 49.131554 109 109 109 0
5.302092 0.843515 49.184530 108 108 108 0
5.430777 0.844788 49.258753 108 108 108 0
5.553137 0.845043 49.273617 109 109 109 0
5.675999 0.845362 49.292219 110 110 110 0
5.804418 0.846478 49.357299 107 107 107 0
5.930873 0.847268 49.403360 108 108 108 0
6.061324 0.848585 49.480199 108 108 108 0
6.180508 0.848305 49.463849 108 108 108 0
6.310105 0.849437 49.529863 107 107 107 0
6.452892 0.852269 49.694973 106 106 106 0
6.567468 0.851338 49.640726 108 108 108 0
5.712084 0.726993 42.390233 108 108 108 0
5.819881 0.727485 42.418956 106 106 106 0
6.965654 0.855431 49.879372 106 106 106 0
7.105425 0.857551 50.002994 103 103 103 0
7.230919 0.857906 50.023654 106 106 106 0
7.354195 0.857989 50.028537 106 106 106 0
7.492583 0.859805 50.134379 106 106 106 0
7.642202 0.862829 50.310743 106 106 106 0
6.553692 0.728188 42.459941 104 104 104 0
6.660944 0.728541 42.480509 101 101 101 0
6.750616 0.726989 42.390052 105 105 105 0
6.862817 0.727875 42.441666 105 105 105 0
8.314433 0.868672 50.651436 105 105 105 0
7.067221 0.727508 42.420291 105 105 105 0
8.618415 0.874332 50.981454 103 103 103 0
8.725482 0.872548 50.877446 105 105 105 0
7.400640 0.729641 42.544642 104 104 104 0
7.483848 0.727596 42.425442 107 107 107 0
7.625085 0.731173 42.633967 103 103 103 0
9.341992 0.883702 51.527810 103 103 103 0
9.465408 0.883438 51.512424 105 105 105 0
7.995967 0.736471 42.942896 106 106 106 0
8.272364 0.752033 43.850325 108 108 108 0
9.904142 0.888833 51.827010 110 110 110 0
10.023227 0.888134 51.786241 111 111 111 0
-9.739674 0.973967 49.692212 145 145 145 0
-9.849677 0.997436 50.889572 142 142 142 0
-9.825457 1.007739 51.415262 144 144 144 0
-9.855812 1.023980 52.243900 148 148 148 0
-10.236254 1.077500 54.974514 142 142 142 0
-10.101586 1.077502 54.974617 143 143 143 0
-9.967129 1.077527 54.975892 139 139 139 0
-9.833020 1.077591 54.979144 139 139 139 0
-9.699065 1.077674 54.983362 139 139 139 0
-9.564979 1.077744 54.986946 136 136 136 0
-9.430796 1.077805 54.990062 137 137 137 0
-9.296484 1.077853 54.992509 137 137 137 0
-9.162917 1.077990 54.999502 135 135 135 0
-9.016407 1.076586 54.927853 130 130 130 0
-8.845127 1.072137 54.700848 132 132 132 0
-8.659002 1.065723 54.373639 129 129 129 0
-8.500137 1.062517 54.210060 128 128 128 0
-8.323232 1.056918 53.924404 132 132 132 0
-8.139683 1.050282 53.585801 123 123 123 0
-7.980048 1.046564 53.396107 126 126 126 0
-7.817143 1.042286 53.177842 127 127 127 0
-7.668052 1.039736 53.047750 122 122 122 0
-7.484844 1.032392 52.673078 121 121 121 0
-7.327286 1.028391 52.468932 122 122 122 0
-7.157887 1.022555 52.171187 122 122 122 0
-7.019029 1.020950 52.089267 120 120 120 0
-6.859726 1.016256 51.849778 122 122 122 0
-6.708920 1.012667 51.666696 119 119 119 0
-6.564271 1.009888 51.524892 117 117 117 0
-6.418769 1.006866 51.370697 119 119 119 0
-6.263128 1.002100 51.127573 119 119 119 0
-6.124613 0.999937 51.017188 114 114 114 0
-5.979879 0.996646 50.849311 113 113 113 0
-5.848324 0.995459 50.788742 119 119 119 0
-5.707856 0.992671 50.646459 115 115 115 0
-5.569028 0.990049 50.512726 114 114 114 0
-5.431470 0.987540 50.384693 113 113 113 0
-5.300048 0.986056 50.308955 116 116 116 0
-5.156283 0.982149 50.109651 116 116 116 0
-5.022294 0.979960 49.997948 113 113 113 0
-4.899522 0.979904 49.995124 113 113 113 0
-4.771187 0.978705 49.933930 114 114 114 0
-4.648887 0.978713 49.934343 111 111 111 0
-4.519655 0.977223 49.858306 114 114 114 0
-4.390609 0.975691 49.780143 114 114 114 0
-4.265439 0.974957 49.742730 113 113 113 0
-4.141426 0.974453 49.717003 114 114 114 0
-4.011142 0.972398 49.612152 115 115 115 0
-3.887334 0.971834 49.583344 117 117 117 0
-3.768151 0.972426 49.613575 115 115 115 0
-3.639886 0.970636 49.522262 118 118 118 0
-3.514411 0.969493 49.463910 116 116 116 0
-3.393045 0.969441 49.461293 116 116 116 0
-3.267285 0.968084 49.392063 116 116 116 0
-3.147019 0.968313 49.403747 115 115 115 0
-3.025645 0.968206 49.398280 116 116 116 0
-2.895975 0.965325 49.251269 116 116 116 0
-2.776689 0.965805 49.275751 116 116 116 0
-2.657396 0.966326 49.302346 113 113 113 0
-2.532826 0.964886 49.228888 114 114 114 0
-2.411857 0.964743 49.221565 116 116 116 0
-2.291835 0.964983 49.233831 115 115 115 0
-2.167687 0.963416 49.153893 114 114 114 0
-2.049917 0.964667 49.217702 115 115 115 0
-1.930716 0.965358 49.252967 114 114 114 0
-1.807066 0.963768 49.171854 114 114 114 0
-1.687767 0.964438 49.206021 113 113 113 0
-1.568231 0.965066 49.238037 115 115 115 0
-1.447384 0.964923 49.230763 115 115 115 0
-1.327667 0.965576 49.264079 115 115 115 0
-1.206703 0.965363 49.253191 113 113 113 0
-1.086032 0.965362 49.253173 112 112 112 0
-0.964845 0.964845 49.226781 114 114 114 0
-0.844447 0.965083 49.238907 113 113 113 0
-0.723993 0.965324 49.251237 115 115 115 0
-0.603110 0.964975 49.233429 115 115 115 0
-0.483299 0.966598 49.316216 118 118 118 0
-0.362114 0.965638 49.267263 116 116 116 0
-0.241490 0.965960 49.283698 117 117 117 0
-0.120750 0.965997 49.285575 117 117 117 0
0.000000 0.965849 49.278031 118 118 118 0
0.120732 0.965852 49.278174 119 119 119 0
0.241379 0.965517 49.261095 117 117 117 0
0.361796 0.964788 49.223890 119 119 119 0
0.482919 0.965837 49.277409 118 118 118 0
0.603740 0.965985 49.284935 119 119 119 0
0.723828 0.965104 49.240005 119 119 119 0
0.844652 0.965316 49.250841 118 118 118 0
0.965121 0.965121 49.240876 116 116 116 0
1.085872 0.965219 49.245889 119 119 119 0
1.205941 0.964752 49.222065 118 118 118 0
1.327349 0.965345 49.252287 117 117 117 0
1.446228 0.964152 49.191435 118 118 118 0
1.567673 0.964722 49.220500 115 115 115 0
1.687425 0.964243 49.196052 116 116 116 0
1.809977 0.965321 49.251072 116 116 116 0
1.928795 0.964398 49.203961 117 117 117 0
2.049950 0.964683 49.218499 116 116 116 0
2.167893 0.963508 49.158577 114 114 114 0
2.287738 0.963258 49.145824 117 117 117 0
2.408129 0.963251 49.145482 117 117 117 0
2.529847 0.963751 49.170973 116 116 116 0
2.647551 0.962746 49.119688 116 116 116 0
2.767657 0.962663 49.115473 116 116 116 0
2.883277 0.961092 49.035317 116 116 116 0
3.006957 0.962226 49.093174 117 117 117 0
3.125638 0.961735 49.068103 115 115 115 0
3.241350 0.960400 49.000000 117 117 117 0
3.362513 0.960718 49.016223 116 116 116 0
3.486332 0.961747 49.068712 116 116 116 0
3.600498 0.960133 48.986362 112 112 112 0
3.719839 0.959958 48.977467 111 111 111 0
3.847691 0.961923 49.077697 113 113 113 0
3.963471 0.960841 49.022521 110 110 110 0
4.089860 0.962320 49.097965 111 111 111 0
4.212640 0.962889 49.127001 109 109 109 0
4.323760 0.960836 49.022220 111 111 111 0
4.454541 0.963144 49.140005 110 110 110 0
4.576879 0.963553 49.160890 112 112 112 0
4.699476 0.963995 49.183417 111 111 111 0
4.817923 0.963585 49.162476 110 110 110 0
4.957445 0.967306 49.352369 111 111 111 0
5.069468 0.965613 49.265965 110 110 110 0
5.195950 0.966688 49.320834 109 109 109 0
5.326751 0.968500 49.413270 108 108 108 0
5.446094 0.968194 49.397676 110 110 110 0
5.566185 0.968032 49.389393 109 109 109 0
5.697307 0.969754 49.477268 108 108 108 0
5.826380 0.971063 49.544047 110 110 110 0
5.956234 0.972446 49.614609 108 108 108 0
6.087013 0.973922 49.689903 108 108 108 0
6.204998 0.973333 49.659845 108 108 108 0
6.343774 0.975965 49.794142 107 107 107 0
6.463149 0.975570 49.773959 106 106 106 0
6.581507 0.975038 49.746839 108 108 108 0
6.729944 0.978901 49.943925 108 108 108 0
6.863181 0.980454 50.023186 106 106 106 0
6.985856 0.980471 50.024034 107 107 107 0
6.043525 0.833590 42.530086 107 107 107 0
7.254846 0.983708 50.189183 106 106 106 0
7.389587 0.985278 50.269298 107 107 107 0
7.531343 0.987717 50.393728 106 106 106 0
7.655116 0.987757 50.395762 105 105 105 0
7.809172 0.991641 50.593924 104 104 104 0
6.682691 0.835336 42.619203 107 107 107 0
8.072500 0.993538 50.690735 104 104 104 0
8.219983 0.996362 50.834772 107 107 107 0
6.998464 0.835638 42.634567 104 104 104 0
7.079407 0.832871 42.493438 105 105 105 0
8.618335 0.999227 50.980981 106 106 106 0
7.288368 0.832956 42.497773 105 105 105 0
7.402981 0.834139 42.558095 104 104 104 0
7.532812 0.836979 42.703017 105 105 105 0
9.195771 1.007756 51.416106 106 106 106 0
9.328493 1.008486 51.453354 104 104 104 0
7.851422 0.837485 42.728830 107 107 107 0
9.643028 1.015056 51.788552 108 108 108 0
8.104603 0.842037 42.961053 108 108 108 0
9.927218 1.018176 51.947767 109 109 109 0
10.032587 1.015958 51.834603 111 111 111 0
-10.653915 1.198565 54.356709 147 147 147 0
-10.344760 1.178517 53.447482 145 145 145 0
-9.824193 1.133561 51.408647 142 142 142 0
-9.819318 1.147712 52.050451 145 145 145 0
-10.236038 1.212162 54.973352 140 140 140 0
-10.101185 1.212142 54.972438 146 146 146 0
-9.966515 1.212144 54.972503 139 139 139 0
-9.832499 1.212226 54.976230 142 142 142 0
-9.698300 1.212288 54.979025 140 140 140 0
-9.564229 1.212367 54.982630 141 141 141 0
-9.430193 1.212453 54.986550 134 134 134 0
-9.296191 1.212547 54.990775 139 139 139 0
-9.162195 1.212643 54.995169 135 135 135 0
-9.027960 1.212711 54.998233 138 138 138 0
-8.876531 1.210436 54.895060 129 129 129 0
-8.716106 1.206845 54.732219 133 133 133 0
-8.541127 1.201096 54.471474 130 130 130 0
-8.371876 1.195982 54.239558 127 127 127 0
-8.197895 1.190017 53.969023 130 130 130 0
-8.026823 1.184285 53.709085 124 124 124 0
-7.865719 1.179858 53.508296 125 125 125 0
-7.703065 1.175044 53.289969 124 124 124 0
-7.547925 1.171230 53.116998 124 124 124 0
-7.371284 1.163887 52.783992 124 124 124 0
-7.206676 1.158216 52.526792 122 122 122 0
-7.060903 1.155420 52.400019 124 124 124 0
-6.904635 1.150773 52.189232 124 124 124 0
-6.750106 1.146244 51.983873 119 119 119 0
-6.601744 1.142609 51.819024 119 119 119 0
-6.454079 1.138955 51.653294 118 118 118 0
-6.305527 1.134995 51.473687 118 118 118 0
-6.163849 1.132135 51.344011 115 115 115 0
-6.033371 1.131257 51.304175 119 119 119 0
-5.873601 1.124732 51.008260 114 114 114 0
-5.743979 1.123822 50.966987 114 114 114 0
-5.606426 1.121285 50.851939 117 117 117 0
-5.464292 1.117696 50.689169 118 118 118 0
-5.335118 1.116653 50.641843 117 117 117 0
-5.187181 1.111539 50.409927 116 116 116 0
-5.059528 1.110628 50.368621 115 115 115 0
-4.929963 1.109242 50.305748 116 116 116 0
-4.792130 1.105876 50.153116 114 114 114 0
-4.662186 1.104202 50.077181 114 114 114 0
-4.543279 1.105122 50.118912 113 113 113 0
-4.410229 1.102557 50.002593 116 116 116 0
-4.281859 1.101049 49.934214 114 114 114 0
-4.159291 1.100989 49.931463 115 115 115 0
-4.035133 1.100491 49.908883 113 113 113 0
-3.901338 1.097251 49.761963 114 114 114 0
-3.783904 1.098553 49.820981 116 116 116 0
-3.653816 1.096145 49.711780 115 115 115 0
-3.528645 1.095097 49.664248 118 118 118 0
-3.405328 1.094570 49.640350 118 118 118 0
-3.280080 1.093360 49.585481 115 115 115 0
-3.154094 1.091802 49.514816 116 116 116 0
-3.034820 1.092535 49.548076 114 114 114 0
-2.910302 1.091363 49.494932 115 115 115 0
-2.785828 1.090107 49.437940 115 115 115 0
-2.666087 1.090672 49.463575 115 115 115 0
-2.542124 1.089482 49.409594 115 115 115 0
-2.418705 1.088417 49.361332 117 117 117 0
-2.302166 1.090500 49.455771 114 114 114 0
-2.175317 1.087658 49.326906 113 113 113 0
-2.055340 1.088121 49.347888 117 117 117 0
-1.934828 1.088341 49.357857 113 113 113 0
-1.815859 1.089515 49.411126 114 114 114 0
-1.693747 1.088838 49.380386 114 114 114 0
-1.573843 1.089583 49.414216 113 113 113 0
-1.452911 1.089684 49.418756 116 116 116 0
-1.331864 1.089707 49.419799 116 116 116 0
-1.210824 1.089742 49.421397 115 115 115 0
-1.087925 1.087925 49.339008 114 114 114 0
-0.969200 1.090350 49.448978 114 114 114 0
-0.848341 1.090724 49.465924 116 116 116 0
-0.726633 1.089949 49.430803 114 114 114 0
-0.605046 1.089082 49.391481 115 115 115 0
-0.484168 1.089379 49.404944 114 114 114 0
-0.363224 1.089671 49.418188 116 116 116 0
-0.242148 1.089666 49.417958 116 116 116 0
-0.121129 1.090160 49.440341 117 117 117 0
0.000000 1.089336 49.402988 118 118 118 0
0.121066 1.089591 49.414539 118 118 118 0
0.241952 1.088785 49.378010 118 118 118 0
0.362407 1.087222 49.307124 118 118 118 0
0.483964 1.088919 49.384069 117 117 117 0
0.605187 1.089337 49.403054 120 120 120 0
0.725303 1.087955 49.340353 118 118 118 0
0.847643 1.089827 49.425255 119 119 119 0
0.967919 1.088909 49.383607 118 118 118 0
1.088142 1.088142 49.348855 115 115 115 0
1.209220 1.088298 49.355905 115 115 115 0
1.330752 1.088797 49.378561 115 115 115 0
1.450328 1.087746 49.330884 115 115 115 0
1.571975 1.088290 49.355571 115 115 115 0
1.693525 1.088695 49.373913 115 115 115 0
1.813647 1.088188 49.350934 115 115 115 0
1.934918 1.088391 49.360149 116 116 116 0
2.055297 1.088098 49.346859 117 117 117 0
2.173366 1.086683 49.282685 115 115 115 0
2.291168 1.085290 49.219510 116 116 116 0
2.414516 1.086532 49.275829 117 117 117 0
2.537738 1.087602 49.324346 116 116 116 0
2.656265 1.086654 49.281363 116 116 116 0
2.776079 1.086292 49.264927 117 117 117 0
2.891647 1.084368 49.177673 115 115 115 0
3.014786 1.085323 49.221003 117 117 117 0
3.133289 1.084600 49.188211 115 115 115 0
3.255226 1.085075 49.209769 117 117 117 0
3.375785 1.085074 49.209696 114 114 114 0
3.495428 1.084788 49.196731 113 113 113 0
3.610575 1.083172 49.123466 117 117 117 0
3.734650 1.084253 49.172481 110 110 110 0
3.855778 1.084437 49.180837 110 110 110 0
3.973867 1.083782 49.151108 111 111 111 0
4.105405 1.086725 49.284576 111 111 111 0
3.683683 0.947233 42.958406 111 111 111 0
4.342396 1.085599 49.233514 109 109 109 0
4.468053 1.086824 49.289055 109 109 109 0
4.595835 1.088487 49.364505 110 110 110 0
4.718788 1.088951 49.385531 109 109 109 0
4.844053 1.089912 49.429109 108 108 108 0
4.970075 1.090992 49.478103 108 108 108 0
5.082343 1.089073 49.391088 109 109 109 0
5.213213 1.091138 49.484702 113 113 113 0
5.343969 1.093085 49.573001 110 110 110 0
5.473246 1.094649 49.643957 108 108 108 0
5.591840 1.094056 49.617034 108 108 108 0
5.714574 1.094280 49.627217 109 109 109 0
5.845281 1.095990 49.704771 108 108 108 0
5.130632 0.942361 42.737458 108 108 108 0
6.099872 1.097977 49.794869 108 108 108 0
6.225890 1.098686 49.827048 108 108 108 0
6.356681 1.100195 49.895459 108 108 108 0
6.484149 1.101082 49.935685 108 108 108 0
