ply
format ascii 1.0
element vertex 1124
property float x
property float y
property float z
property uchar red
property uchar green
property uchar blue
property uchar alpha
end_header
3.226861 7.663795 54.878589 127 127 127 0
3.361237 7.663621 54.877342 126 126 126 0
3.495699 7.663648 54.877537 127 127 127 0
3.630227 7.663813 54.878716 126 126 126 0
3.764613 7.663677 54.877742 127 127 127 0
3.899023 7.663597 54.877168 128 128 128 0
4.033565 7.663773 54.878434 126 126 126 0
4.167913 7.663583 54.877070 128 128 128 0
4.302530 7.663881 54.879208 128 128 128 0
4.436984 7.663882 54.879214 127 127 127 0
4.571193 7.663470 54.876263 127 127 127 0
4.705837 7.663792 54.878569 127 127 127 0
4.840189 7.663633 54.877427 127 127 127 0
4.974655 7.663658 54.877608 131 131 131 0
5.109243 7.663865 54.879091 126 126 126 0
5.243517 7.663601 54.877204 125 125 125 0
5.378051 7.663722 54.878067 129 129 129 0
5.512611 7.663874 54.879157 129 129 129 0
5.646895 7.663643 54.877501 127 127 127 0
5.781423 7.663747 54.878248 125 125 125 0
5.915953 7.663848 54.878966 127 127 127 0
6.050263 7.663667 54.877672 128 128 128 0
6.184925 7.663929 54.879548 125 125 125 0
6.319150 7.663650 54.877549 123 123 123 0
6.453662 7.663723 54.878075 125 125 125 0
6.588286 7.663924 54.879514 129 129 129 0
6.722428 7.663568 54.876967 127 127 127 0
6.857108 7.663827 54.878819 125 125 125 0
6.991653 7.663928 54.879539 124 124 124 0
7.125972 7.663781 54.878488 127 127 127 0
7.260486 7.663846 54.878957 127 127 127 0
7.394849 7.663753 54.878288 126 126 126 0
7.529319 7.663771 54.878418 124 124 124 0
7.663837 7.663837 54.878894 124 124 124 0
7.798340 7.663886 54.879242 125 125 125 0
7.932741 7.663834 54.878871 123 123 123 0
8.067273 7.663910 54.879410 124 124 124 0
8.201712 7.663895 54.879306 123 123 123 0
8.336120 7.663852 54.878998 125 125 125 0
8.470560 7.663840 54.878908 123 123 123 0
8.605026 7.663852 54.878994 122 122 122 0
8.739322 7.663713 54.878005 124 124 124 0
8.873916 7.663836 54.878884 126 126 126 0
9.008303 7.663780 54.878482 122 122 122 0
9.142789 7.663808 54.878684 123 123 123 0
9.277584 7.664091 54.880710 123 123 123 0
9.411787 7.663884 54.879225 122 122 122 0
9.546055 7.663734 54.878155 125 125 125 0
9.681173 7.664262 54.881931 121 121 121 0
9.814993 7.663761 54.878348 122 122 122 0
9.949531 7.663828 54.878823 125 125 125 0
10.087762 7.666699 54.899384 125 125 125 0
10.218276 7.663707 54.877957 122 122 122 0
10.384447 7.687188 55.046101 121 121 121 0
10.487403 7.663871 54.879137 122 122 122 0
10.662918 7.693498 55.091283 122 122 122 0
-6.108998 4.429024 31.168359 149 149 149 0
-6.066998 4.454252 31.345896 151 151 151 0
-6.022644 4.478376 31.515667 148 148 148 0
-5.979435 4.503990 31.695916 151 151 151 0
-5.933642 4.528306 31.867038 149 149 149 0
-5.887114 4.552702 32.038717 150 150 150 0
-8.887657 6.966001 49.021825 151 151 151 0
-8.820295 7.007905 49.316716 148 148 148 0
-9.697596 7.811952 54.975032 137 137 137 0
-5.197063 4.245488 29.876764 135 135 135 0
-9.427025 7.810964 54.968075 136 136 136 0
-9.047186 7.604881 53.517812 136 136 136 0
-7.941095 6.773287 47.665636 136 136 136 0
-8.581086 7.428403 52.275882 136 136 136 0
-8.874281 7.798610 54.881143 134 134 134 0
-4.919151 4.389396 30.889490 137 137 137 0
-8.617107 7.809253 54.956039 136 136 136 0
-8.470457 7.798198 54.878243 137 137 137 0
-8.335557 7.797779 54.875293 135 135 135 0
-8.201059 7.797728 54.874934 136 136 136 0
-8.066606 7.797719 54.874869 135 135 135 0
-7.932280 7.797835 54.875685 138 138 138 0
-7.797646 7.797646 54.874353 134 134 134 0
-7.663359 7.797804 54.875470 134 134 134 0
-7.528910 7.797800 54.875439 135 135 135 0
-7.394396 7.797727 54.874928 134 134 134 0
-7.260024 7.797803 54.875462 136 136 136 0
-7.125514 7.797733 54.874967 134 134 134 0
-6.991159 7.797831 54.875659 133 133 133 0
-6.856724 7.797843 54.875743 132 132 132 0
-6.722204 7.797757 54.875138 132 132 132 0
-6.587778 7.797778 54.875287 132 132 132 0
-6.453310 7.797750 54.875087 131 131 131 0
-6.318909 7.797803 54.875462 129 129 129 0
-6.184454 7.797789 54.875365 133 133 133 0
-6.050063 7.797860 54.875859 130 130 130 0
-5.915571 7.797798 54.875429 129 129 129 0
-5.782219 7.799272 54.885798 127 127 127 0
-5.647742 7.799262 54.885731 129 129 129 0
-5.513225 7.799196 54.885261 132 132 132 0
-5.377907 7.797965 54.876603 127 127 127 0
-5.244396 7.799357 54.886400 129 129 129 0
-5.109822 7.799202 54.885304 130 130 130 0
-4.975480 7.799401 54.886705 129 129 129 0
-4.840970 7.799340 54.886280 127 127 127 0
-4.706520 7.799376 54.886531 128 128 128 0
-4.572123 7.799504 54.887433 128 128 128 0
-4.437499 7.799242 54.885584 127 127 127 0
-4.303147 7.799453 54.887075 129 129 129 0
-4.168626 7.799365 54.886450 129 129 129 0
-4.034166 7.799388 54.886616 127 127 127 0
-3.899767 7.799534 54.887642 130 130 130 0
-3.765221 7.799387 54.886605 127 127 127 0
-3.630771 7.799433 54.886935 125 125 125 0
-3.496319 7.799482 54.887275 128 128 128 0
-3.361816 7.799414 54.886800 127 127 127 0
-3.227390 7.799525 54.887581 127 127 127 0
-3.092916 7.799527 54.887590 129 129 129 0
-2.958414 7.799455 54.887084 129 129 129 0
-2.823991 7.799593 54.888057 128 128 128 0
-2.689487 7.799511 54.887482 127 127 127 0
-2.555041 7.799598 54.888094 127 127 127 0
-2.420589 7.799675 54.888638 132 132 132 0
-2.286072 7.799540 54.887686 127 127 127 0
-2.151601 7.799553 54.887779 129 129 129 0
-2.017146 7.799632 54.888330 129 129 129 0
-1.882654 7.799568 54.887878 127 127 127 0
-1.748182 7.799583 54.887988 129 129 129 0
-1.613720 7.799646 54.888433 126 126 126 0
-1.479244 7.799652 54.888472 127 127 127 0
-1.344774 7.799691 54.888751 128 128 128 0
-1.210302 7.799727 54.888999 132 132 132 0
-1.075810 7.799620 54.888245 126 126 126 0
-0.941353 7.799781 54.889379 127 127 127 0
-0.806867 7.799719 54.888941 129 129 129 0
-0.672379 7.799598 54.888091 126 126 126 0
-0.537801 7.798113 54.877643 128 128 128 0
-0.403436 7.799768 54.889291 127 127 127 0
-0.268954 7.799653 54.888478 125 125 125 0
-0.134480 7.799848 54.889855 127 127 127 0
0.000000 7.797994 54.876806 127 127 127 0
0.134451 7.798142 54.877846 126 126 126 0
0.268899 7.798073 54.877359 126 126 126 0
0.403347 7.798048 54.877185 125 125 125 0
0.537807 7.798206 54.878295 125 125 125 0
0.672242 7.798009 54.876908 127 127 127 0
0.806697 7.798073 54.877362 126 126 126 0
0.941171 7.798277 54.878797 127 127 127 0
1.075594 7.798055 54.877237 127 127 127 0
1.210043 7.798056 54.877238 127 127 127 0
1.344520 7.798216 54.878368 126 126 126 0
1.478931 7.798001 54.876854 127 127 127 0
1.613416 7.798179 54.878109 126 126 126 0
1.747849 7.798094 54.877507 125 125 125 0
1.882304 7.798115 54.877654 127 127 127 0
2.016752 7.798108 54.877609 127 127 127 0
2.151201 7.798104 54.877580 128 128 128 0
2.285629 7.798028 54.877047 128 128 128 0
2.420136 7.798217 54.878372 126 126 126 0
2.554577 7.798183 54.878134 127 127 127 0
2.688969 7.798009 54.876911 127 127 127 0
2.823452 7.798107 54.877599 123 123 123 0
2.957899 7.798097 54.877527 126 126 126 0
3.092340 7.798075 54.877377 128 128 128 0
3.226805 7.798113 54.877642 127 127 127 0
3.361269 7.798144 54.877864 128 128 128 0
3.495716 7.798136 54.877805 127 127 127 0
3.630226 7.798263 54.878697 129 129 129 0
3.764612 7.798124 54.877720 128 128 128 0
3.899025 7.798050 54.877200 128 128 128 0
4.033560 7.798216 54.878371 125 125 125 0
4.168000 7.798194 54.878212 127 127 127 0
4.302497 7.798276 54.878790 130 130 130 0
4.437017 7.798393 54.879614 130 130 130 0
4.571348 7.798182 54.878128 127 127 127 0
4.705876 7.798309 54.879024 129 129 129 0
4.840247 7.798176 54.878089 129 129 129 0
4.974683 7.798153 54.877921 128 128 128 0
5.109305 7.798413 54.879752 126 126 126 0
5.243624 7.798210 54.878326 126 126 126 0
5.378047 7.798168 54.878033 129 129 129 0
5.512573 7.798274 54.878773 128 128 128 0
5.646828 7.798001 54.876855 128 128 128 0
5.781478 7.798273 54.878766 126 126 126 0
5.915986 7.798346 54.879279 125 125 125 0
6.050324 7.798195 54.878220 127 127 127 0
6.184837 7.798273 54.878768 127 127 127 0
6.319136 7.798082 54.877428 126 126 126 0
6.453572 7.798066 54.877315 123 123 123 0
6.588110 7.798171 54.878052 126 126 126 0
6.722426 7.798014 54.876944 126 126 126 0
6.857117 7.798290 54.878888 125 125 125 0
6.991653 7.798382 54.879539 126 126 126 0
7.125890 7.798143 54.877856 127 127 127 0
7.260489 7.798303 54.878982 124 124 124 0
7.394752 7.798102 54.877563 125 125 125 0
7.529319 7.798223 54.878418 123 123 123 0
7.663885 7.798339 54.879232 127 127 127 0
7.798090 7.798090 54.877478 125 125 125 0
7.932734 7.798281 54.878827 121 121 121 0
8.067354 7.798442 54.879958 124 124 124 0
8.201623 7.798264 54.878706 125 125 125 0
8.336158 7.798341 54.879250 127 127 127 0
8.470655 7.798381 54.879528 125 125 125 0
8.604960 7.798245 54.878571 122 122 122 0
8.739373 7.798209 54.878321 122 122 122 0
8.874025 7.798386 54.879561 123 123 123 0
9.008231 7.798170 54.878045 125 125 125 0
9.142785 7.798258 54.878662 123 123 123 0
9.277539 7.798511 54.880442 123 123 123 0
9.411663 7.798235 54.878499 124 124 124 0
9.546048 7.798180 54.878116 123 123 123 0
9.680797 7.798420 54.879804 123 123 123 0
9.814954 7.798182 54.878131 123 123 123 0
9.949648 7.798373 54.879471 123 123 123 0
10.087748 7.801192 54.899311 125 125 125 0
10.221922 7.800941 54.897542 123 123 123 0
10.384519 7.822105 55.046484 122 122 122 0
10.519077 7.821878 55.044885 122 122 122 0
10.662846 7.828418 55.090911 124 124 124 0
-6.107131 4.504009 31.158833 152 152 152 0
-6.066975 4.531032 31.345775 150 150 150 0
-8.970450 6.785340 46.941128 150 150 150 0
-5.978519 4.580943 31.691062 150 150 150 0
-10.235895 7.946287 54.972585 150 150 150 0
-5.887114 4.631197 32.038717 152 152 152 0
-5.837821 4.654479 32.199786 152 152 152 0
-9.833009 7.947226 54.979083 147 147 147 0
-9.688944 7.939551 54.925985 136 136 136 0
-8.451992 7.023486 48.588627 137 137 137 0
-9.425728 7.944542 54.960511 134 134 134 0
-8.324014 7.117636 49.239955 133 133 133 0
-5.059808 4.390127 30.370996 134 134 134 0
-9.013239 7.937031 54.908550 135 135 135 0
-8.877408 7.935865 54.900481 136 136 136 0
-4.919782 4.465648 30.893451 135 135 135 0
-8.618901 7.945550 54.967483 135 135 135 0
-8.470509 7.932698 54.878578 136 136 136 0
-8.335643 7.932305 54.875860 137 137 137 0
-8.200998 7.932113 54.874527 138 138 138 0
-8.066581 7.932138 54.874698 137 137 137 0
-7.932272 7.932272 54.875627 136 136 136 0
-7.797752 7.932196 54.875104 135 135 135 0
-7.663407 7.932299 54.875813 135 135 135 0
-7.528861 7.932193 54.875081 135 135 135 0
-7.394428 7.932204 54.875160 135 135 135 0
-7.260027 7.932252 54.875486 136 136 136 0
-7.125559 7.932226 54.875307 135 135 135 0
-6.991121 7.932234 54.875363 136 136 136 0
-6.856736 7.932302 54.875835 133 133 133 0
-6.722204 7.932201 54.875138 136 136 136 0
-6.587772 7.932215 54.875235 134 134 134 0
-6.453351 7.932244 54.875432 135 135 135 0
-6.318877 7.932207 54.875179 136 136 136 0
-6.184440 7.932216 54.875243 134 134 134 0
-6.050065 7.932308 54.875876 131 131 131 0
-5.915588 7.932266 54.875588 133 133 133 0
-5.781148 7.932272 54.875629 133 133 133 0
-5.647731 7.933717 54.885626 135 135 135 0
-5.512241 7.932249 54.875470 134 134 134 0
-5.378842 7.933791 54.886139 132 132 132 0
-5.244365 7.933782 54.886076 134 134 134 0
-5.109819 7.933667 54.885275 132 132 132 0
-4.975448 7.933822 54.886353 133 133 133 0
-4.840870 7.933648 54.885148 132 132 132 0
-4.706473 7.933769 54.885982 131 131 131 0
-4.572063 7.933873 54.886705 132 132 132 0
-4.437501 7.933713 54.885599 132 132 132 0
-4.303121 7.933879 54.886748 131 131 131 0
-4.168605 7.933798 54.886182 131 131 131 0
-4.034094 7.933719 54.885638 131 131 131 0
-3.899722 7.933918 54.887014 131 131 131 0
-3.765177 7.933766 54.885963 130 130 130 0
-3.630748 7.933858 54.886598 130 130 130 0
-3.496309 7.933931 54.887108 130 130 130 0
-3.361817 7.933888 54.886805 131 131 131 0
-3.227390 7.934001 54.887592 128 128 128 0
-3.092921 7.934014 54.887679 130 130 130 0
-2.958415 7.933932 54.887111 130 130 130 0
-2.823972 7.934018 54.887706 128 128 128 0
-2.689456 7.933896 54.886866 129 129 129 0
-2.555010 7.933978 54.887433 126 126 126 0
-2.420591 7.934159 54.888684 126 126 126 0
-2.286059 7.933970 54.887374 128 128 128 0
-2.151610 7.934063 54.888017 128 128 128 0
-2.017122 7.934013 54.887671 126 126 126 0
-1.882642 7.933989 54.887509 125 125 125 0
-1.748175 7.934024 54.887749 128 128 128 0
-1.613719 7.934117 54.888393 129 129 129 0
-1.479223 7.934012 54.887667 128 128 128 0
-1.344769 7.934135 54.888519 130 130 130 0
-1.210295 7.934155 54.888656 125 125 125 0
-1.075800 7.934024 54.887749 126 126 126 0
-0.941343 7.934177 54.888805 127 127 127 0
-0.806860 7.934119 54.888404 128 128 128 0
-0.672382 7.934109 54.888337 124 124 124 0
-0.537917 7.934283 54.889539 129 129 129 0
-0.403433 7.934178 54.888814 128 128 128 0
-0.268956 7.934190 54.888898 129 129 129 0
-0.134479 7.934268 54.889433 127 127 127 0
0.000000 7.932368 54.876291 127 127 127 0
0.134450 7.932559 54.877616 127 127 127 0
0.268899 7.932525 54.877380 126 126 126 0
0.403344 7.932440 54.876789 125 125 125 0
0.537809 7.932690 54.878517 127 127 127 0
0.672242 7.932455 54.876892 127 127 127 0
0.806699 7.932542 54.877498 127 127 127 0
0.941156 7.932603 54.877921 127 127 127 0
1.075571 7.932335 54.876063 128 128 128 0
1.210057 7.932594 54.877857 128 128 128 0
1.344514 7.932631 54.878111 127 127 127 0
1.478926 7.932423 54.876675 128 128 128 0
1.613402 7.932558 54.877607 129 129 129 0
1.747861 7.932600 54.877899 127 127 127 0
1.882274 7.932440 54.876787 126 126 126 0
2.016773 7.932642 54.878187 130 130 130 0
2.151201 7.932554 54.877580 133 133 133 0
2.285640 7.932515 54.877311 129 129 129 0
2.420109 7.932581 54.877762 129 129 129 0
2.554513 7.932434 54.876748 128 128 128 0
2.688998 7.932544 54.877511 130 130 130 0
2.823490 7.932661 54.878321 129 129 129 0
2.957871 7.932473 54.877015 128 128 128 0
3.092356 7.932565 54.877656 128 128 128 0
3.226811 7.932577 54.877739 131 131 131 0
3.361231 7.932504 54.877235 128 128 128 0
3.495688 7.932523 54.877365 126 126 126 0
3.630191 7.932640 54.878176 126 126 126 0
3.764512 7.932364 54.876261 130 130 130 0
3.898970 7.932387 54.876422 127 127 127 0
4.033609 7.932765 54.879036 128 128 128 0
4.167890 7.932436 54.876760 129 129 129 0
4.302471 7.932680 54.878452 130 130 130 0
4.436886 7.932614 54.877991 127 127 127 0
4.571275 7.932507 54.877252 124 124 124 0
4.705913 7.932825 54.879456 125 125 125 0
4.840286 7.932690 54.878523 128 128 128 0
4.974617 7.932497 54.877183 126 126 126 0
5.109254 7.932789 54.879205 124 124 124 0
5.243549 7.932549 54.877543 125 125 125 0
5.378052 7.932626 54.878078 128 128 128 0
5.512567 7.932718 54.878716 129 129 129 0
5.646821 7.932439 54.876781 128 128 128 0
5.781493 7.932746 54.878905 126 126 126 0
5.915898 7.932682 54.878464 127 127 127 0
6.050267 7.932573 54.877710 129 129 129 0
6.184923 7.932836 54.879529 126 126 126 0
6.319171 7.932577 54.877737 127 127 127 0
6.453610 7.932562 54.877633 125 125 125 0
6.588229 7.932765 54.879039 125 125 125 0
6.722464 7.932507 54.877257 128 128 128 0
6.857094 7.932717 54.878706 124 124 124 0
6.991553 7.932723 54.878750 125 125 125 0
7.125972 7.932685 54.878488 125 125 125 0
7.260496 7.932765 54.879035 128 128 128 0
7.394787 7.932590 54.877825 125 125 125 0
7.529343 7.932700 54.878590 124 124 124 0
7.663826 7.932733 54.878815 124 124 124 0
7.798256 7.932708 54.878646 124 124 124 0
7.932839 7.932839 54.879553 125 125 125 0
8.067173 7.932720 54.878730 125 125 125 0
8.201636 7.932730 54.878795 123 123 123 0
8.336045 7.932688 54.878506 124 124 124 0
8.470735 7.932911 54.880046 124 124 124 0
8.604967 7.932704 54.878616 122 122 122 0
8.739586 7.932855 54.879659 122 122 122 0
8.873928 7.932753 54.878958 125 125 125 0
9.008259 7.932646 54.878212 124 124 124 0
9.142815 7.932736 54.878841 122 122 122 0
9.277482 7.932919 54.880107 122 122 122 0
9.412005 7.932976 54.880498 124 124 124 0
9.545958 7.932557 54.877599 123 123 123 0
9.680808 7.932884 54.879865 124 124 124 0
9.814987 7.932661 54.878320 124 124 124 0
9.949644 7.932824 54.879449 124 124 124 0
10.087737 7.935687 54.899251 124 124 124 0
10.221836 7.935373 54.897078 124 124 124 0
10.384514 7.956965 55.046456 121 121 121 0
10.487059 7.932519 54.877337 122 122 122 0
10.662790 7.963350 55.090624 122 122 122 0
-6.107718 4.580788 31.161824 150 150 150 0
-10.531986 7.998976 54.414805 149 149 149 0
-6.022131 4.632408 31.512981 149 149 149 0
-8.907000 6.940519 47.214417 151 151 151 0
-7.015137 5.538266 37.675279 149 149 149 0
-5.887391 4.709912 32.040221 149 149 149 0
-5.838298 4.733755 32.202415 150 150 150 0
-8.665165 7.122053 48.449341 145 145 145 0
-5.243381 4.369484 29.724380 134 134 134 0
-5.198298 4.392928 29.883866 134 134 134 0
-9.157006 7.848862 53.393620 137 137 137 0
-9.287951 8.076479 54.942032 134 134 134 0
-8.818776 7.781273 52.933832 134 134 134 0
-5.014014 4.490162 30.545320 136 136 136 0
-8.888851 8.080773 54.971246 138 138 138 0
-8.282273 7.645175 52.007994 136 136 136 0
-8.605499 8.067655 54.882009 136 136 136 0
-8.470521 8.067163 54.878660 136 136 136 0
-8.335667 8.066774 54.876016 135 135 135 0
-8.201059 8.066615 54.874934 136 136 136 0
-8.066622 8.066622 54.874976 136 136 136 0
-7.932265 8.066710 54.875582 134 134 134 0
-7.797752 8.066640 54.875104 135 135 135 0
-7.663333 8.066667 54.875283 135 135 135 0
-7.528805 8.066577 54.874671 136 136 136 0
-7.394432 8.066653 54.875191 136 136 136 0
-7.260044 8.066715 54.875613 137 137 137 0
-7.125525 8.066632 54.875050 134 134 134 0
-6.991173 8.066738 54.875766 134 134 134 0
-6.856627 8.066620 54.874969 137 137 137 0
-6.722242 8.066690 54.875444 136 136 136 0
-6.587827 8.066727 54.875693 134 134 134 0
-6.453349 8.066686 54.875417 132 132 132 0
-6.318890 8.066668 54.875296 136 136 136 0
-6.184500 8.066740 54.875780 137 137 137 0
-6.050068 8.066758 54.875902 133 133 133 0
-5.916584 8.068069 54.884820 135 135 135 0
-5.781102 8.066655 54.875202 134 134 134 0
-5.647690 8.068128 54.885224 135 135 135 0
-5.513245 8.068163 54.885463 134 134 134 0
-5.377938 8.066907 54.876916 136 136 136 0
-5.244328 8.068197 54.885695 135 135 135 0
-5.109787 8.068085 54.884930 133 133 133 0
-4.975447 8.068292 54.886340 135 135 135 0
-4.840900 8.068166 54.885485 132 132 132 0
-4.706456 8.068211 54.885789 131 131 131 0
-4.572057 8.068336 54.886642 132 132 132 0
-4.437504 8.068190 54.885643 132 132 132 0
-4.303138 8.068383 54.886959 135 135 135 0
-4.168620 8.068297 54.886372 132 132 132 0
-4.034102 8.068205 54.885746 134 134 134 0
-3.899731 8.068409 54.887133 131 131 131 0
-3.765191 8.068267 54.886172 135 135 135 0
-3.630754 8.068341 54.886675 134 134 134 0
-3.496312 8.068413 54.887166 131 131 131 0
-3.361751 8.068202 54.885728 133 133 133 0
-3.227371 8.068427 54.887261 133 133 133 0
-3.092862 8.068337 54.886645 131 131 131 0
-2.958400 8.068363 54.886826 131 131 131 0
-2.823984 8.068525 54.887925 134 134 134 0
-2.689440 8.068320 54.886533 133 133 133 0
-2.555036 8.068535 54.887993 132 132 132 0
-2.420548 8.068494 54.887717 132 132 132 0
-2.286047 8.068403 54.887094 132 132 132 0
-2.151606 8.068522 54.887903 134 134 134 0
-2.017121 8.068484 54.887646 131 131 131 0
-1.882641 8.068462 54.887495 128 128 128 0
-1.748167 8.068465 54.887514 131 131 131 0
-1.613706 8.068530 54.887960 132 132 132 0
-1.479222 8.068482 54.887635 131 131 131 0
-1.344731 8.068385 54.886976 132 132 132 0
-1.210281 8.068541 54.888034 130 130 130 0
-1.075797 8.068481 54.887624 130 130 130 0
-0.941340 8.068627 54.888618 131 131 131 0
-0.806866 8.068656 54.888816 129 129 129 0
-0.672373 8.068472 54.887563 131 131 131 0
-0.537914 8.068712 54.889197 131 131 131 0
-0.403433 8.068652 54.888789 130 130 130 0
-0.268953 8.068600 54.888438 130 130 130 0
-0.134479 8.068739 54.889379 129 129 129 0
0.000000 8.066916 54.876977 130 130 130 0
0.134449 8.066966 54.877319 129 129 129 0
0.268899 8.066979 54.877407 133 133 133 0
0.403344 8.066888 54.876787 132 132 132 0
0.537801 8.067012 54.877635 129 129 129 0
0.672239 8.066865 54.876634 128 128 128 0
0.806690 8.066897 54.876851 128 128 128 0
0.941153 8.067027 54.877735 128 128 128 0
1.075571 8.066781 54.876064 129 129 129 0
1.210041 8.066939 54.877136 130 130 130 0
1.344506 8.067037 54.877805 128 128 128 0
1.478901 8.066733 54.875735 133 133 133 0
1.613391 8.066956 54.877253 134 134 134 0
1.747842 8.066964 54.877309 131 131 131 0
1.882288 8.066951 54.877214 126 126 126 0
2.016775 8.067102 54.878244 131 131 131 0
2.151158 8.066842 54.876473 134 134 134 0
2.285650 8.067001 54.877556 130 130 130 0
2.420142 8.067141 54.878510 130 130 130 0
2.554534 8.066950 54.877209 129 129 129 0
2.689022 8.067066 54.878001 131 131 131 0
2.823430 8.066944 54.877170 130 130 130 0
2.957920 8.067055 54.877926 128 128 128 0
3.092374 8.067063 54.877977 130 130 130 0
3.226795 8.066986 54.877458 132 132 132 0
3.361321 8.067170 54.878710 129 129 129 0
3.495680 8.066954 54.877241 126 126 126 0
3.630226 8.067169 54.878697 128 128 128 0
3.764625 8.067053 54.877914 128 128 128 0
3.898997 8.066891 54.876808 125 125 125 0
4.033562 8.067124 54.878398 128 128 128 0
4.167909 8.066921 54.877015 129 129 129 0
4.302446 8.067087 54.878141 129 129 129 0
4.437019 8.067306 54.879635 128 128 128 0
4.571273 8.066953 54.877232 125 125 125 0
4.705841 8.067157 54.878617 127 127 127 0
4.840211 8.067018 54.877672 128 128 128 0
4.974554 8.066844 54.876491 127 127 127 0
5.109386 8.067451 54.880619 128 128 128 0
5.243611 8.067093 54.878186 126 126 126 0
5.378047 8.067071 54.878033 127 127 127 0
5.512663 8.067311 54.879669 127 127 127 0
5.646851 8.066929 54.877070 126 126 126 0
5.781478 8.067179 54.878766 123 123 123 0
5.915896 8.067131 54.878439 125 125 125 0
6.050336 8.067115 54.878331 127 127 127 0
6.184898 8.067258 54.879304 128 128 128 0
6.319279 8.067165 54.878674 127 127 127 0
6.453723 8.067154 54.878596 127 127 127 0
6.588249 8.067244 54.879208 126 126 126 0
6.722346 8.066815 54.876292 129 129 129 0
6.857110 8.067188 54.878829 126 126 126 0
6.991577 8.067204 54.878942 123 123 123 0
7.125889 8.067044 54.877852 128 128 128 0
7.260496 8.067218 54.879035 128 128 128 0
7.394858 8.067118 54.878355 126 126 126 0
7.529316 8.067124 54.878397 124 124 124 0
7.663879 8.067241 54.879188 125 125 125 0
7.798112 8.067012 54.877634 122 122 122 0
7.932741 8.067194 54.878871 125 125 125 0
8.067222 8.067222 54.879063 123 123 123 0
8.201789 8.067333 54.879819 122 122 122 0
8.336156 8.067248 54.879239 123 123 123 0
8.470574 8.067213 54.879002 124 124 124 0
8.605140 8.067319 54.879722 124 124 124 0
8.739371 8.067111 54.878308 122 122 122 0
8.874072 8.067338 54.879849 124 124 124 0
9.008442 8.067261 54.879327 125 125 125 0
9.142772 8.067151 54.878581 123 123 123 0
9.277582 8.067462 54.880695 123 123 123 0
9.411833 8.067285 54.879491 122 122 122 0
9.546097 8.067124 54.878395 126 126 126 0
9.681014 8.067511 54.881030 124 124 124 0
9.815061 8.067173 54.878731 123 123 123 0
9.949629 8.067267 54.879367 122 122 122 0
10.087878 8.070302 54.900016 124 124 124 0
10.221741 8.069795 54.896568 123 123 123 0
10.352559 8.066929 54.877071 122 122 122 0
10.519182 8.091679 55.045433 120 120 120 0
10.663225 8.098652 55.092868 122 122 122 0
-6.109055 4.658154 31.168647 152 152 152 0
-8.616174 6.652995 44.516529 148 148 148 0
-8.801959 6.883583 46.059440 152 152 152 0
-10.373537 8.217996 54.988267 147 147 147 0
-5.934827 4.763480 31.873402 149 149 149 0
-8.381066 6.816600 45.611242 149 149 149 0
-9.967335 8.216317 54.977027 150 150 150 0
-5.796227 4.843423 32.408315 146 146 146 0
-5.243483 4.442395 29.724960 134 134 134 0
-8.212590 7.055887 47.212359 135 135 135 0
-9.417366 8.206562 54.911754 135 135 135 0
-9.279909 8.203977 54.894463 133 133 133 0
-9.161635 8.218525 54.991804 136 136 136 0
-8.261740 7.521882 50.330427 137 137 137 0
-8.197150 7.576154 50.693570 137 137 137 0
-8.746523 8.208276 54.923222 138 138 138 0
-8.606742 8.203301 54.889935 135 135 135 0
-8.470388 8.201487 54.877796 134 134 134 0
-8.335625 8.201179 54.875741 134 134 134 0
-8.201022 8.201022 54.874684 135 135 135 0
-8.066587 8.201030 54.874740 134 134 134 0
-7.932290 8.201181 54.875749 135 135 135 0
-7.797689 8.201017 54.874656 135 135 135 0
-7.663392 8.201174 54.875705 136 136 136 0
-7.528899 8.201123 54.875360 134 134 134 0
-7.394502 8.201175 54.875712 136 136 136 0
-7.260007 8.201119 54.875336 135 135 135 0
-7.125513 8.201062 54.874956 135 135 135 0
-6.991181 8.201193 54.875833 135 135 135 0
-6.856692 8.201142 54.875490 133 133 133 0
-6.722141 8.201012 54.874618 133 133 133 0
-6.587833 8.201180 54.875741 135 135 135 0
-6.453355 8.201138 54.875466 134 134 134 0
-6.318894 8.201118 54.875331 135 135 135 0
-6.184478 8.201155 54.875580 134 134 134 0
-6.050066 8.201200 54.875881 136 136 136 0
-5.916687 8.202680 54.885781 135 135 135 0
-5.782201 8.202657 54.885625 133 133 133 0
-5.647747 8.202681 54.885786 133 133 133 0
-5.513215 8.202588 54.885164 134 134 134 0
-5.378844 8.202736 54.886159 132 132 132 0
-5.244354 8.202708 54.885965 135 135 135 0
-5.109798 8.202570 54.885045 134 134 134 0
-4.975499 8.202850 54.886919 135 135 135 0
-4.840901 8.202637 54.885495 135 135 135 0
-4.706458 8.202684 54.885806 135 135 135 0
-4.572064 8.202822 54.886728 133 133 133 0
-4.437492 8.202636 54.885487 135 135 135 0
-4.303104 8.202791 54.886525 135 135 135 0
-4.168592 8.202714 54.886007 133 133 133 0
-4.034147 8.202766 54.886355 134 134 134 0
-3.899740 8.202900 54.887256 135 135 135 0
-3.765190 8.202736 54.886155 133 133 133 0
-3.630766 8.202842 54.886865 135 135 135 0
-3.496342 8.202955 54.887623 135 135 135 0
-3.361807 8.202809 54.886641 134 134 134 0
-3.227398 8.202970 54.887724 133 133 133 0
-3.092887 8.202873 54.887074 132 132 132 0
-2.958408 8.202857 54.886967 134 134 134 0
-2.823993 8.203029 54.888115 135 135 135 0
-2.689435 8.202778 54.886438 133 133 133 0
-2.554992 8.202870 54.887050 130 130 130 0
-2.420556 8.202994 54.887885 130 130 130 0
-2.286073 8.202966 54.887698 135 135 135 0
-2.151586 8.202923 54.887408 133 133 133 0
-2.017127 8.202983 54.887807 133 133 133 0
-1.882641 8.202936 54.887495 133 133 133 0
-1.748179 8.202994 54.887884 131 131 131 0
-1.613707 8.203008 54.887979 131 131 131 0
-1.479229 8.202996 54.887897 134 134 134 0
-1.344763 8.203056 54.888297 131 131 131 0
-1.210297 8.203127 54.888772 132 132 132 0
-1.075803 8.203002 54.887933 132 132 132 0
-0.941339 8.203098 54.888578 134 134 134 0
-0.806862 8.203096 54.888563 131 131 131 0
-0.672376 8.202986 54.887829 132 132 132 0
-0.537798 8.201416 54.877321 132 132 132 0
-0.403438 8.203244 54.889557 133 133 133 0
-0.268955 8.203136 54.888830 133 133 133 0
-0.134477 8.203089 54.888520 132 132 132 0
0.000000 8.201328 54.876736 131 131 131 0
0.134449 8.201359 54.876945 129 129 129 0
0.268897 8.201369 54.877012 130 130 130 0
0.403345 8.201354 54.876912 132 132 132 0
0.537801 8.201460 54.877620 129 129 129 0
0.672250 8.201454 54.877581 128 128 128 0
0.806685 8.201296 54.876522 128 128 128 0
0.941178 8.201696 54.879197 131 131 131 0
1.075582 8.201314 54.876643 130 130 130 0
1.210040 8.201385 54.877115 131 131 131 0
1.344512 8.201524 54.878046 130 130 130 0
1.478916 8.201259 54.876272 131 131 131 0
1.613401 8.201456 54.877592 132 132 132 0
1.747844 8.201422 54.877363 129 129 129 0
1.882274 8.201336 54.876787 127 127 127 0
2.016755 8.201472 54.877695 130 130 130 0
2.151186 8.201395 54.877182 131 131 131 0
2.285622 8.201348 54.876868 129 129 129 0
2.420142 8.201593 54.878510 126 126 126 0
2.554558 8.201474 54.877713 131 131 131 0
2.689022 8.201517 54.878001 127 127 127 0
2.823457 8.201469 54.877681 127 127 127 0
2.957849 8.201310 54.876611 129 129 129 0
3.092360 8.201477 54.877731 129 129 129 0
3.226862 8.201607 54.878604 130 130 130 0
3.361322 8.201626 54.878727 129 129 129 0
3.495645 8.201321 54.876691 129 129 129 0
3.630220 8.201608 54.878610 127 127 127 0
3.764595 8.201439 54.877476 127 127 127 0
3.899047 8.201445 54.877516 129 129 129 0
4.033537 8.201526 54.878059 130 130 130 0
4.167958 8.201465 54.877653 126 126 126 0
4.302566 8.201767 54.879671 130 130 130 0
4.436929 8.201596 54.878525 128 128 128 0
4.571294 8.201439 54.877477 125 125 125 0
4.705880 8.201677 54.879071 126 126 126 0
4.840214 8.201474 54.877711 128 128 128 0
4.974683 8.201505 54.877921 127 127 127 0
5.109198 8.201608 54.878607 127 127 127 0
5.243568 8.201478 54.877739 125 125 125 0
5.378097 8.201598 54.878544 128 128 128 0
5.512689 8.201806 54.879933 129 129 129 0
5.646871 8.201407 54.877265 126 126 126 0
5.781474 8.201625 54.878725 126 126 126 0
5.915909 8.201601 54.878563 127 127 127 0
6.050265 8.201471 54.877690 126 126 126 0
6.184960 8.201795 54.879860 127 127 127 0
6.319185 8.201495 54.877851 127 127 127 0
6.453606 8.201457 54.877601 125 125 125 0
6.588182 8.201614 54.878650 126 126 126 0
6.722536 8.201494 54.877846 125 125 125 0
6.857214 8.201765 54.879661 124 124 124 0
6.991611 8.201697 54.879207 124 124 124 0
7.125966 8.201583 54.878444 124 124 124 0
7.260610 8.201801 54.879898 128 128 128 0
7.394821 8.201529 54.878077 126 126 126 0
7.529379 8.201645 54.878858 125 125 125 0
7.663933 8.201753 54.879576 124 124 124 0
7.798413 8.201779 54.879753 125 125 125 0
7.932741 8.201647 54.878871 125 125 125 0
8.067251 8.201705 54.879258 125 125 125 0
8.201542 8.201542 54.878166 124 124 124 0
8.336169 8.201715 54.879322 123 123 123 0
8.470643 8.201734 54.879448 124 124 124 0
8.605242 8.201871 54.880367 125 125 125 0
8.739501 8.201686 54.879128 122 122 122 0
8.873916 8.201649 54.878884 126 126 126 0
9.008451 8.201724 54.879384 125 125 125 0
9.142750 8.201584 54.878449 123 123 123 0
9.277449 8.201802 54.879909 122 122 122 0
9.411735 8.201655 54.878923 123 123 123 0
9.546137 8.201611 54.878626 123 123 123 0
9.681049 8.202000 54.881231 122 122 122 0
9.815106 8.201664 54.878981 122 122 122 0
9.949740 8.201813 54.879979 124 124 124 0
10.084237 8.201846 54.880204 122 122 122 0
10.218276 8.201511 54.877957 123 123 123 0
10.384464 8.226654 55.046194 123 123 123 0
10.519112 8.226485 55.045066 123 123 123 0
10.662866 8.233352 55.091016 122 122 122 0
-10.593932 8.210297 54.050674 150 150 150 0
-8.946408 7.021231 46.222722 151 151 151 0
-6.022889 4.787425 31.516949 150 150 150 0
-8.907034 7.171897 47.214596 151 151 151 0
-5.934474 4.841282 31.871504 150 150 150 0
-8.623423 7.128696 46.930191 149 149 149 0
-8.723794 7.309124 48.118002 152 152 152 0
-8.264564 7.019219 46.209470 148 148 148 0
-8.358273 7.197402 47.382501 135 135 135 0
-8.516677 7.437098 48.960490 135 135 135 0
-5.151757 4.562985 30.039401 135 135 135 0
-9.289622 8.347196 54.951918 137 137 137 0
-8.413300 7.670950 50.500000 137 137 137 0
-8.028743 7.429583 48.911016 134 134 134 0
-8.882373 8.344047 54.931187 136 136 136 0
-7.741993 7.384670 48.615338 134 134 134 0
-8.606120 8.337179 54.885970 133 133 133 0
-8.470483 8.336030 54.878410 134 134 134 0
-8.335640 8.335640 54.875841 136 136 136 0
-8.201081 8.335525 54.875079 135 135 135 0
-8.066583 8.335469 54.874714 136 136 136 0
-7.932331 8.335670 54.876037 136 136 136 0
-7.797731 8.335505 54.874951 136 136 136 0
-7.663316 8.335537 54.875162 135 135 135 0
-7.528842 8.335504 54.874943 135 135 135 0
-7.394432 8.335542 54.875191 135 135 135 0
-7.260030 8.335590 54.875512 134 134 134 0
-7.125513 8.335506 54.874956 133 133 133 0
-6.991183 8.335642 54.875851 132 132 132 0
-6.856711 8.335609 54.875637 135 135 135 0
-6.722242 8.335580 54.875444 136 136 136 0
-6.587834 8.335627 54.875752 137 137 137 0
-6.453363 8.335593 54.875532 136 136 136 0
-6.318869 8.335529 54.875107 134 134 134 0
-6.184415 8.335515 54.875019 134 134 134 0
-6.050072 8.335655 54.875938 134 134 134 0
-5.915570 8.335576 54.875415 133 133 133 0
-5.781165 8.335633 54.875794 135 135 135 0
-5.647806 8.337238 54.886357 135 135 135 0
-5.513231 8.337081 54.885324 132 132 132 0
-5.378819 8.337170 54.885909 135 135 135 0
-5.244379 8.337218 54.886229 133 133 133 0
-5.109824 8.337082 54.885332 135 135 135 0
-4.975463 8.337262 54.886515 132 132 132 0
-4.840892 8.337093 54.885402 136 136 136 0
-4.706446 8.337134 54.885673 135 135 135 0
-4.572054 8.337274 54.886598 135 135 135 0
-4.437481 8.337085 54.885354 133 133 133 0
-4.303146 8.337345 54.887064 131 131 131 0
-4.168629 8.337258 54.886491 136 136 136 0
-4.034122 8.337186 54.886015 136 136 136 0
-3.899775 8.337450 54.887753 133 133 133 0
-3.765204 8.337238 54.886357 133 133 133 0
-3.630763 8.337308 54.886820 133 133 133 0
-3.496325 8.337389 54.887355 135 135 135 0
-3.361808 8.337285 54.886666 132 132 132 0
-3.227364 8.337358 54.887148 132 132 132 0
-3.092887 8.337348 54.887086 131 131 131 0
-2.958380 8.337252 54.886452 135 135 135 0
-2.823964 8.337419 54.887548 132 132 132 0
-2.689447 8.337286 54.886677 132 132 132 0
-2.555026 8.337454 54.887780 133 133 133 0
-2.420564 8.337499 54.888079 134 134 134 0
-2.286073 8.337442 54.887703 136 136 136 0
-2.151607 8.337476 54.887927 133 133 133 0
-2.017128 8.337463 54.887843 131 131 131 0
-1.882637 8.337390 54.887362 130 130 130 0
-1.747824 8.335777 54.876740 134 134 134 0
-1.613713 8.337519 54.888208 135 135 135 0
-1.479236 8.337511 54.888157 132 132 132 0
-1.344751 8.337455 54.887786 130 130 130 0
-1.210285 8.337521 54.888221 130 130 130 0
-1.075798 8.337435 54.887658 134 134 134 0
-0.941335 8.337537 54.888331 130 130 130 0
-0.806863 8.337580 54.888611 130 130 130 0
-0.672374 8.337443 54.887710 132 132 132 0
-0.537911 8.337619 54.888868 131 131 131 0
-0.403430 8.337543 54.888368 131 131 131 0
-0.268952 8.337514 54.888174 131 131 131 0
-0.134450 8.335898 54.877537 129 129 129 0
0.000000 8.337566 54.888518 128 128 128 0
0.134450 8.335874 54.877378 131 131 131 0
0.268902 8.335954 54.877906 129 129 129 0
0.403343 8.335756 54.876606 133 133 133 0
0.537802 8.335931 54.877754 131 131 131 0
0.672239 8.335761 54.876634 129 129 129 0
0.806694 8.335836 54.877132 131 131 131 0
0.941167 8.336048 54.878524 129 129 129 0
1.075576 8.335717 54.876345 131 131 131 0
1.210043 8.335850 54.877220 131 131 131 0
1.344503 8.335916 54.877660 128 128 128 0
1.478928 8.335777 54.876743 129 129 129 0
1.613419 8.336000 54.878206 130 130 130 0
1.747848 8.335891 54.877492 128 128 128 0
1.882260 8.335723 54.876386 128 128 128 0
2.016785 8.336044 54.878499 128 128 128 0
2.151174 8.335801 54.876898 131 131 131 0
2.285633 8.335836 54.877132 129 129 129 0
2.420141 8.336042 54.878488 127 127 127 0
2.554522 8.335807 54.876939 126 126 126 0
2.689006 8.335917 54.877665 129 129 129 0
2.823462 8.335935 54.877783 129 129 129 0
2.957958 8.336064 54.878629 128 128 128 0
3.092358 8.335923 54.877699 127 127 127 0
3.226797 8.335892 54.877495 129 129 129 0
3.361277 8.335967 54.877995 130 130 130 0
3.495700 8.335900 54.877552 128 128 128 0
3.630225 8.336073 54.878689 127 127 127 0
3.764636 8.335979 54.878071 127 127 127 0
3.899046 8.335892 54.877500 129 129 129 0
4.033570 8.336045 54.878504 131 131 131 0
4.167959 8.335917 54.877665 127 127 127 0
4.302473 8.336042 54.878485 125 125 125 0
4.436940 8.336070 54.878670 127 127 127 0
4.571245 8.335799 54.876888 127 127 127 0
4.705927 8.336213 54.879612 128 128 128 0
4.840265 8.336012 54.878287 128 128 128 0
4.974645 8.335891 54.877493 127 127 127 0
5.109291 8.336211 54.879599 128 128 128 0
5.243543 8.335889 54.877476 124 124 124 0
5.378096 8.336049 54.878529 125 125 125 0
5.512580 8.336097 54.878845 126 126 126 0
5.646863 8.335845 54.877190 129 129 129 0
5.781596 8.336255 54.879886 127 127 127 0
5.915945 8.336105 54.878900 125 125 125 0
6.050371 8.336067 54.878653 127 127 127 0
6.184926 8.336204 54.879552 126 126 126 0
6.319103 8.335837 54.877139 126 126 126 0
6.453544 8.335828 54.877074 126 126 126 0
6.588203 8.336093 54.878822 124 124 124 0
6.722441 8.335827 54.877073 126 126 126 0
6.857076 8.336054 54.878562 126 126 126 0
6.991602 8.336141 54.879139 126 126 126 0
7.125887 8.335943 54.877837 124 124 124 0
7.260671 8.336326 54.880354 127 127 127 0
7.394970 8.336148 54.879185 125 125 125 0
7.529391 8.336111 54.878941 123 123 123 0
7.663877 8.336147 54.879176 123 123 123 0
7.798276 8.336088 54.878792 124 124 124 0
7.932810 8.336173 54.879347 126 126 126 0
8.067273 8.336182 54.879410 123 123 123 0
8.201705 8.336159 54.879258 123 123 123 0
8.336128 8.336128 54.879055 124 124 124 0
8.470639 8.336185 54.879426 122 122 122 0
8.604969 8.336063 54.878626 124 124 124 0
8.739501 8.336140 54.879128 127 127 127 0
8.874030 8.336210 54.879591 124 124 124 0
9.008528 8.336250 54.879854 123 123 123 0
9.142908 8.336181 54.879403 124 124 124 0
9.277483 8.336289 54.880110 122 122 122 0
9.411857 8.336217 54.879635 122 122 122 0
9.545956 8.335906 54.877588 122 122 122 0
9.680815 8.336257 54.879904 123 123 123 0
9.815048 8.336068 54.878656 122 122 122 0
9.949688 8.336225 54.879688 125 125 125 0
10.084215 8.336285 54.880083 124 124 124 0
10.221724 8.338774 54.896474 122 122 122 0
10.384514 8.361557 55.046456 125 125 125 0
10.519118 8.361350 55.045095 120 120 120 0
10.672589 8.375956 55.141249 122 122 122 0
-9.166606 7.218703 46.768400 149 149 149 0
-6.066721 4.838018 31.344462 151 151 151 0
-6.022572 4.864385 31.515290 150 150 150 0
-8.988579 7.354292 47.646856 151 151 151 0
-10.240528 8.488859 54.997467 149 149 149 0
-8.461392 7.107569 46.048393 149 149 149 0
-8.641216 7.356711 47.662525 148 148 148 0
-5.796619 5.002562 32.410506 145 145 145 0
-8.581421 7.508743 48.647511 137 137 137 0
-5.198722 4.612951 29.886303 135 135 135 0
-9.425737 8.483163 54.960564 135 135 135 0
-8.479607 7.742249 50.160346 136 136 136 0
-8.313229 7.701962 49.899333 135 135 135 0
-8.420605 7.917882 51.298234 135 135 135 0
-8.826333 8.425136 54.584621 134 134 134 0
-8.109162 7.859649 50.920953 133 133 133 0
-8.618202 8.483543 54.963026 134 134 134 0
-8.470425 8.470425 54.878035 134 134 134 0
-8.335621 8.470067 54.875716 135 135 135 0
-8.201068 8.469955 54.874994 134 134 134 0
-8.066645 8.469977 54.875134 134 134 134 0
-7.932352 8.470138 54.876179 135 135 135 0
-7.797705 8.469920 54.874768 133 133 133 0
-7.663346 8.470014 54.875374 134 134 134 0
-7.528918 8.470033 54.875496 134 134 134 0
-7.394394 8.469942 54.874907 135 135 135 0
-7.260030 8.470035 54.875512 134 134 134 0
-7.125521 8.469959 54.875021 134 134 134 0
-6.991171 8.470073 54.875755 134 134 134 0
-6.856743 8.470094 54.875892 135 135 135 0
-6.722272 8.470063 54.875693 132 132 132 0
-6.587793 8.470019 54.875407 134 134 134 0
-6.453318 8.469980 54.875156 137 137 137 0
-6.318885 8.469995 54.875254 134 134 134 0
-6.184476 8.470043 54.875561 135 135 135 0
-6.050098 8.470138 54.876177 137 137 137 0
-5.915587 8.470045 54.875572 135 135 135 0
-5.782173 8.471556 54.885365 135 135 135 0
-5.647725 8.471588 54.885570 133 133 133 0
-5.513268 8.471607 54.885696 134 134 134 0
-5.378819 8.471640 54.885911 132 132 132 0
-5.244342 8.471630 54.885845 131 131 131 0
-5.109834 8.471566 54.885432 132 132 132 0
-4.975453 8.471717 54.886407 133 133 133 0
-4.840916 8.471603 54.885671 135 135 135 0
-4.706451 8.471612 54.885727 133 133 133 0
-4.572042 8.471725 54.886459 135 135 135 0
-4.437501 8.471594 54.885609 135 135 135 0
-4.303119 8.471765 54.886716 135 135 135 0
-4.168615 8.471701 54.886305 134 134 134 0
-4.034126 8.471665 54.886068 132 132 132 0
-3.899732 8.471833 54.887156 133 133 133 0
-3.765171 8.471635 54.885873 134 134 134 0
-3.630757 8.471767 54.886734 134 134 134 0
-3.496311 8.471830 54.887142 133 133 133 0
-3.361782 8.471690 54.886233 131 131 131 0
-3.227390 8.471900 54.887591 132 132 132 0
-3.092901 8.471859 54.887328 135 135 135 0
-2.958408 8.471806 54.886983 134 134 134 0
-2.823977 8.471930 54.887787 130 130 130 0
-2.689453 8.471776 54.886789 132 132 132 0
-2.554985 8.471791 54.886888 133 133 133 0
-2.420536 8.471877 54.887446 131 131 131 0
-2.286048 8.471825 54.887107 134 134 134 0
-2.151554 8.471745 54.886590 132 132 132 0
-2.017136 8.471971 54.888052 131 131 131 0
-1.882636 8.471862 54.887349 133 133 133 0
-1.748180 8.471948 54.887906 133 133 133 0
-1.613699 8.471917 54.887706 132 132 132 0
-1.479230 8.471951 54.887926 133 133 133 0
-1.344768 8.472038 54.888484 133 133 133 0
-1.210298 8.472089 54.888819 132 132 132 0
-1.075797 8.471898 54.887579 131 131 131 0
-0.941329 8.471965 54.888014 130 130 130 0
-0.806866 8.472091 54.888832 131 131 131 0
-0.672375 8.471926 54.887761 131 131 131 0
-0.537908 8.472052 54.888576 132 132 132 0
-0.403433 8.472096 54.888862 132 132 132 0
-0.268952 8.471986 54.888153 129 129 129 0
-0.134480 8.472218 54.889652 131 131 131 0
0.000000 8.470263 54.876986 131 131 131 0
0.134478 8.472145 54.889183 131 131 131 0
0.268899 8.470308 54.877277 130 130 130 0
0.403343 8.470204 54.876606 131 131 131 0
0.537802 8.470387 54.877788 129 129 129 0
0.672247 8.470311 54.877300 130 130 130 0
0.806700 8.470350 54.877552 130 130 130 0
0.941169 8.470517 54.878636 130 130 130 0
1.075576 8.470164 54.876344 133 133 133 0
1.210058 8.470407 54.877919 129 129 129 0
1.344534 8.470562 54.878924 129 129 129 0
1.478936 8.470270 54.877032 130 130 130 0
1.613415 8.470426 54.878044 130 130 130 0
1.747846 8.470329 54.877418 128 128 128 0
1.882275 8.470236 54.876814 129 129 129 0
2.016744 8.470325 54.877387 130 130 130 0
2.151202 8.470359 54.877610 130 130 130 0
2.285655 8.470368 54.877665 129 129 129 0
2.420118 8.470414 54.877966 127 127 127 0
2.554518 8.470245 54.876868 127 127 127 0
2.689010 8.470381 54.877750 128 128 128 0
2.823519 8.470556 54.878889 129 129 129 0
2.957915 8.470393 54.877827 130 130 130 0
3.092374 8.470416 54.877976 128 128 128 0
3.226808 8.470370 54.877682 129 129 129 0
3.361312 8.470507 54.878571 129 129 129 0
3.495665 8.470266 54.877004 128 128 128 0
3.630198 8.470461 54.878271 126 126 126 0
3.764597 8.470343 54.877506 127 127 127 0
3.899056 8.470362 54.877631 130 130 130 0
4.033555 8.470465 54.878297 130 130 130 0
4.167951 8.470352 54.877562 127 127 127 0
4.302494 8.470536 54.878753 126 126 126 0
4.436945 8.470531 54.878725 128 128 128 0
4.571229 8.470219 54.876704 127 127 127 0
4.705836 8.470505 54.878557 126 126 126 0
4.840292 8.470511 54.878595 124 124 124 0
4.974686 8.470412 54.877953 129 129 129 0
5.109362 8.470784 54.880364 128 128 128 0
5.243580 8.470399 54.877867 126 126 126 0
5.378054 8.470435 54.878099 126 126 126 0
5.512600 8.470581 54.879047 129 129 129 0
5.646931 8.470397 54.877857 128 128 128 0
5.781515 8.470592 54.879121 127 127 127 0
5.915917 8.470517 54.878634 126 126 126 0
6.050310 8.470434 54.878097 125 125 125 0
6.184977 8.470729 54.880010 124 124 124 0
6.319121 8.470311 54.877297 127 127 127 0
6.453675 8.470448 54.878188 125 125 125 0
6.588243 8.470598 54.879158 124 124 124 0
6.722507 8.470359 54.877609 125 125 125 0
6.857256 8.470728 54.880003 128 128 128 0
6.991690 8.470701 54.879826 125 125 125 0
7.125822 8.470316 54.877332 127 127 127 0
7.260561 8.470654 54.879524 127 127 127 0
7.394873 8.470491 54.878467 125 125 125 0
7.529276 8.470436 54.878107 123 123 123 0
7.663884 8.470608 54.879225 125 125 125 0
7.798237 8.470499 54.878515 124 124 124 0
7.932661 8.470468 54.878319 126 126 126 0
8.067326 8.470693 54.879771 125 125 125 0
8.201542 8.470445 54.878168 122 122 122 0
8.336091 8.470544 54.878810 122 122 122 0
8.470482 8.470482 54.878404 121 121 121 0
8.605044 8.470590 54.879108 125 125 125 0
8.739520 8.470612 54.879245 124 124 124 0
8.874031 8.470666 54.879597 123 123 123 0
9.008523 8.470701 54.879826 124 124 124 0
9.142821 8.470555 54.878877 123 123 123 0
9.277485 8.470747 54.880123 122 122 122 0
9.411668 8.470501 54.878529 122 122 122 0
9.546065 8.470452 54.878213 123 123 123 0
9.680918 8.470803 54.880485 123 123 123 0
9.815062 8.470533 54.878737 123 123 123 0
9.949597 8.470603 54.879188 123 123 123 0
10.084187 8.470717 54.879929 126 126 126 0
10.221989 8.473491 54.897900 124 124 124 0
10.352905 8.470558 54.878902 120 120 120 0
10.519108 8.496202 55.045042 122 122 122 0
10.662799 8.503245 55.090668 122 122 122 0
-10.503082 8.402466 53.587155 150 150 150 0
-6.067798 4.915684 31.350026 152 152 152 0
-6.023159 4.942079 31.518360 150 150 150 0
-9.072554 7.540824 48.091990 151 151 151 0
-5.934474 4.997452 31.871504 150 150 150 0
-10.101694 8.620112 54.975204 150 150 150 0
-8.724347 7.545381 48.121052 149 149 149 0
-5.797888 5.083080 32.417600 143 143 143 0
-5.243558 4.660940 29.725383 132 132 132 0
-8.514438 7.674987 48.947619 136 136 136 0
-5.150858 4.709356 30.034156 134 134 134 0
-8.323159 7.720031 49.234894 135 135 135 0
-9.155279 8.616734 54.953658 134 134 134 0
-9.018276 8.614473 54.939239 136 136 136 0
-8.354319 8.101158 51.665546 134 134 134 0
-8.754048 8.619370 54.970473 135 135 135 0
-8.606112 8.606112 54.885921 133 133 133 0
-8.470466 8.604918 54.878304 133 133 133 0
-8.335606 8.604497 54.875616 136 136 136 0
-8.201110 8.604443 54.875275 135 135 135 0
-8.066670 8.604447 54.875303 136 136 136 0
-7.932307 8.604536 54.875869 136 136 136 0
-7.797692 8.604350 54.874683 136 136 136 0
-7.663379 8.604496 54.875613 134 134 134 0
-7.528974 8.604542 54.875907 134 134 134 0
-7.394382 8.604372 54.874822 137 137 137 0
-7.260053 8.604507 54.875684 135 135 135 0
-7.125564 8.604454 54.875345 134 134 134 0
-6.991119 8.604454 54.875343 136 136 136 0
-6.856700 8.604487 54.875552 136 136 136 0
-6.722210 8.604429 54.875187 137 137 137 0
-6.587790 8.604460 54.875386 133 133 133 0
-6.453351 8.604468 54.875437 135 135 135 0
-6.318945 8.604521 54.875773 134 134 134 0
-6.184474 8.604485 54.875542 135 135 135 0
-6.050128 8.604626 54.876442 135 135 135 0
-5.915571 8.604466 54.875422 132 132 132 0
-5.781158 8.604514 54.875725 133 133 133 0
-5.647751 8.606097 54.885826 136 136 136 0
-5.513231 8.606019 54.885324 132 132 132 0
-5.378819 8.606110 54.885909 133 133 133 0
-5.244342 8.606100 54.885843 133 133 133 0
-5.109817 8.606008 54.885255 135 135 135 0
-4.975512 8.606292 54.887065 134 134 134 0
-4.840915 8.606072 54.885662 135 135 135 0
-4.706456 8.606091 54.885783 133 133 133 0
-4.572068 8.606245 54.886765 136 136 136 0
-4.437524 8.606107 54.885887 133 133 133 0
-4.303146 8.606292 54.887064 132 132 132 0
-4.168641 8.606226 54.886646 131 131 131 0
-4.034146 8.606179 54.886344 134 134 134 0
-3.899766 8.606380 54.887629 134 134 134 0
-3.765184 8.606134 54.886059 131 131 131 0
-3.630783 8.606300 54.887117 131 131 131 0
-3.496333 8.606359 54.887495 132 132 132 0
-3.361824 8.606269 54.886917 134 134 134 0
-3.227398 8.606395 54.887724 133 133 133 0
-3.092851 8.606194 54.886439 134 134 134 0
-2.958387 8.606216 54.886585 133 133 133 0
-2.823965 8.606369 54.887560 133 133 133 0
-2.689440 8.606207 54.886527 133 133 133 0
-2.555032 8.606422 54.887896 132 132 132 0
-2.420555 8.606418 54.887872 132 132 132 0
-2.286038 8.606259 54.886856 132 132 132 0
-2.151608 8.606433 54.887965 133 133 133 0
-2.017111 8.606342 54.887383 133 133 133 0
-1.882658 8.606436 54.887985 132 132 132 0
-1.748186 8.606456 54.888113 134 134 134 0
-1.613715 8.606479 54.888262 133 133 133 0
-1.479240 8.606486 54.888303 131 131 131 0
-1.344756 8.606441 54.888015 131 131 131 0
-1.210298 8.606567 54.888820 131 131 131 0
-1.075801 8.606412 54.887831 134 134 134 0
-0.941340 8.606536 54.888625 130 130 130 0
-0.806694 8.604734 54.877130 131 131 131 0
-0.672377 8.606430 54.887948 131 131 131 0
-0.537804 8.604863 54.877953 132 132 132 0
-0.403433 8.606572 54.888853 132 132 132 0
-0.268954 8.606542 54.888662 130 130 130 0
-0.134480 8.606734 54.889886 130 130 130 0
0.000000 8.604658 54.876645 130 130 130 0
0.134450 8.604813 54.877632 129 129 129 0
0.268902 8.604863 54.877950 130 130 130 0
0.403343 8.604646 54.876567 132 132 132 0
0.537804 8.604869 54.877991 132 132 132 0
0.672242 8.604695 54.876882 129 129 129 0
0.806695 8.604744 54.877197 129 129 129 0
0.941172 8.605000 54.878824 131 131 131 0
1.075579 8.604635 54.876496 133 133 133 0
1.210041 8.604738 54.877153 131 131 131 0
1.344539 8.605053 54.879163 129 129 129 0
1.478921 8.604632 54.876477 128 128 128 0
1.613415 8.604880 54.878064 132 132 132 0
1.747841 8.604755 54.877263 129 129 129 0
1.882300 8.604802 54.877562 129 129 129 0
2.016768 8.604879 54.878054 129 129 129 0
2.151181 8.604722 54.877055 129 129 129 0
2.285640 8.604764 54.877322 127 127 127 0
2.420143 8.604955 54.878537 128 128 128 0
2.554537 8.604755 54.877264 125 125 125 0
2.689037 8.604918 54.878306 128 128 128 0
2.823483 8.604902 54.878201 130 130 130 0
2.957937 8.604907 54.878231 129 129 129 0
3.092340 8.604772 54.877374 127 127 127 0
3.226845 8.604920 54.878317 129 129 129 0
3.361299 8.604925 54.878345 130 130 130 0
3.495737 8.604892 54.878138 127 127 127 0
3.630220 8.604965 54.878602 127 127 127 0
