ply
format ascii 1.0
element vertex 1125
property float x
property float y
property float z
property uchar red
property uchar green
property uchar blue
property uchar alpha
end_header
-2.970004 0.118800 48.489854 120 120 120 0
-2.848876 0.118703 48.450270 120 120 120 0
-2.726385 0.118538 48.383044 122 122 122 0
-2.608716 0.118578 48.399183 122 122 122 0
-2.489791 0.118561 48.392445 122 122 122 0
-2.367814 0.118391 48.322725 123 123 123 0
-2.249398 0.118389 48.322193 122 122 122 0
-2.128606 0.118256 48.267718 121 121 121 0
-2.009701 0.118218 48.252132 121 121 121 0
-1.890201 0.118138 48.219422 120 120 120 0
-1.769831 0.117989 48.158677 121 121 121 0
-1.650801 0.117914 48.128312 120 120 120 0
-1.534021 0.118002 48.163938 120 120 120 0
-1.414594 0.117883 48.115438 119 119 119 0
-1.296069 0.117824 48.091598 119 119 119 0
-1.177619 0.117762 48.066091 120 120 120 0
-1.058424 0.117603 48.001077 118 118 118 0
-0.940064 0.117508 47.962442 117 117 117 0
-0.822600 0.117514 47.965020 118 118 118 0
-0.705544 0.117591 47.996159 117 117 117 0
-0.587414 0.117483 47.952124 115 115 115 0
-0.469815 0.117454 47.940348 113 113 113 0
-0.352771 0.117590 47.995999 115 115 115 0
-0.234864 0.117432 47.931338 114 114 114 0
-0.117468 0.117468 47.946227 114 114 114 0
0.000000 0.117619 48.007613 113 113 113 0
0.117597 0.117597 47.998806 114 114 114 0
0.235345 0.117673 48.029691 115 115 115 0
0.353323 0.117774 48.071151 114 114 114 0
0.470996 0.117749 48.060774 117 117 117 0
0.589569 0.117914 48.128095 115 115 115 0
0.707529 0.117922 48.131236 115 115 115 0
0.824579 0.117797 48.080381 115 115 115 0
0.944149 0.118019 48.170869 113 113 113 0
1.062225 0.118025 48.173483 114 114 114 0
1.181981 0.118198 48.244109 113 113 113 0
1.299351 0.118123 48.213402 114 114 114 0
1.418601 0.118217 48.251726 109 109 109 0
1.539514 0.118424 48.336393 110 110 110 0
1.658641 0.118474 48.356870 110 110 110 0
1.780072 0.118671 48.437326 109 109 109 0
1.900239 0.118765 48.475485 111 111 111 0
2.021310 0.118901 48.530844 107 107 107 0
2.141827 0.118990 48.567497 107 107 107 0
2.263987 0.119157 48.635600 105 105 105 0
2.388503 0.119425 48.744950 106 106 106 0
2.507572 0.119408 48.738028 106 106 106 0
2.631620 0.119619 48.824128 110 110 110 0
2.754899 0.119778 48.889074 107 107 107 0
2.876770 0.119865 48.924666 108 108 108 0
3.003405 0.120136 49.035184 108 108 108 0
3.130310 0.120397 49.141448 108 108 108 0
3.251585 0.120429 49.154719 107 107 107 0
3.383138 0.120826 49.316884 106 106 106 0
3.073446 0.105981 43.257503 107 107 107 0
3.181490 0.106050 43.285577 108 108 108 0
3.288484 0.106080 43.298016 107 107 107 0
3.395000 0.106094 43.303567 105 105 105 0
4.009692 0.121506 49.594205 104 104 104 0
3.611830 0.106230 43.359300 106 106 106 0
3.726029 0.106458 43.452232 104 104 104 0
4.403929 0.122331 49.931164 104 104 104 0
4.535619 0.122584 50.034403 105 105 105 0
4.659135 0.122609 50.044411 106 106 106 0
4.162676 0.106735 43.565421 107 107 107 0
4.934699 0.123367 50.354075 107 107 107 0
5.063784 0.123507 50.410987 106 106 106 0
4.501285 0.107173 43.744270 105 105 105 0
4.618545 0.107408 43.840013 107 107 107 0
5.456342 0.124008 50.615418 106 106 106 0
4.825848 0.107241 43.771864 104 104 104 0
5.715947 0.124260 50.718249 107 107 107 0
5.040474 0.107244 43.773115 107 107 107 0
5.152026 0.107334 43.809749 107 107 107 0
6.115011 0.124796 50.937199 107 107 107 0
6.265557 0.125311 51.147401 110 110 110 0
6.382332 0.125144 51.079088 110 110 110 0
6.519333 0.125372 51.172162 108 108 108 0
6.661581 0.125690 51.302126 106 106 106 0
6.795595 0.125844 51.365045 110 110 110 0
6.937198 0.126131 51.481990 109 109 109 0
7.061761 0.126103 51.470561 109 109 109 0
7.203354 0.126375 51.581486 113 113 113 0
7.335548 0.126475 51.622438 115 115 115 0
7.482944 0.126830 51.767170 114 114 114 0
7.594157 0.126569 51.660932 113 113 113 0
7.729099 0.126707 51.716956 117 117 117 0
7.868729 0.126915 51.802034 115 115 115 0
7.994958 0.126904 51.797590 114 114 114 0
8.118721 0.126855 51.777556 113 113 113 0
8.257476 0.127038 51.852281 113 113 113 0
8.386494 0.127068 51.864528 116 116 116 0
8.527621 0.127278 51.950177 111 111 111 0
8.661200 0.127371 51.987993 112 112 112 0
8.806162 0.127626 52.092058 109 109 109 0
8.940033 0.127715 52.128471 109 109 109 0
9.069572 0.127740 52.138959 113 113 113 0
9.216146 0.128002 52.245723 115 115 115 0
9.340226 0.127948 52.223794 118 118 118 0
9.497333 0.128342 52.384625 121 121 121 0
9.610835 0.128144 52.303864 120 120 120 0
9.737662 0.128127 52.296790 121 121 121 0
9.871953 0.128207 52.329462 118 118 118 0
10.010920 0.128345 52.385766 113 113 113 0
10.172439 0.128765 52.557166 105 105 105 0
-9.591194 0.239780 48.934663 114 114 114 0
-9.466408 0.239656 48.909367 114 114 114 0
-9.339216 0.239467 48.870832 116 116 116 0
-9.208843 0.239191 48.814434 113 113 113 0
-9.080315 0.238956 48.766462 114 114 114 0
-8.962917 0.239011 48.777781 115 115 115 0
-8.833513 0.238744 48.723184 117 117 117 0
-8.708242 0.238582 48.690201 117 117 117 0
-8.584840 0.238468 48.666891 114 114 114 0
-8.459287 0.238290 48.630564 115 115 115 0
-8.331897 0.238054 48.582492 114 114 114 0
-8.217017 0.238174 48.607023 119 119 119 0
-8.088713 0.237903 48.551700 114 114 114 0
-7.965466 0.237775 48.525533 119 119 119 0
-7.854167 0.238005 48.572459 117 117 117 0
-7.728042 0.237786 48.527739 117 117 117 0
-7.610511 0.237828 48.536420 119 119 119 0
-7.488728 0.237737 48.517835 119 119 119 0
-7.359371 0.237399 48.448790 119 119 119 0
-7.239197 0.237351 48.438920 122 122 122 0
-7.122904 0.237430 48.455127 120 120 120 0
-6.993365 0.237063 48.380247 118 118 118 0
-6.877606 0.237159 48.399759 121 121 121 0
-6.757990 0.237122 48.392337 119 119 119 0
-6.632438 0.236873 48.341384 120 120 120 0
-6.520878 0.237123 48.392419 120 120 120 0
-6.397755 0.236954 48.357936 120 120 120 0
-6.273792 0.236747 48.315686 122 122 122 0
-6.162562 0.237022 48.371761 120 120 120 0
-6.042324 0.236954 48.357936 119 119 119 0
-5.923133 0.236925 48.352106 118 118 118 0
-5.809072 0.237105 48.388775 119 119 119 0
-5.692515 0.237188 48.405744 119 119 119 0
-5.569084 0.236982 48.363731 119 119 119 0
-5.458702 0.237335 48.435688 118 118 118 0
-5.339528 0.237312 48.431089 118 118 118 0
-5.218888 0.237222 48.412691 118 118 118 0
-5.107797 0.237572 48.484068 118 118 118 0
-4.986986 0.237476 48.464396 119 119 119 0
-4.866533 0.237392 48.447320 117 117 117 0
-4.753908 0.237695 48.509265 119 119 119 0
-4.635654 0.237726 48.515476 120 120 120 0
-4.513986 0.237578 48.485347 120 120 120 0
-4.397586 0.237707 48.511708 118 118 118 0
-4.278499 0.237694 48.509062 119 119 119 0
-4.157808 0.237589 48.487554 119 119 119 0
-4.043513 0.237854 48.541578 119 119 119 0
-3.929276 0.238138 48.599576 118 118 118 0
-3.805245 0.237828 48.536292 118 118 118 0
-3.689601 0.238039 48.579345 118 118 118 0
-3.570741 0.238049 48.581511 117 117 117 0
-3.446063 0.237659 48.501937 114 114 114 0
-3.332467 0.238033 48.578233 119 119 119 0
-3.215709 0.238201 48.612379 125 125 125 0
-3.093469 0.237959 48.563087 124 124 124 0
-2.976920 0.238154 48.602781 127 127 127 0
-2.854984 0.237915 48.554146 125 125 125 0
-2.731139 0.237490 48.467412 123 123 123 0
-2.614602 0.237691 48.508386 122 122 122 0
-2.493389 0.237466 48.462370 122 122 122 0
-2.371178 0.237118 48.391390 122 122 122 0
-2.255092 0.237378 48.444518 120 120 120 0
-2.134626 0.237181 48.404212 120 120 120 0
-2.012953 0.236818 48.330207 120 120 120 0
-1.896450 0.237056 48.378826 118 118 118 0
-1.776102 0.236814 48.329299 121 121 121 0
-1.655081 0.236440 48.253091 121 121 121 0
-1.539433 0.236836 48.333848 120 120 120 0
-1.418311 0.236385 48.241860 119 119 119 0
-1.299904 0.236346 48.233912 119 119 119 0
-1.181707 0.236341 48.232927 118 118 118 0
-1.062409 0.236091 48.181798 118 118 118 0
-0.943669 0.235917 48.146398 118 118 118 0
-0.824607 0.235602 48.082052 116 116 116 0
-0.707107 0.235702 48.102503 116 116 116 0
-0.589503 0.235801 48.122665 114 114 114 0
-0.471481 0.235741 48.110351 117 117 117 0
-0.353216 0.235477 48.056584 116 116 116 0
-0.235724 0.235724 48.107031 117 117 117 0
-0.117816 0.235632 48.088110 115 115 115 0
0.000000 0.235799 48.122224 114 114 114 0
0.117799 0.235597 48.081063 113 113 113 0
0.235870 0.235870 48.136795 114 114 114 0
0.354139 0.236092 48.182126 113 113 113 0
0.472180 0.236090 48.181583 113 113 113 0
0.591008 0.236403 48.245553 112 112 112 0
0.709942 0.236647 48.295391 114 114 114 0
0.827961 0.236560 48.277587 111 111 111 0
0.947107 0.236777 48.321772 114 114 114 0
1.066219 0.236938 48.354606 114 114 114 0
1.183773 0.236755 48.317261 115 115 115 0
1.304176 0.237123 48.392417 113 113 113 0
1.423484 0.237247 48.417828 109 109 109 0
1.541605 0.237170 48.402035 110 110 110 0
1.663051 0.237579 48.485443 107 107 107 0
1.785770 0.238103 48.592377 106 106 106 0
1.903205 0.237901 48.551159 107 107 107 0
2.029117 0.238720 48.718302 106 106 106 0
2.147832 0.238648 48.703668 110 110 110 0
2.272060 0.239164 48.809019 109 109 109 0
2.396055 0.239606 48.899087 108 108 108 0
2.516588 0.239675 48.913274 110 110 110 0
2.639870 0.239988 48.977181 109 109 109 0
2.764988 0.240434 49.068103 109 109 109 0
2.890449 0.240871 49.157294 111 111 111 0
2.651624 0.212130 43.291816 107 107 107 0
3.139394 0.241492 49.284055 107 107 107 0
2.861462 0.211960 43.257172 106 106 106 0
3.388053 0.242004 49.388529 105 105 105 0
3.082418 0.212581 43.383779 105 105 105 0
3.192045 0.212803 43.429189 106 106 106 0
3.295600 0.212619 43.391709 106 106 106 0
3.411473 0.213217 43.513687 105 105 105 0
3.509762 0.212713 43.410787 107 107 107 0
3.629455 0.213497 43.570891 107 107 107 0
4.278542 0.244488 49.895529 106 106 106 0
4.414298 0.245239 50.048735 107 107 107 0
4.549385 0.245913 50.186263 107 107 107 0
4.072513 0.214343 43.743427 106 106 106 0
4.806271 0.246475 50.301113 107 107 107 0
4.935875 0.246794 50.366072 106 106 106 0
5.075787 0.247599 50.530487 103 103 103 0
4.508734 0.214702 43.816654 105 105 105 0
4.617376 0.214762 43.828911 107 107 107 0
4.730035 0.215002 43.877872 106 106 106 0
5.612723 0.249454 50.909049 106 106 106 0
4.939441 0.214758 43.828229 107 107 107 0
5.064767 0.215522 43.984082 107 107 107 0
5.176388 0.215683 44.016906 107 107 107 0
5.279572 0.215493 43.978110 109 109 109 0
6.278096 0.251124 51.249764 109 109 109 0
6.415253 0.251579 51.342563 109 109 109 0
6.542451 0.251633 51.353621 108 108 108 0
6.684050 0.252228 51.475165 110 110 110 0
6.811025 0.252260 51.481672 110 110 110 0
6.950421 0.252743 51.580121 111 111 111 0
7.084551 0.253020 51.636671 115 115 115 0
7.210499 0.253000 51.632647 113 113 113 0
7.344060 0.253243 51.682333 115 115 115 0
7.484274 0.253704 51.776369 115 115 115 0
7.596883 0.253229 51.679473 115 115 115 0
7.746670 0.253989 51.834525 114 114 114 0
7.884838 0.254350 51.908085 112 112 112 0
8.000670 0.253990 51.834596 114 114 114 0
8.140058 0.254377 51.913635 115 115 115 0
8.272642 0.254543 51.947516 115 115 115 0
8.411417 0.254891 52.018659 113 113 113 0
8.561212 0.255559 52.154811 111 111 111 0
8.675950 0.255175 52.076531 110 110 110 0
8.818020 0.255595 52.162199 112 112 112 0
8.942568 0.255502 52.143253 115 115 115 0
9.084185 0.255893 52.222969 117 117 117 0
9.230165 0.256393 52.325199 119 119 119 0
9.354362 0.256284 52.302837 122 122 122 0
9.486345 0.256388 52.324022 122 122 122 0
9.619497 0.256520 52.351002 121 121 121 0
9.759497 0.256829 52.414057 119 119 119 0
9.887069 0.256807 52.409589 114 114 114 0
10.048475 0.257653 52.582288 110 110 110 0
10.210108 0.258484 52.751785 96 96 96 0
-9.654990 0.362062 49.260153 115 115 115 0
-9.511835 0.361209 49.144072 116 116 116 0
-9.385247 0.360971 49.111704 113 113 113 0
-9.252503 0.360487 49.045869 115 115 115 0
-9.113112 0.359728 48.942600 114 114 114 0
-8.991392 0.359656 48.932746 117 117 117 0
-8.861565 0.359253 48.877909 116 116 116 0
-8.740352 0.359193 48.869735 113 113 113 0
-8.619839 0.359160 48.865303 113 113 113 0
-8.491163 0.358782 48.813814 116 116 116 0
-8.360052 0.358288 48.746658 115 115 115 0
-8.244176 0.358442 48.767679 117 117 117 0
-8.120786 0.358270 48.744216 115 115 115 0
-7.992206 0.357860 48.688431 115 115 115 0
-7.874865 0.357948 48.700463 116 116 116 0
-7.752595 0.357812 48.681918 116 116 116 0
-7.622629 0.357311 48.613707 118 118 118 0
-7.510508 0.357643 48.658945 119 119 119 0
-7.380072 0.357100 48.585071 119 119 119 0
-7.260861 0.357092 48.583882 119 119 119 0
-7.140853 0.357043 48.577234 118 118 118 0
-7.012831 0.356585 48.514916 118 118 118 0
-6.896506 0.356716 48.532769 120 120 120 0
-6.776990 0.356684 48.528395 120 120 120 0
-6.647595 0.356121 48.451860 119 119 119 0
-6.534070 0.356404 48.490312 119 119 119 0
-6.416155 0.356453 48.497016 121 121 121 0
-6.293186 0.356218 48.465048 120 120 120 0
-6.176131 0.356315 48.478265 121 121 121 0
-6.057362 0.356315 48.478289 120 120 120 0
-5.936358 0.356181 48.460068 120 120 120 0
-5.823114 0.356517 48.505737 116 116 116 0
-5.703688 0.356481 48.500752 116 116 116 0
-5.579855 0.356161 48.457269 118 118 118 0
-5.470429 0.356767 48.539746 117 117 117 0
-5.353087 0.356872 48.554073 116 116 116 0
-5.233358 0.356820 48.546921 120 120 120 0
-5.116165 0.356942 48.563500 117 117 117 0
-5.000466 0.357176 48.595395 118 118 118 0
-4.877615 0.356899 48.557641 117 117 117 0
-4.763927 0.357294 48.611496 117 117 117 0
-4.647285 0.357483 48.637207 118 118 118 0
-4.529328 0.357579 48.650140 118 118 118 0
-4.409026 0.357489 48.637899 119 119 119 0
-4.290723 0.357560 48.647650 120 120 120 0
-4.172090 0.357608 48.654111 119 119 119 0
-4.056226 0.357902 48.694190 119 119 119 0
-3.936490 0.357863 48.688801 118 118 118 0
-3.814441 0.357604 48.653582 121 121 121 0
-3.699326 0.357999 48.707385 119 119 119 0
-3.580764 0.358076 48.717884 118 118 118 0
-3.457936 0.357718 48.669048 123 123 123 0
-3.342121 0.358084 48.718958 129 129 129 0
-3.220215 0.357802 48.680501 127 127 127 0
-3.097774 0.357435 48.630672 128 128 128 0
-2.981685 0.357802 48.680568 125 125 125 0
-2.859606 0.357451 48.632749 125 125 125 0
-2.736656 0.356955 48.565317 123 123 123 0
-2.621740 0.357510 48.640825 122 122 122 0
-2.500389 0.357198 48.598432 121 121 121 0
-2.377188 0.356578 48.514041 119 119 119 0
-2.260050 0.356850 48.551020 120 120 120 0
-2.140839 0.356807 48.545107 119 119 119 0
-2.019402 0.356365 48.485033 121 121 121 0
-1.901159 0.356467 48.498964 119 119 119 0
-1.780781 0.356156 48.456624 119 119 119 0
-1.660444 0.355809 48.409448 120 120 120 0
-1.542805 0.356032 48.439725 119 119 119 0
-1.422487 0.355622 48.383909 118 118 118 0
-1.301736 0.355019 48.301900 118 118 118 0
-1.185197 0.355559 48.375396 116 116 116 0
-1.066300 0.355433 48.358296 115 115 115 0
-0.946094 0.354785 48.270090 116 116 116 0
-0.828227 0.354955 48.293142 114 114 114 0
-0.709523 0.354761 48.266869 116 116 116 0
-0.590849 0.354509 48.232573 116 116 116 0
-0.472918 0.354688 48.256894 117 117 117 0
-0.354702 0.354702 48.258785 117 117 117 0
-0.236536 0.354804 48.272645 115 115 115 0
-0.118129 0.354387 48.215875 116 116 116 0
0.000000 0.354639 48.250228 113 113 113 0
0.118277 0.354832 48.276475 113 113 113 0
0.236675 0.355013 48.301084 111 111 111 0
0.355156 0.355156 48.320590 112 112 112 0
0.473497 0.355123 48.316048 113 113 113 0
0.593065 0.355839 48.413449 113 113 113 0
0.711676 0.355838 48.413306 113 113 113 0
0.830196 0.355798 48.407928 113 113 113 0
0.950360 0.356385 48.487760 111 111 111 0
1.069005 0.356335 48.480961 112 112 112 0
1.187251 0.356175 48.459226 112 112 112 0
1.306250 0.356250 48.469393 110 110 110 0
1.428962 0.357241 48.604151 109 109 109 0
1.548580 0.357365 48.621026 109 109 109 0
1.670788 0.358026 48.711012 106 106 106 0
1.791528 0.358306 48.749072 110 110 110 0
1.912675 0.358627 48.792729 108 108 108 0
2.030688 0.358357 48.756021 110 110 110 0
1.907579 0.317930 43.255768 109 109 109 0
2.279899 0.359984 48.977425 110 110 110 0
2.403387 0.360508 49.048711 110 110 110 0
2.523481 0.360497 49.047257 111 111 111 0
2.645191 0.360708 49.075903 110 110 110 0
2.773643 0.361779 49.221696 109 109 109 0
2.551483 0.318935 43.392569 107 107 107 0
3.018620 0.362234 49.283591 109 109 109 0
3.145608 0.362955 49.381603 109 109 109 0
2.878360 0.319818 43.512620 104 104 104 0
2.984329 0.319750 43.503342 106 106 106 0
3.096246 0.320301 43.578413 106 106 106 0
3.651604 0.365160 49.681693 104 104 104 0
3.309139 0.320239 43.569961 104 104 104 0
3.905769 0.366166 49.818488 109 109 109 0
4.031225 0.366475 49.860548 108 108 108 0
4.164116 0.367422 49.989384 108 108 108 0
4.291625 0.367854 50.048109 107 107 107 0
3.861021 0.321752 43.775744 104 104 104 0
4.555093 0.369332 50.249236 108 108 108 0
4.692064 0.370426 50.398114 107 107 107 0
4.190065 0.322313 43.852071 105 105 105 0
4.949000 0.371175 50.500000 105 105 105 0
4.411643 0.322803 43.918799 104 104 104 0
5.222998 0.373071 50.757997 108 108 108 0
5.353118 0.373473 50.812701 105 105 105 0
5.484012 0.373910 50.872092 105 105 105 0
4.850468 0.323365 43.995174 108 108 108 0
5.751420 0.375093 51.033011 108 108 108 0
5.896460 0.376370 51.206770 107 107 107 0
6.029363 0.376835 51.270091 107 107 107 0
6.159994 0.377142 51.311902 107 107 107 0
6.296908 0.377814 51.403330 109 109 109 0
6.427931 0.378114 51.444024 109 109 109 0
6.576031 0.379386 51.617198 111 111 111 0
6.697403 0.379098 51.577995 113 113 113 0
6.823882 0.379105 51.578849 112 112 112 0
6.953049 0.379257 51.599625 114 114 114 0
7.108278 0.380801 51.809607 116 116 116 0
7.235066 0.380793 51.808565 115 115 115 0
7.358042 0.380588 51.780735 119 119 119 0
7.502601 0.381488 51.903152 116 116 116 0
7.618885 0.380944 51.829147 114 114 114 0
7.767937 0.382030 51.976827 114 114 114 0
7.888407 0.381697 51.931579 115 115 115 0
8.024687 0.382128 51.990197 115 115 115 0
8.172086 0.383067 52.117894 115 115 115 0
8.296901 0.382934 52.099847 113 113 113 0
8.429076 0.383140 52.127866 111 111 111 0
8.572168 0.383828 52.221552 110 110 110 0
8.689222 0.383348 52.156196 112 112 112 0
8.849010 0.384740 52.345517 115 115 115 0
8.968749 0.384375 52.295912 118 118 118 0
9.102177 0.384599 52.326401 118 118 118 0
9.240240 0.385010 52.382313 122 122 122 0
9.354786 0.384443 52.305203 123 123 123 0
9.501185 0.385183 52.405872 123 123 123 0
9.625234 0.385009 52.382225 120 120 120 0
9.762875 0.385377 52.432197 116 116 116 0
9.913360 0.386235 52.548951 114 114 114 0
10.052952 0.386652 52.605712 101 101 101 0
10.241071 0.388901 52.911758 91 91 91 0
-9.702798 0.485140 49.504071 115 115 115 0
-9.557648 0.483932 49.380770 115 115 115 0
-9.426432 0.483407 49.327222 116 116 116 0
-9.298035 0.483015 49.287228 117 117 117 0
-9.154074 0.481793 49.162587 115 115 115 0
-9.039095 0.482085 49.192352 114 114 114 0
-8.894981 0.480810 49.062222 118 118 118 0
-8.778979 0.481040 49.085709 115 115 115 0
-8.650902 0.480606 49.041395 115 115 115 0
-8.524978 0.480280 49.008207 116 116 116 0
-8.394075 0.479661 48.945044 116 116 116 0
-8.277397 0.479849 48.964194 115 115 115 0
-8.147474 0.479263 48.904408 114 114 114 0
-8.024769 0.479091 48.886807 115 115 115 0
-7.903283 0.478987 48.876208 115 115 115 0
-7.770354 0.478176 48.793431 117 117 117 0
-7.648754 0.478047 48.780321 116 116 116 0
-7.539999 0.478730 48.850011 117 117 117 0
-7.400505 0.477452 48.719585 115 115 115 0
-7.279768 0.477362 48.710390 117 117 117 0
-7.164810 0.477654 48.740207 116 116 116 0
-7.037504 0.477119 48.685602 118 118 118 0
-6.912630 0.476733 48.646236 119 119 119 0
-6.795979 0.476911 48.664368 119 119 119 0
-6.667263 0.476233 48.595215 118 118 118 0
-6.551602 0.476480 48.620420 120 120 120 0
-6.429715 0.476275 48.599507 121 121 121 0
-6.304112 0.475782 48.549186 120 120 120 0
-6.191150 0.476242 48.596152 120 120 120 0
-6.073652 0.476365 48.608662 116 116 116 0
-5.952613 0.476209 48.592756 119 119 119 0
-5.839837 0.476721 48.645036 118 118 118 0
-5.722342 0.476862 48.659367 118 118 118 0
-5.597143 0.476353 48.607406 118 118 118 0
-5.484230 0.476890 48.662203 118 118 118 0
-5.364794 0.476871 48.660265 117 117 117 0
-5.246689 0.476972 48.670583 116 116 116 0
-5.130010 0.477210 48.694923 118 118 118 0
-5.010385 0.477180 48.691786 117 117 117 0
-4.894916 0.477553 48.729873 118 118 118 0
-4.774630 0.477463 48.720714 116 116 116 0
-4.661337 0.478086 48.784266 119 119 119 0
-4.537493 0.477631 48.737837 118 118 118 0
-4.419306 0.477763 48.751312 117 117 117 0
-4.303487 0.478165 48.792368 119 119 119 0
-4.184131 0.478186 48.794532 118 118 118 0
-4.063275 0.478032 48.778813 118 118 118 0
-3.946741 0.478393 48.815602 122 122 122 0
-3.822031 0.477754 48.750390 121 121 121 0
-3.706099 0.478206 48.796564 121 121 121 0
-3.587164 0.478289 48.804956 121 121 121 0
-3.463657 0.477746 48.749567 122 122 122 0
-3.346111 0.478016 48.777132 123 123 123 0
-3.227107 0.478090 48.784680 121 121 121 0
-3.103261 0.477425 48.716818 121 121 121 0
-2.988303 0.478128 48.788621 122 122 122 0
-2.866768 0.477795 48.754558 121 121 121 0
-2.742520 0.476960 48.669388 119 119 119 0
-2.627013 0.477639 48.738650 119 119 119 0
-2.505482 0.477235 48.697419 120 120 120 0
-2.384125 0.476825 48.655608 119 119 119 0
-2.265389 0.476924 48.665719 121 121 121 0
-2.145354 0.476745 48.647481 121 121 121 0
-2.024340 0.476315 48.603608 119 119 119 0
-1.906830 0.476708 48.643630 118 118 118 0
-1.785899 0.476240 48.595889 119 119 119 0
-1.664571 0.475592 48.529768 116 116 116 0
-1.546261 0.475773 48.548237 118 118 118 0
-1.426896 0.475632 48.533889 119 119 119 0
-1.306213 0.474986 48.468005 115 115 115 0
-1.189512 0.475805 48.551512 117 117 117 0
-1.068881 0.475058 48.475329 116 116 116 0
-0.949487 0.474743 48.443207 114 114 114 0
-0.831528 0.475159 48.485597 117 117 117 0
-0.711830 0.474553 48.423804 116 116 116 0
-0.592543 0.474035 48.370874 118 118 118 0
-0.474247 0.474247 48.392581 115 115 115 0
-0.355668 0.474224 48.390189 115 115 115 0
-0.236762 0.473524 48.318766 114 114 114 0
-0.118598 0.474391 48.407263 113 113 113 0
0.000000 0.474147 48.382376 113 113 113 0
0.118554 0.474215 48.389275 113 113 113 0
0.237428 0.474856 48.454696 112 112 112 0
0.356296 0.475062 48.475685 110 110 110 0
0.474733 0.474733 48.442192 113 113 113 0
0.595014 0.476011 48.572593 112 112 112 0
0.713987 0.475992 48.570574 111 111 111 0
0.832411 0.475663 48.537071 113 113 113 0
0.953294 0.476647 48.637473 112 112 112 0
1.072129 0.476502 48.622631 112 112 112 0
1.192551 0.477020 48.675546 108 108 108 0
1.312712 0.477350 48.709160 109 109 109 0
1.433005 0.477668 48.741669 112 112 112 0
1.551272 0.477314 48.705544 111 111 111 0
1.674966 0.478562 48.832824 109 109 109 0
1.796913 0.479177 48.895596 111 111 111 0
1.699476 0.424869 43.353985 110 110 110 0
2.039648 0.479917 48.971148 110 110 110 0
2.161638 0.480364 49.016735 108 108 108 0
2.284038 0.480850 49.066338 109 109 109 0
2.408586 0.481717 49.154819 110 110 110 0
2.531933 0.482273 49.211527 111 111 111 0
2.343409 0.426074 43.476969 107 107 107 0
2.779633 0.483414 49.328009 109 109 109 0
2.901594 0.483599 49.346834 109 109 109 0
3.029842 0.484775 49.466809 106 106 106 0
2.778512 0.427463 43.618711 108 108 108 0
3.281712 0.486179 49.610151 107 107 107 0
2.992109 0.427444 43.616745 108 108 108 0
3.530505 0.486966 49.690430 107 107 107 0
3.205160 0.427355 43.607622 106 106 106 0
3.319555 0.428330 43.707110 107 107 107 0
3.921224 0.490153 50.015610 106 106 106 0
3.538866 0.428953 43.770761 107 107 107 0
3.646966 0.429055 43.781101 106 106 106 0
4.313785 0.493004 50.306536 104 104 104 0
3.868721 0.429858 43.863045 104 104 104 0
4.564756 0.493487 50.355830 105 105 105 0
4.101082 0.431693 44.050295 105 105 105 0
4.836758 0.496078 50.620174 102 102 102 0
4.317649 0.431765 44.057644 107 107 107 0
4.417998 0.431024 43.982057 105 105 105 0
4.530223 0.431450 44.025487 107 107 107 0
5.365846 0.499148 50.933513 107 107 107 0
5.507920 0.500720 51.093880 108 108 108 0
4.872477 0.433109 44.194804 107 107 107 0
5.777654 0.502405 51.265782 108 108 108 0
5.095518 0.433661 44.251137 110 110 110 0
5.201083 0.433424 44.226892 108 108 108 0
6.184745 0.504877 51.518074 109 109 109 0
6.309358 0.504749 51.504961 109 109 109 0
6.446621 0.505617 51.593607 112 112 112 0
6.586649 0.506665 51.700539 112 112 112 0
6.717091 0.506950 51.729616 113 113 113 0
6.840554 0.506708 51.704867 114 114 114 0
6.982857 0.507844 51.820829 115 115 115 0
7.108122 0.507723 51.808472 116 116 116 0
7.237049 0.507863 51.822761 115 115 115 0
7.379130 0.508905 51.929132 117 117 117 0
7.514314 0.509445 51.984182 115 115 115 0
7.650866 0.510058 52.046710 113 113 113 0
7.766727 0.509294 51.968731 115 115 115 0
7.905594 0.510038 52.044725 114 114 114 0
8.049432 0.511075 52.150518 112 112 112 0
8.174685 0.510918 52.134468 112 112 112 0
8.305459 0.511105 52.153590 111 111 111 0
8.455966 0.512483 52.294160 115 115 115 0
8.586217 0.512610 52.307138 117 117 117 0
8.708090 0.512241 52.269446 117 117 117 0
8.842391 0.512602 52.306367 120 120 120 0
8.969212 0.512526 52.298612 121 121 121 0
9.113098 0.513414 52.389180 123 123 123 0
9.246481 0.513693 52.417694 122 122 122 0
9.371753 0.513521 52.400073 123 123 123 0
9.503285 0.513691 52.417456 122 122 122 0
9.629902 0.513595 52.407630 118 118 118 0
9.772972 0.514367 52.486422 112 112 112 0
9.916880 0.515163 52.567613 103 103 103 0
10.071610 0.516493 52.703349 94 94 94 0
10.217845 0.517359 52.791758 87 87 87 0
-9.751224 0.609452 49.751145 115 115 115 0
-9.601200 0.607671 49.605785 116 116 116 0
-9.477834 0.607553 49.596199 117 117 117 0
-9.341316 0.606579 49.516652 113 113 113 0
-9.198415 0.605159 49.400726 115 115 115 0
-9.072167 0.604811 49.372337 112 112 112 0
-8.945420 0.604420 49.340433 114 114 114 0
-8.805643 0.603126 49.234792 114 114 114 0
-8.688746 0.603385 49.255932 116 116 116 0
-8.554100 0.602401 49.175627 113 113 113 0
-8.430320 0.602166 49.156386 114 114 114 0
-8.306616 0.601929 49.137038 113 113 113 0
-8.181067 0.601549 49.106047 117 117 117 0
-8.054176 0.601058 49.065952 112 112 112 0
-7.930694 0.600810 49.045730 114 114 114 0
-7.801758 0.600135 48.990628 114 114 114 0
-7.675471 0.599646 48.950705 114 114 114 0
-7.557037 0.599765 48.960394 116 116 116 0
-7.429583 0.599160 48.911016 119 119 119 0
-7.306546 0.598897 48.889570 116 116 116 0
-7.185173 0.598764 48.878726 116 116 116 0
-7.059493 0.598262 48.837726 118 118 118 0
-6.936590 0.597982 48.814847 116 116 116 0
-6.815864 0.597883 48.806756 116 116 116 0
-6.686714 0.597028 48.736980 116 116 116 0
-6.563763 0.596706 48.710669 119 119 119 0
-6.452326 0.597438 48.770415 117 117 117 0
-6.323084 0.596517 48.695294 118 118 118 0
-6.205771 0.596709 48.710915 117 117 117 0
-6.086620 0.596727 48.712442 119 119 119 0
-5.961275 0.596127 48.663469 119 119 119 0
-5.851575 0.597099 48.742812 117 117 117 0
-5.735568 0.597455 48.771836 116 116 116 0
-5.614315 0.597268 48.756536 116 116 116 0
-5.499090 0.597727 48.794056 118 118 118 0
-5.378538 0.597615 48.784926 118 118 118 0
-5.260147 0.597744 48.795425 118 118 118 0
-5.141778 0.597881 48.806626 118 118 118 0
-5.023233 0.598004 48.816649 119 119 119 0
-4.907841 0.598517 48.858548 116 116 116 0
-4.787140 0.598392 48.848365 119 119 119 0
-4.670369 0.598765 48.878791 118 118 118 0
-4.550742 0.598782 48.880154 119 119 119 0
-4.431728 0.598882 48.888341 119 119 119 0
-4.311117 0.598766 48.878881 120 120 120 0
-4.190948 0.598707 48.874025 119 119 119 0
-4.071866 0.598804 48.881949 121 121 121 0
-3.952228 0.598822 48.883469 119 119 119 0
-3.829415 0.598346 48.844578 121 121 121 0
-3.714293 0.599080 48.904454 121 121 121 0
-3.594108 0.599018 48.899433 119 119 119 0
-3.471400 0.598517 48.858549 121 121 121 0
-3.354562 0.599029 48.900316 120 120 120 0
-3.232721 0.598652 48.869551 120 120 120 0
-3.112612 0.598579 48.863618 121 121 121 0
-2.993581 0.598716 48.874786 121 121 121 0
-2.872384 0.598413 48.850064 122 122 122 0
-2.750269 0.597885 48.806907 120 120 120 0
-2.633905 0.598615 48.866519 119 119 119 0
-2.511589 0.597997 48.816104 120 120 120 0
-2.391038 0.597760 48.796697 118 118 118 0
-2.271318 0.597715 48.793085 118 118 118 0
-2.151312 0.597587 48.782575 119 119 119 0
-2.030846 0.597308 48.759803 117 117 117 0
-1.911655 0.597392 48.766707 118 118 118 0
-1.791975 0.597325 48.761212 119 119 119 0
-1.669437 0.596227 48.671628 119 119 119 0
-1.551876 0.596875 48.724529 114 114 114 0
-1.432940 0.597058 48.739443 116 116 116 0
-1.311464 0.596120 48.662843 117 117 117 0
-1.192166 0.596083 48.659836 117 117 117 0
-1.073633 0.596463 48.690855 115 115 115 0
-0.952127 0.595080 48.577934 116 116 116 0
-0.834066 0.595761 48.633591 116 116 116 0
-0.714448 0.595374 48.601938 117 117 117 0
-0.594290 0.594290 48.513498 116 116 116 0
-0.475198 0.593998 48.489600 116 116 116 0
-0.356694 0.594491 48.529848 113 113 113 0
-0.237584 0.593959 48.486453 113 113 113 0
-0.118989 0.594945 48.566979 113 113 113 0
0.000000 0.595239 48.590956 113 113 113 0
0.118979 0.594893 48.562654 112 112 112 0
0.238059 0.595147 48.583442 112 112 112 0
0.357407 0.595678 48.626753 114 114 114 0
0.476241 0.595302 48.596052 113 113 113 0
0.596118 0.596118 48.662727 111 111 111 0
0.716494 0.597078 48.741099 113 113 113 0
0.835153 0.596538 48.696978 112 112 112 0
0.956230 0.597644 48.787256 110 110 110 0
1.075173 0.597318 48.760676 111 111 111 0
1.195818 0.597909 48.808916 110 110 110 0
1.317067 0.598667 48.870757 110 110 110 0
1.438117 0.599215 48.915544 110 110 110 0
1.558235 0.599321 48.924190 109 109 109 0
1.681991 0.600711 49.037627 110 110 110 0
1.802740 0.600913 49.054153 108 108 108 0
1.924256 0.601330 49.088175 108 108 108 0
2.048045 0.602366 49.172739 109 109 109 0
2.167876 0.602188 49.158175 111 111 111 0
2.027921 0.533663 43.564356 108 108 108 0
2.416313 0.604078 49.312510 108 108 108 0
2.242765 0.533992 43.591155 108 108 108 0
2.352529 0.534666 43.646181 110 110 110 0
2.456665 0.534058 43.596535 109 109 109 0
2.913163 0.606909 49.543590 107 107 107 0
2.680430 0.536086 43.762131 107 107 107 0
3.171588 0.609921 49.789458 108 108 108 0
3.287452 0.608787 49.696933 106 106 106 0
3.420005 0.610715 49.854298 108 108 108 0
3.112197 0.536586 43.802916 107 107 107 0
3.218958 0.536493 43.795352 106 106 106 0
3.335801 0.538032 43.921012 108 108 108 0
3.443130 0.537989 43.917480 107 107 107 0
4.060876 0.615284 50.227284 107 107 107 0
3.656687 0.537748 43.897799 105 105 105 0
3.769380 0.538483 43.957786 106 106 106 0
4.450774 0.618163 50.462293 106 106 106 0
3.997364 0.540184 44.096676 108 108 108 0
4.110839 0.540900 44.155088 105 105 105 0
4.213802 0.540231 44.100493 106 106 106 0
4.320974 0.540122 44.091566 110 110 110 0
4.443734 0.541919 44.238270 107 107 107 0
5.265496 0.626845 51.171002 107 107 107 0
5.387662 0.626472 51.140600 106 106 106 0
5.522519 0.627559 51.229302 109 109 109 0
5.648489 0.627610 51.233462 106 106 106 0
5.796639 0.630069 51.434242 109 109 109 0
5.921705 0.629969 51.426010 110 110 110 0
5.215357 0.543266 44.348278 110 110 110 0
6.198598 0.632510 51.633469 112 112 112 0
6.323556 0.632356 51.620864 111 111 111 0
6.462462 0.633575 51.720383 113 113 113 0
6.600912 0.634703 51.812495 115 115 115 0
6.731281 0.635027 51.838900 115 115 115 0
6.870463 0.636154 51.930939 114 114 114 0
7.000176 0.636380 51.949362 117 117 117 0
7.122039 0.635896 51.909906 116 116 116 0
7.255787 0.636473 51.956939 116 116 116 0
7.389953 0.637065 52.005302 115 115 115 0
7.523429 0.637579 52.047243 113 113 113 0
7.651425 0.637619 52.050509 113 113 113 0
7.779743 0.637684 52.055827 113 113 113 0
7.919126 0.638639 52.133812 113 113 113 0
8.065899 0.640151 52.257201 113 113 113 0
8.186760 0.639591 52.211482 115 115 115 0
8.328893 0.640684 52.300739 116 116 116 0
8.470205 0.641682 52.382218 117 117 117 0
8.594295 0.641365 52.356350 118 118 118 0
8.737873 0.642491 52.448219 123 123 123 0
8.861546 0.642141 52.419677 123 123 123 0
8.985709 0.641836 52.394806 124 124 124 0
9.123253 0.642483 52.447561 124 124 124 0
9.255490 0.642742 52.468767 124 124 124 0
9.381884 0.642595 52.456720 123 123 123 0
9.529097 0.643858 52.559831 120 120 120 0
9.644660 0.642977 52.487944 116 116 116 0
9.791620 0.644186 52.586573 109 109 109 0
9.939018 0.645391 52.684963 99 99 99 0
10.104480 0.647723 52.875353 91 91 91 0
10.296276 0.651663 53.196980 88 88 88 0
-9.810543 0.735791 50.053792 114 114 114 0
-9.666174 0.734140 49.941485 117 117 117 0
-9.526483 0.732806 49.850776 112 112 112 0
-9.388101 0.731540 49.764649 116 116 116 0
-9.240760 0.729534 49.628141 116 116 116 0
-9.110310 0.728825 49.579918 116 116 116 0
-8.983189 0.728367 49.548752 117 117 117 0
-8.841921 0.726733 49.437633 115 115 115 0
-8.715880 0.726323 49.409752 115 115 115 0
-8.588747 0.725810 49.374805 116 116 116 0
-8.461942 0.725309 49.340772 112 112 112 0
-8.343057 0.725483 49.352601 112 112 112 0
-8.210174 0.724427 49.280759 115 115 115 0
-8.080832 0.723657 49.228338 114 114 114 0
-7.958026 0.723457 49.214757 115 115 115 0
-7.830152 0.722783 49.168927 116 116 116 0
-7.707663 0.722593 49.156017 114 114 114 0
-7.586292 0.722504 49.149933 113 113 113 0
-7.457906 0.721733 49.097472 118 118 118 0
-7.331963 0.721177 49.059637 116 116 116 0
-7.208092 0.720809 49.034641 117 117 117 0
-7.075637 0.719556 48.949408 116 116 116 0
-6.958929 0.719889 48.972058 116 116 116 0
-6.835923 0.719571 48.950397 115 115 115 0
-6.713886 0.719345 48.935030 115 115 115 0
-6.591886 0.719115 48.919379 116 116 116 0
-6.469530 0.718837 48.900456 114 114 114 0
-6.345532 0.718362 48.868168 116 116 116 0
-6.224343 0.718193 48.856697 116 116 116 0
-6.102748 0.717970 48.841520 117 117 117 0
-5.979952 0.717594 48.815938 117 117 117 0
-5.867422 0.718460 48.874816 116 116 116 0
-5.750110 0.718764 48.895495 116 116 116 0
-5.627544 0.718410 48.871420 116 116 116 0
-5.510663 0.718782 48.896739 116 116 116 0
-5.397313 0.719642 48.955215 118 118 118 0
-5.275095 0.719331 48.934088 118 118 118 0
-5.154753 0.719268 48.929783 119 119 119 0
-5.036855 0.719551 48.949029 119 119 119 0
-4.921062 0.720155 48.990168 118 118 118 0
-4.799627 0.719944 48.975789 117 117 117 0
-4.682764 0.720425 49.008519 119 119 119 0
-4.559766 0.719963 48.977073 119 119 119 0
-4.441049 0.720170 48.991167 118 118 118 0
-4.321955 0.720326 49.001755 118 118 118 0
-4.201534 0.720263 48.997479 119 119 119 0
-4.082090 0.720369 49.004677 119 119 119 0
-3.963095 0.720563 49.017878 119 119 119 0
-3.842514 0.720471 49.011663 119 119 119 0
-3.723497 0.720677 49.025638 120 120 120 0
-3.601050 0.720210 48.993877 119 119 119 0
-3.483569 0.720738 49.029829 120 120 120 0
-3.363447 0.720739 49.029835 118 118 118 0
-3.242992 0.720665 49.024822 120 120 120 0
-3.119931 0.719984 48.978505 120 120 120 0
-3.000098 0.720024 48.981196 119 119 119 0
-2.879597 0.719899 48.972733 119 119 119 0
-2.759635 0.719905 48.973108 119 119 119 0
-2.638753 0.719660 48.956448 118 118 118 0
-2.517910 0.719403 48.938966 120 120 120 0
-2.395702 0.718711 48.891882 120 120 120 0
-2.277752 0.719290 48.931294 119 119 119 0
-2.156433 0.718811 48.898702 118 118 118 0
-2.036512 0.718769 48.895852 116 116 116 0
-1.915779 0.718417 48.871920 117 117 117 0
-1.795889 0.718355 48.867717 118 118 118 0
-1.675095 0.717898 48.836579 116 116 116 0
-1.555694 0.718012 48.844380 115 115 115 0
-1.436604 0.718302 48.864092 117 117 117 0
-1.315035 0.717292 48.795358 115 115 115 0
-1.195296 0.717178 48.787607 118 118 118 0
-1.076202 0.717468 48.807351 118 118 118 0
-0.955909 0.716931 48.770847 116 116 116 0
-0.836458 0.716964 48.773085 119 119 119 0
-0.716926 0.716926 48.770497 118 118 118 0
-0.596477 0.715772 48.691964 117 117 117 0
-0.477435 0.716153 48.717904 116 116 116 0
-0.358038 0.716076 48.712668 115 115 115 0
-0.238226 0.714679 48.617641 116 116 116 0
-0.119290 0.715740 48.689820 113 113 113 0
0.000000 0.716588 48.747467 113 113 113 0
0.119232 0.715390 48.665970 112 112 112 0
0.239006 0.717017 48.776685 111 111 111 0
0.358841 0.717682 48.821914 111 111 111 0
0.478800 0.718199 48.857094 111 111 111 0
0.598162 0.717795 48.829563 109 109 109 0
0.718191 0.718191 48.856503 112 112 112 0
0.838940 0.719092 48.917790 114 114 114 0
0.958342 0.718756 48.894997 112 112 112 0
1.079597 0.719731 48.961307 113 113 113 0
1.200843 0.720506 49.014003 110 110 110 0
1.321407 0.720768 49.031816 110 110 110 0
1.441914 0.720957 49.044685 109 109 109 0
1.390571 0.641802 43.659999 110 110 110 0
1.686341 0.722718 49.164470 110 110 110 0
1.808977 0.723591 49.223862 108 108 108 0
1.928800 0.723300 49.204079 111 111 111 0
2.055034 0.725306 49.340542 110 110 110 0
2.175614 0.725205 49.333650 110 110 110 0
2.033410 0.642130 43.682287 110 110 110 0
2.423107 0.726932 49.451163 108 108 108 0
2.547971 0.727992 49.523250 109 109 109 0
2.357344 0.642912 43.735512 107 107 107 0
2.797793 0.729859 49.650270 109 109 109 0
2.922609 0.730652 49.704235 108 108 108 0
2.682849 0.643884 43.801610 107 107 107 0
3.175663 0.732845 49.853425 109 109 109 0
3.302980 0.733996 49.931667 107 107 107 0
3.007851 0.644539 43.846219 106 106 106 0
3.558409 0.736223 50.083166 107 107 107 0
3.684531 0.736906 50.129676 110 110 110 0
3.346338 0.647678 44.059748 108 108 108 0
3.943000 0.739313 50.293373 109 109 109 0
4.075038 0.740916 50.402454 105 105 105 0
3.672692 0.648122 44.089935 109 109 109 0
3.785541 0.648950 44.146254 105 105 105 0
3.889086 0.648181 44.093942 106 106 106 0
4.000774 0.648774 44.134299 105 105 105 0
4.117268 0.650095 44.224151 106 106 106 0
4.222883 0.649674 44.195531 105 105 105 0
4.992504 0.748876 50.943914 106 106 106 0
4.461766 0.652941 44.417779 108 108 108 0
5.263500 0.751929 51.151599 106 106 106 0
5.401994 0.753767 51.276644 106 106 106 0
4.788804 0.653019 44.423044 105 105 105 0
5.678160 0.757088 51.502582 108 108 108 0
5.008315 0.653259 44.439354 112 112 112 0
5.949364 0.759493 51.666207 111 111 111 0
6.081208 0.760151 51.710950 112 112 112 0
6.211400 0.760580 51.740110 111 111 111 0
6.343458 0.761215 51.783330 112 112 112 0
6.476082 0.761892 51.829389 113 113 113 0
6.602196 0.761792 51.822573 114 114 114 0
6.729514 0.761832 51.825294 116 116 116 0
6.876929 0.764103 51.979808 117 117 117 0
7.008455 0.764559 52.010798 116 116 116 0
7.140696 0.765075 52.045890 117 117 117 0
7.274432 0.765730 52.090453 114 114 114 0
7.400108 0.765528 52.076763 114 114 114 0
7.534314 0.766201 52.122548 112 112 112 0
7.677584 0.767758 52.228462 114 114 114 0
7.810038 0.768200 52.258537 116 116 116 0
7.938509 0.768243 52.261414 115 115 115 0
8.086992 0.770190 52.393858 117 117 117 0
8.205438 0.769260 52.330600 119 119 119 0
8.333386 0.769236 52.328954 120 120 120 0
8.481317 0.771029 52.450938 120 120 120 0
8.609739 0.771021 52.450438 124 124 124 0
8.745338 0.771648 52.493028 122 122 122 0
8.880216 0.772193 52.530113 124 124 124 0
8.994889 0.770990 52.448331 126 126 126 0
9.132302 0.771744 52.499580 124 124 124 0
9.254383 0.771199 52.462490 123 123 123 0
9.393250 0.772048 52.520267 123 123 123 0
9.529097 0.772630 52.559831 119 119 119 0
9.652972 0.772238 52.533180 111 111 111 0
8.099282 0.639417 43.497755 103 103 103 0
9.957626 0.775919 52.783599 94 94 94 0
10.179942 0.783072 53.270237 88 88 88 0
10.327660 0.784379 53.359131 86 86 86 0
-9.888256 0.865222 50.450283 117 117 117 0
-9.718627 0.861144 50.212490 116 116 116 0
-9.589481 0.860594 50.180437 116 116 116 0
-9.443942 0.858540 50.060652 114 114 114 0
-9.299951 0.856574 49.946030 115 115 115 0
-9.162792 0.855194 49.865534 113 113 113 0
-9.034104 0.854577 49.829588 113 113 113 0
-8.889589 0.852426 49.704159 116 116 116 0
-8.760577 0.851723 49.663133 115 115 115 0
-8.634364 0.851275 49.637043 115 115 115 0
-8.504448 0.850445 49.588617 112 112 112 0
-8.380991 0.850245 49.576997 113 113 113 0
-8.247840 0.849042 49.506845 114 114 114 0
-8.117381 0.848085 49.450997 113 113 113 0
-7.992757 0.847717 49.429544 113 113 113 0
-7.861133 0.846584 49.363473 113 113 113 0
-7.735473 0.846067 49.333375 114 114 114 0
-7.615444 0.846160 49.338802 115 115 115 0
-7.484413 0.845014 49.271976 117 117 117 0
-7.360952 0.844699 49.253610 118 118 118 0
-7.238812 0.844528 49.243616 116 116 116 0
-7.110388 0.843605 49.189817 114 114 114 0
-6.983434 0.842828 49.144504 119 119 119 0
-6.860711 0.842543 49.127899 118 118 118 0
-6.735684 0.841961 49.093908 117 117 117 0
-6.611413 0.841453 49.064287 114 114 114 0
-6.492580 0.841631 49.074680 117 117 117 0
-6.370965 0.841448 49.064034 116 116 116 0
-6.242472 0.840333 48.998993 114 114 114 0
-6.122800 0.840384 49.002001 114 114 114 0
-6.001440 0.840202 48.991345 115 115 115 0
-5.885474 0.840782 49.025187 113 113 113 0
-5.765262 0.840767 49.024333 114 114 114 0
-5.644542 0.840676 49.019033 117 117 117 0
-5.528946 0.841361 49.058967 116 116 116 0
-5.410086 0.841569 49.071073 115 115 115 0
-5.285410 0.840861 49.029778 116 116 116 0
-5.175154 0.842467 49.123439 116 116 116 0
-5.052477 0.842080 49.100850 115 115 115 0
-4.933970 0.842385 49.118665 114 114 114 0
-4.813534 0.842368 49.117695 116 116 116 0
-4.692532 0.842249 49.110750 117 117 117 0
-4.573072 0.842408 49.120004 117 117 117 0
-4.455835 0.842996 49.154277 117 117 117 0
-4.333238 0.842574 49.129679 120 120 120 0
-4.212484 0.842497 49.125182 117 117 117 0
-4.092147 0.842501 49.125412 118 118 118 0
-3.969602 0.842037 49.098354 120 120 120 0
-3.851555 0.842528 49.126978 119 119 119 0
-3.733283 0.842999 49.154478 119 119 119 0
-3.610644 0.842484 49.124408 119 119 119 0
-3.490198 0.842462 49.123129 121 121 121 0
-3.370513 0.842628 49.132842 119 119 119 0
-3.248731 0.842264 49.111576 121 121 121 0
-3.128164 0.842198 49.107750 118 118 118 0
-3.008019 0.842245 49.110515 119 119 119 0
-2.885431 0.841584 49.071953 119 119 119 0
-2.767314 0.842226 49.109383 117 117 117 0
-2.647006 0.842229 49.109577 119 119 119 0
-2.525230 0.841743 49.081250 117 117 117 0
-2.405165 0.841808 49.085001 120 120 120 0
-2.283867 0.841425 49.062667 117 117 117 0
-2.161606 0.840625 49.016010 118 118 118 0
-2.043819 0.841572 49.071278 116 116 116 0
-1.922025 0.840886 49.031257 116 116 116 0
-1.800569 0.840266 48.995081 117 117 117 0
-1.680122 0.840061 48.983157 118 118 118 0
-1.561660 0.840894 49.031718 118 118 118 0
-1.439699 0.839825 48.969361 117 117 117 0
-1.320382 0.840243 48.993780 118 118 118 0
-1.199569 0.839699 48.962012 118 118 118 0
-1.078613 0.838922 48.916710 119 119 119 0
-0.958615 0.838788 48.908916 118 118 118 0
-0.838779 0.838779 48.908400 117 117 117 0
-0.718810 0.838612 48.898634 118 118 118 0
-0.598356 0.837698 48.845353 116 116 116 0
-0.478650 0.837637 48.841835 117 117 117 0
-0.358944 0.837537 48.835959 115 115 115 0
-0.239031 0.836608 48.781828 115 115 115 0
-0.119648 0.837536 48.835915 112 112 112 0
0.000000 0.838562 48.895748 112 112 112 0
0.119694 0.837859 48.854724 109 109 109 0
0.239604 0.838614 48.898790 112 112 112 0
0.359435 0.838681 48.902690 111 111 111 0
0.479404 0.838956 48.918731 111 111 111 0
0.600329 0.840460 49.006414 114 114 114 0
0.721347 0.841571 49.071218 111 111 111 0
0.840780 0.840780 49.025091 112 112 112 0
0.961626 0.841422 49.062536 111 111 111 0
1.083099 0.842411 49.120146 108 108 108 0
1.204548 0.843184 49.165241 107 107 107 0
1.325118 0.843257 49.169502 111 111 111 0
1.447222 0.844213 49.225237 108 108 108 0
1.569857 0.845307 49.289063 113 113 113 0
1.691140 0.845570 49.304383 112 112 112 0
1.813411 0.846259 49.344522 111 111 111 0
1.935761 0.846896 49.381666 111 111 111 0
2.061251 0.848750 49.489820 109 109 109 0
2.181892 0.848514 49.476006 114 114 114 0
2.305786 0.849500 49.533524 109 109 109 0
2.434777 0.852172 49.689317 109 109 109 0
2.554518 0.851506 49.650489 109 109 109 0
2.683183 0.853740 49.780766 111 111 111 0
2.471679 0.752250 43.862983 109 109 109 0
2.583330 0.753471 43.934179 108 108 108 0
2.693627 0.754216 43.977588 110 110 110 0
3.185446 0.857620 50.006994 106 106 106 0
2.910156 0.754485 43.993287 106 106 106 0
3.436959 0.859240 50.101442 109 109 109 0
3.130766 0.755702 44.064263 106 106 106 0
3.696643 0.862550 50.294463 109 109 109 0
3.823665 0.863408 50.344499 106 106 106 0
3.948699 0.863778 50.366055 107 107 107 0
4.083739 0.866248 50.510072 107 107 107 0
4.212012 0.867179 50.564365 109 109 109 0
3.799096 0.759819 44.304321 108 108 108 0
3.897444 0.757836 44.188703 105 105 105 0
4.015191 0.759631 44.293338 108 108 108 0
4.140774 0.762774 44.476625 107 107 107 0
4.872044 0.874469 50.989468 108 108 108 0
4.367757 0.764358 44.568953 105 105 105 0
4.454627 0.760546 44.346710 107 107 107 0
4.585817 0.764303 44.565759 108 108 108 0
5.420697 0.882439 51.454176 108 108 108 0
5.559552 0.884474 51.572841 109 109 109 0
5.680534 0.883639 51.524115 109 109 109 0
5.823313 0.886156 51.670924 110 110 110 0
5.953480 0.886689 51.701955 112 112 112 0
6.092203 0.888446 51.804449 113 113 113 0
6.227665 0.889666 51.875596 115 115 115 0
6.359605 0.890345 51.915141 113 113 113 0
6.484399 0.890015 51.895947 117 117 117 0
6.625186 0.891852 52.003031 116 116 116 0
6.749960 0.891504 51.982746 115 115 115 0
6.879884 0.891837 52.002146 116 116 116 0
7.022986 0.893835 52.118632 116 116 116 0
7.143373 0.892922 52.065402 113 113 113 0
7.281980 0.894278 52.144504 115 115 115 0
7.420952 0.895632 52.223451 114 114 114 0
7.551458 0.895936 52.241148 115 115 115 0
7.682793 0.896326 52.263896 116 116 116 0
7.825658 0.898026 52.363054 116 116 116 0
7.946618 0.897199 52.314801 118 118 118 0
8.094313 0.899368 52.441291 118 118 118 0
8.221163 0.899190 52.430885 119 119 119 0
8.365720 0.900924 52.531994 122 122 122 0
8.490045 0.900459 52.504919 122 122 122 0
8.615768 0.900155 52.487165 125 125 125 0
8.748308 0.900561 52.510850 123 123 123 0
8.881742 0.901046 52.539140 126 126 126 0
8.999379 0.899938 52.474515 125 125 125 0
9.138669 0.900995 52.536181 122 122 122 0
9.271031 0.901350 52.556867 124 124 124 0
9.399958 0.901366 52.557777 119 119 119 0
9.544005 0.902811 52.642059 115 115 115 0
9.675671 0.903063 52.656714 106 106 106 0
9.825796 0.905008 52.770118 98 98 98 0
8.295435 0.754130 43.972620 93 93 93 0
10.158765 0.911684 53.159419 87 87 87 0
8.542489 0.756929 44.135825 87 87 87 0
-9.964961 0.996496 50.841640 117 117 117 0
-9.815534 0.993978 50.713169 115 115 115 0
-9.684065 0.993237 50.675381 116 116 116 0
-9.522292 0.989329 50.475970 113 113 113 0
-9.362189 0.985494 50.280284 114 114 114 0
-9.222077 0.983688 50.188174 114 114 114 0
-9.080443 0.981670 50.085182 114 114 114 0
-8.944593 0.980229 50.011700 115 115 115 0
-8.806141 0.978460 49.921432 114 114 114 0
-8.677306 0.977725 49.883912 114 114 114 0
-8.547447 0.976851 49.839341 114 114 114 0
-8.415624 0.975724 49.781861 114 114 114 0
-8.282975 0.974468 49.717739 117 117 117 0
-8.142796 0.972274 49.605826 113 113 113 0
-8.029863 0.973317 49.659015 114 114 114 0
-7.900005 0.972308 49.607568 113 113 113 0
-7.764328 0.970541 49.517395 117 117 117 0
-7.649879 0.971413 49.561895 114 114 114 0
-7.509845 0.969012 49.439401 117 117 117 0
-7.381848 0.968111 49.393428 113 113 113 0
-7.269028 0.969204 49.449171 114 114 114 0
-7.132729 0.967150 49.344371 114 114 114 0
-7.014458 0.967511 49.362827 116 116 116 0
-6.886379 0.966509 49.311704 116 116 116 0
-6.755515 0.965074 49.238450 117 117 117 0
-6.638614 0.965617 49.266152 116 116 116 0
-6.510851 0.964570 49.212778 117 117 117 0
-6.386050 0.963932 49.180208 116 116 116 0
-6.268349 0.964361 49.202110 116 116 116 0
-6.148739 0.964508 49.209596 115 115 115 0
-6.026194 0.964191 49.193421 115 115 115 0
-5.907945 0.964562 49.212372 114 114 114 0
-5.788366 0.964728 49.220797 116 116 116 0
-5.660657 0.963516 49.158985 116 116 116 0
-5.549787 0.965180 49.243895 115 115 115 0
-5.426823 0.964769 49.222884 117 117 117 0
-5.307723 0.965041 49.236760 115 115 115 0
-5.187895 0.965190 49.244374 114 114 114 0
-5.066809 0.965106 49.240124 114 114 114 0
-4.947026 0.965273 49.248642 115 115 115 0
-4.824766 0.964953 49.232303 115 115 115 0
-4.703547 0.964830 49.226031 115 115 115 0
-4.587284 0.965744 49.272653 116 116 116 0
-4.467778 0.966006 49.286019 118 118 118 0
-4.346406 0.965868 49.278977 118 118 118 0
-4.222960 0.965248 49.247344 119 119 119 0
-4.102447 0.965282 49.249066 119 119 119 0
-3.980255 0.964910 49.230120 118 118 118 0
-3.860874 0.965219 49.245844 120 120 120 0
-3.742934 0.965919 49.281556 121 121 121 0
-3.619726 0.965260 49.247979 120 120 120 0
-3.498626 0.965138 49.241741 120 120 120 0
-3.379961 0.965703 49.270571 121 121 121 0
-3.256275 0.964822 49.225623 121 121 121 0
-3.136127 0.964962 49.232756 119 119 119 0
-3.016925 0.965416 49.255912 119 119 119 0
-2.893081 0.964360 49.202049 119 119 119 0
-2.772876 0.964479 49.208101 119 119 119 0
-2.651909 0.964331 49.200546 117 117 117 0
-2.531382 0.964336 49.200820 117 117 117 0
