ply
format ascii 1.0
element vertex 1130
property float x
property float y
property float z
property uchar red
property uchar green
property uchar blue
property uchar alpha
end_header
-5.336647 0.718395 41.888910 145 145 145 0
-5.227439 0.717492 41.836245 143 143 143 0
-5.119650 0.716751 41.793061 142 142 142 0
-5.017753 0.716822 41.797189 136 136 136 0
-4.914055 0.716633 41.786184 132 132 132 0
-4.808688 0.716188 41.760206 135 135 135 0
-4.712611 0.717136 41.815537 130 130 130 0
-4.612196 0.717453 41.833978 119 119 119 0
-4.516058 0.718464 41.892931 113 113 113 0
-4.420757 0.719658 41.962575 118 118 118 0
-4.326401 0.721067 42.044717 118 118 118 0
-4.227926 0.721841 42.089855 121 121 121 0
-4.134909 0.723609 42.192944 128 128 128 0
-4.036524 0.724504 42.245154 144 144 144 0
-3.931645 0.724250 42.230343 142 142 142 0
-3.832415 0.725051 42.277052 129 129 129 0
-3.732870 0.725836 42.322792 122 122 122 0
-3.625687 0.725137 42.282068 117 117 117 0
-3.531719 0.727119 42.397585 121 121 121 0
-3.437039 0.729069 42.511305 126 126 126 0
-3.337837 0.730152 42.574446 129 129 129 0
-3.233524 0.730151 42.574376 132 132 132 0
-3.130025 0.730339 42.585372 133 133 133 0
-3.031379 0.731712 42.665430 136 136 136 0
-2.922606 0.730652 42.603590 137 137 137 0
-2.819780 0.731054 42.627063 139 139 139 0
-2.719385 0.732142 42.690499 139 139 139 0
-2.613203 0.731697 42.664532 135 135 135 0
-2.509542 0.731950 42.679289 122 122 122 0
-2.181796 0.664025 38.718648 107 107 107 0
-2.268615 0.721832 42.089326 95 95 95 0
-2.200645 0.733548 42.772503 78 78 78 0
-2.129033 0.745162 43.449655 102 102 102 0
-2.032887 0.748958 43.671039 140 140 140 0
-1.919882 0.746621 43.534750 149 149 149 0
-1.815320 0.747485 43.585113 150 150 150 0
-1.707729 0.747132 43.564519 150 150 150 0
-1.598728 0.746073 43.502812 150 150 150 0
-1.493243 0.746621 43.534781 148 148 148 0
-1.385785 0.746192 43.509734 148 148 148 0
-1.277249 0.745062 43.443828 142 142 142 0
-1.172408 0.746078 43.503070 127 127 127 0
-1.066918 0.746842 43.547666 123 123 123 0
-0.959545 0.746313 43.516780 127 127 127 0
-0.853325 0.746659 43.536981 122 122 122 0
-0.750594 0.750594 43.766394 130 130 130 0
-0.644675 0.752120 43.855419 142 142 142 0
-0.537529 0.752541 43.879919 146 146 146 0
-0.429820 0.752184 43.859153 150 150 150 0
-0.322156 0.751698 43.830790 146 146 146 0
-0.214513 0.750796 43.778190 146 146 146 0
-0.107346 0.751424 43.814796 144 144 144 0
0.000000 0.752355 43.869087 143 143 143 0
0.107325 0.751276 43.806176 140 140 140 0
0.214884 0.752093 43.853848 135 135 135 0
0.322465 0.752418 43.872773 132 132 132 0
0.430442 0.753274 43.922663 132 132 132 0
0.539095 0.754733 44.007771 133 133 133 0
0.647089 0.754938 44.019685 134 134 134 0
0.755513 0.755513 44.053222 126 126 126 0
0.864918 0.756803 44.128462 112 112 112 0
0.866866 0.674229 39.313628 105 105 105 0
0.966581 0.676606 39.452268 103 103 103 0
1.066329 0.678573 39.566956 108 108 108 0
1.165006 0.679587 39.626048 107 107 107 0
1.259886 0.678400 39.556873 121 121 121 0
1.552232 0.776116 45.254579 140 140 140 0
1.663219 0.776169 45.257652 143 143 143 0
1.777614 0.777706 45.347295 148 148 148 0
1.891921 0.779026 45.424270 149 149 149 0
1.997150 0.776669 45.286847 147 147 147 0
2.105657 0.775768 45.234310 148 148 148 0
2.213058 0.774570 45.164450 146 146 146 0
2.319064 0.773021 45.074139 146 146 146 0
2.425069 0.771613 44.992002 146 146 146 0
2.534807 0.771463 44.983267 148 148 148 0
2.644209 0.771228 44.969534 147 147 147 0
2.752048 0.770573 44.931390 146 146 146 0
2.858878 0.769698 44.880340 148 148 148 0
2.966288 0.769038 44.841843 145 145 145 0
3.076661 0.769165 44.849286 144 144 144 0
3.181255 0.767889 44.774879 146 146 146 0
3.288946 0.767421 44.747559 145 145 145 0
3.402047 0.768204 44.793248 145 145 145 0
3.507188 0.767197 44.734535 145 145 145 0
3.612175 0.766219 44.677487 144 144 144 0
3.727056 0.767335 44.742571 130 130 130 0
3.841321 0.768264 44.796746 102 102 102 0
3.952286 0.768500 44.810496 93 93 93 0
4.088417 0.773484 45.101125 112 112 112 0
4.205472 0.774692 45.171561 119 119 119 0
4.329926 0.777166 45.315810 109 109 109 0
4.420369 0.773565 45.105803 84 84 84 0
4.556474 0.777935 45.360618 100 100 100 0
4.719865 0.786644 45.868469 109 109 109 0
4.848403 0.789275 46.021865 118 118 118 0
4.980525 0.792356 46.201529 123 123 123 0
5.107594 0.794515 46.327384 128 128 128 0
5.221009 0.794501 46.326615 112 112 112 0
7.141466 0.892683 52.051499 80 80 80 0
7.458694 0.900187 52.489048 80 80 80 0
7.654773 0.908193 52.955881 82 82 82 0
7.861920 0.917224 53.482449 81 81 81 0
8.022233 0.920584 53.678375 80 80 80 0
8.153849 0.920596 53.679060 81 81 81 0
8.349617 0.927735 54.095349 83 83 83 0
8.584451 0.938924 54.747773 82 82 82 0
8.707784 0.937761 54.679965 83 83 83 0
8.893446 0.943244 54.999668 85 85 85 0
9.027180 0.943138 54.993480 86 86 86 0
9.161956 0.943143 54.993734 86 86 86 0
-8.239341 0.823934 42.037454 136 136 136 0
-8.141166 0.824422 42.062343 140 140 140 0
-8.048131 0.825449 42.114762 138 138 138 0
-7.942646 0.825210 42.102551 136 136 136 0
-7.855044 0.826847 42.186057 138 138 138 0
-7.744305 0.826059 42.145880 136 136 136 0
-7.655048 0.827573 42.223098 136 136 136 0
-7.558996 0.828383 42.264444 135 135 135 0
-7.465435 0.829493 42.321062 140 140 140 0
-7.363552 0.829696 42.331429 140 140 140 0
-7.259884 0.829701 42.331687 141 141 141 0
-7.171908 0.831526 42.424775 138 138 138 0
-7.070541 0.831828 42.440224 139 139 139 0
-6.970463 0.832294 42.463982 130 130 130 0
-6.858269 0.831305 42.413539 130 130 130 0
-6.761735 0.832214 42.459873 132 132 132 0
-6.684402 0.835550 42.630117 147 147 147 0
-6.611456 0.839550 42.834182 159 159 159 0
-6.508630 0.839823 42.848125 158 158 158 0
-6.396597 0.838898 42.800916 151 151 151 0
-6.256260 0.834168 42.559592 149 149 149 0
-6.141555 0.832753 42.487409 152 152 152 0
-6.020125 0.830362 42.365410 151 151 151 0
-5.895337 0.827416 42.215089 147 147 147 0
-5.779267 0.825610 42.122934 149 149 149 0
-5.664846 0.823978 42.039673 148 148 148 0
-5.548541 0.822006 41.939085 149 149 149 0
-5.437252 0.820717 41.873332 146 146 146 0
-5.330368 0.820057 41.839620 146 146 146 0
-5.218733 0.818625 41.766574 145 145 145 0
-5.112084 0.817933 41.731299 141 141 141 0
-5.010929 0.818111 41.740346 141 141 141 0
-4.903452 0.817242 41.696021 138 138 138 0
-4.798217 0.816718 41.669278 134 134 134 0
-4.706758 0.818567 41.763603 125 125 125 0
-4.605242 0.818710 41.770902 119 119 119 0
-4.512084 0.820379 41.856066 118 118 118 0
-4.418255 0.822001 41.938826 115 115 115 0
-4.323761 0.823574 42.019059 119 119 119 0
-4.227406 0.824860 42.084681 116 116 116 0
-4.132281 0.826456 42.166128 127 127 127 0
-4.033931 0.827473 42.218010 143 143 143 0
-3.929516 0.827267 42.207475 144 144 144 0
-3.829143 0.827923 42.240964 135 135 135 0
-3.728906 0.828646 42.277841 129 129 129 0
-3.625763 0.828746 42.282956 124 124 124 0
-3.527761 0.830061 42.350072 124 124 124 0
-3.430693 0.831683 42.432813 126 126 126 0
-3.329622 0.832406 42.469673 129 129 129 0
-3.224289 0.832075 42.452785 130 130 130 0
-3.124230 0.833128 42.506526 132 132 132 0
-3.024155 0.834250 42.563755 136 136 136 0
-2.919033 0.834009 42.551505 136 136 136 0
-2.815500 0.834222 42.562361 136 136 136 0
-2.715291 0.835474 42.626227 134 134 134 0
-2.611894 0.835806 42.643166 129 129 129 0
-2.509392 0.836464 42.676728 115 115 115 0
-2.183859 0.759603 38.755268 103 103 103 0
-2.066788 0.751559 38.344863 95 95 95 0
-2.135053 0.854021 43.572503 98 98 98 0
-2.031534 0.855383 43.641977 139 139 139 0
-1.921230 0.853880 43.565314 144 144 144 0
-1.814829 0.854037 43.573315 146 146 146 0
-1.706819 0.853409 43.541300 149 149 149 0
-1.597276 0.851881 43.463295 148 148 148 0
-1.492957 0.853118 43.526448 149 149 149 0
-1.385507 0.852620 43.501018 146 146 146 0
-1.276612 0.851075 43.422174 138 138 138 0
-1.171768 0.852195 43.479336 126 126 126 0
-1.068195 0.854556 43.599777 120 120 120 0
-0.961420 0.854595 43.601801 120 120 120 0
-0.853129 0.853129 43.527014 123 123 123 0
-0.751385 0.858726 43.812549 140 140 140 0
-0.645381 0.860509 43.903501 150 150 150 0
-0.536864 0.858982 43.825625 150 150 150 0
-0.429505 0.859009 43.827006 147 147 147 0
-0.321946 0.858523 43.802218 146 146 146 0
-0.214523 0.858091 43.780160 144 144 144 0
-0.107306 0.858449 43.798413 146 146 146 0
0.000000 0.859435 43.848744 139 139 139 0
0.107314 0.858510 43.801513 137 137 137 0
0.214912 0.859649 43.859651 135 135 135 0
0.322695 0.860519 43.904029 135 135 135 0
0.430352 0.860704 43.913449 136 136 136 0
0.538480 0.861567 43.957511 135 135 135 0
0.646572 0.862096 43.984485 132 132 132 0
0.754073 0.861798 43.969279 127 127 127 0
0.767174 0.767174 39.141512 112 112 112 0
0.864651 0.768579 39.213192 106 106 106 0
0.962287 0.769830 39.277019 106 106 106 0
1.058283 0.769661 39.268400 111 111 111 0
1.165018 0.776679 39.626478 109 109 109 0
1.418707 0.873051 44.543394 115 115 115 0
1.549444 0.885397 45.173296 140 140 140 0
1.664498 0.887732 45.292459 145 145 145 0
1.775755 0.887878 45.299884 154 154 154 0
1.889658 0.889251 45.369946 149 149 149 0
1.997442 0.887752 45.293471 150 150 150 0
2.103367 0.885628 45.185118 148 148 148 0
2.211108 0.884443 45.124650 147 147 147 0
2.319674 0.883685 45.085982 148 148 148 0
2.428411 0.883058 45.053998 148 148 148 0
2.532796 0.880972 44.947570 145 145 145 0
2.642137 0.880712 44.934311 146 146 146 0
2.752517 0.880805 44.939052 149 149 149 0
2.855593 0.878644 44.828773 144 144 144 0
2.963609 0.878107 44.801352 143 143 143 0
3.071682 0.877623 44.776708 143 143 143 0
3.178944 0.876950 44.742346 144 144 144 0
3.287961 0.876790 44.734168 144 144 144 0
3.397947 0.876890 44.739264 144 144 144 0
3.502530 0.875632 44.675124 144 144 144 0
3.612814 0.875834 44.685392 139 139 139 0
3.726197 0.876752 44.732254 124 124 124 0
3.839393 0.877576 44.774262 96 96 96 0
3.961958 0.880435 44.920162 99 99 99 0
4.091199 0.884584 45.131815 119 119 119 0
4.202823 0.884805 45.143107 120 120 120 0
4.321351 0.886431 45.226070 110 110 110 0
4.436243 0.887249 45.267789 88 88 88 0
4.566006 0.890928 45.455512 90 90 90 0
4.709819 0.897108 45.770838 100 100 100 0
4.838843 0.900250 45.931113 110 110 110 0
4.976339 0.904789 46.162699 121 121 121 0
5.100057 0.906677 46.259020 121 121 121 0
5.227562 0.909141 46.384753 104 104 104 0
7.566705 1.043683 53.249154 83 83 83 0
7.750370 1.050898 53.617226 83 83 83 0
7.914195 1.055226 53.838060 84 84 84 0
8.156261 1.069674 54.575184 82 82 82 0
8.269266 1.067002 54.438881 82 82 82 0
8.464739 1.074887 54.841197 82 82 82 0
8.606800 1.075850 54.890309 85 85 85 0
8.757799 1.077883 54.994028 85 85 85 0
8.892091 1.077829 54.991288 89 89 89 0
9.026252 1.077761 54.987826 89 89 89 0
-8.229889 0.925863 41.989232 138 138 138 0
-8.129523 0.926148 42.002185 138 138 138 0
-8.026710 0.926159 42.002670 134 134 134 0
-7.930585 0.926951 42.038614 135 135 135 0
-7.835982 0.927945 42.083685 132 132 132 0
-7.734686 0.928162 42.093531 134 134 134 0
-7.642392 0.929480 42.153294 135 135 135 0
-7.543788 0.930056 42.179414 134 134 134 0
-7.450725 0.931341 42.237668 137 137 137 0
-7.349228 0.931592 42.249083 142 142 142 0
-7.249896 0.932129 42.273446 136 136 136 0
-7.155268 0.933296 42.326338 141 141 141 0
-7.063725 0.934905 42.399312 134 134 134 0
-6.947049 0.933186 42.321347 133 133 133 0
-6.853863 0.934618 42.386289 129 129 129 0
-6.756472 0.935511 42.426825 130 130 130 0
-6.687379 0.940413 42.649103 142 142 142 0
-6.600480 0.942926 42.763073 158 158 158 0
-6.485234 0.941405 42.694103 153 153 153 0
-6.380708 0.941416 42.694601 147 147 147 0
-6.245453 0.936818 42.486073 149 149 149 0
-6.136994 0.936152 42.455853 151 151 151 0
-6.018274 0.933870 42.352387 155 155 155 0
-5.900479 0.931655 42.251908 149 149 149 0
-5.785367 0.929791 42.167396 145 145 145 0
-5.664267 0.926880 42.035375 149 149 149 0
-5.549254 0.924876 41.944474 151 151 151 0
-5.435895 0.923076 41.862879 145 145 145 0
-5.325326 0.921691 41.800050 150 150 150 0
-5.209991 0.919410 41.696607 143 143 143 0
-5.105940 0.919069 41.681141 142 142 142 0
-5.003705 0.919048 41.680177 139 139 139 0
-4.895397 0.917887 41.627525 138 138 138 0
-4.792671 0.917746 41.621115 133 133 133 0
-4.702936 0.920140 41.729693 124 124 124 0
-4.602516 0.920503 41.746175 120 120 120 0
-4.501820 0.920827 41.760858 116 116 116 0
-4.410896 0.923211 41.868973 115 115 115 0
-4.321650 0.926068 41.998544 117 117 117 0
-4.223539 0.927118 42.046181 115 115 115 0
-4.127356 0.928655 42.115876 124 124 124 0
-4.030537 0.930124 42.182486 140 140 140 0
-3.928817 0.930509 42.199973 141 141 141 0
-3.827682 0.931058 42.224840 140 140 140 0
-3.726117 0.931529 42.246221 134 134 134 0
-3.621396 0.931216 42.232027 126 126 126 0
-3.521200 0.932082 42.271305 126 126 126 0
-3.422347 0.933367 42.329583 123 123 123 0
-3.321122 0.934066 42.361254 129 129 129 0
-3.219689 0.934748 42.392221 128 128 128 0
-3.122340 0.936702 42.480821 129 129 129 0
-3.019239 0.937005 42.494561 131 131 131 0
-2.915742 0.937203 42.503527 128 128 128 0
-2.815008 0.938336 42.554915 128 128 128 0
-2.715066 0.939830 42.622698 129 129 129 0
-2.610560 0.939802 42.621395 123 123 123 0
-2.513450 0.942544 42.745741 112 112 112 0
-2.181796 0.853746 38.718648 97 97 97 0
-2.292889 0.938000 42.539691 75 75 75 0
-2.131355 0.959110 43.497035 86 86 86 0
-2.033315 0.963149 43.680235 127 127 127 0
-1.920771 0.960385 43.554890 143 143 143 0
-1.814878 0.960818 43.574508 151 151 151 0
-1.705903 0.959570 43.517927 146 146 146 0
-1.596719 0.958031 43.448124 147 147 147 0
-1.491892 0.959073 43.495395 149 149 149 0
-1.385277 0.959038 43.493771 144 144 144 0
-1.276030 0.957022 43.402372 138 138 138 0
-1.172118 0.959006 43.492337 121 121 121 0
-1.066767 0.960090 43.541496 119 119 119 0
-0.960081 0.960081 43.541097 124 124 124 0
-0.852967 0.959588 43.518744 118 118 118 0
-0.750843 0.965369 43.780913 140 140 140 0
-0.644872 0.967308 43.868860 147 147 147 0
-0.536218 0.965192 43.772881 142 142 142 0
-0.429359 0.966057 43.812119 144 144 144 0
-0.321807 0.965422 43.783308 143 143 143 0
-0.214266 0.964196 43.727716 142 142 142 0
-0.107234 0.965108 43.769071 141 141 141 0
0.000000 0.965859 43.803149 136 136 136 0
0.107216 0.964946 43.761728 135 135 135 0
0.214468 0.965104 43.768901 130 130 130 0
0.322354 0.967063 43.857743 130 130 130 0
0.430044 0.967599 43.882030 132 132 132 0
0.537213 0.966983 43.854126 133 133 133 0
0.645521 0.968282 43.913017 130 130 130 0
0.753821 0.969199 43.954581 121 121 121 0
0.767436 0.863365 39.154872 111 111 111 0
0.863005 0.863005 39.138537 102 102 102 0
0.965128 0.868615 39.392960 100 100 100 0
1.073524 0.878338 39.833910 102 102 102 0
1.156700 0.867525 39.343552 112 112 112 0
1.421033 0.983792 44.616410 112 112 112 0
1.548141 0.995234 45.135309 136 136 136 0
1.664740 0.998844 45.299044 150 150 150 0
1.775933 0.998962 45.304407 144 144 144 0
1.889192 1.000160 45.358752 149 149 149 0
1.998219 0.999110 45.311096 150 150 150 0
2.105010 0.997110 45.220399 146 146 146 0
2.212286 0.995529 45.148689 150 150 150 0
2.318096 0.993470 45.055322 145 145 145 0
2.426012 0.992459 45.009493 148 148 148 0
2.534738 0.991854 44.982048 151 151 151 0
2.640303 0.990114 44.903111 147 147 147 0
2.750627 0.990226 44.908193 142 142 142 0
2.853513 0.987754 44.796115 144 144 144 0
2.964002 0.988001 44.807289 144 144 144 0
3.073602 0.987944 44.804698 140 140 140 0
3.177683 0.986178 44.724606 141 141 141 0
3.286578 0.985973 44.715344 142 142 142 0
3.398757 0.986736 44.749930 141 141 141 0
3.502296 0.985021 44.672139 141 141 141 0
3.608044 0.984012 44.626397 136 136 136 0
3.728708 0.987011 44.762405 115 115 115 0
3.836238 0.986461 44.737469 95 95 95 0
3.969689 0.992422 45.007812 111 111 111 0
4.091701 0.995279 45.137353 120 120 120 0
4.204042 0.995694 45.156196 121 121 121 0
4.316130 0.996030 45.171428 111 111 111 0
4.435298 0.997942 45.258139 89 89 89 0
4.548673 0.998489 45.282959 91 91 91 0
4.684472 1.003815 45.524511 99 99 99 0
4.832439 1.011441 45.870328 105 105 105 0
4.969238 1.016435 46.096830 116 116 116 0
5.099664 1.019933 46.255453 120 120 120 0
5.227998 1.022869 46.388622 101 101 101 0
7.885412 1.202859 54.551448 82 82 82 0
7.975155 1.196273 54.252758 81 81 81 0
8.202231 1.210165 54.882779 84 84 84 0
8.353754 1.212642 54.995089 86 86 86 0
8.488378 1.212625 54.994348 86 86 86 0
8.622567 1.212548 54.990860 90 90 90 0
8.756753 1.212473 54.987458 92 92 92 0
8.890981 1.212406 54.984419 90 90 90 0
9.025509 1.212382 54.983302 78 78 78 0
9.816003 1.210192 54.883997 101 101 101 0
9.949371 1.210059 54.877945 100 100 100 0
-8.216434 1.027054 41.920580 138 138 138 0
-8.112240 1.026866 41.912891 135 135 135 0
-8.015537 1.027633 41.944200 135 135 135 0
-7.914774 1.027893 41.954806 135 135 135 0
-7.827347 1.029914 42.037310 133 133 133 0
-7.729237 1.030565 42.063874 132 132 132 0
-7.636652 1.031980 42.121630 134 134 134 0
-7.531662 1.031735 42.111615 135 135 135 0
-7.439087 1.033207 42.171697 139 139 139 0
-7.344514 1.034439 42.221985 143 143 143 0
-7.244798 1.034971 42.243719 136 136 136 0
-7.153765 1.036777 42.317449 136 136 136 0
-7.045264 1.036068 42.288497 138 138 138 0
-6.956610 1.038300 42.379594 129 129 129 0
-6.834876 1.035587 42.268867 132 132 132 0
-6.752678 1.038874 42.403003 132 132 132 0
-6.686121 1.044706 42.641077 144 144 144 0
-6.591441 1.046261 42.704510 155 155 155 0
-6.490342 1.046829 42.727729 152 152 152 0
-6.366018 1.043609 42.596305 150 150 150 0
-6.233268 1.038878 42.403185 148 148 148 0
-6.127512 1.038561 42.390261 149 149 149 0
-6.017502 1.037500 42.346952 151 151 151 0
-5.908638 1.036603 42.310330 152 152 152 0
-5.790712 1.034056 42.206357 151 151 151 0
-5.670773 1.031050 42.083656 149 149 149 0
-5.553487 1.028424 41.976473 147 147 147 0
-5.435951 1.025651 41.863311 149 149 149 0
-5.321567 1.023378 41.770538 146 146 146 0
-5.205601 1.020706 41.661472 145 145 145 0
-5.100317 1.020063 41.635242 143 143 143 0
-4.996357 1.019665 41.618970 142 142 142 0
-4.890751 1.018907 41.588021 139 139 139 0
-4.789913 1.019130 41.597158 134 134 134 0
-4.697855 1.021273 41.684602 125 125 125 0
-4.596925 1.021539 41.695465 118 118 118 0
-4.502917 1.023390 41.771032 119 119 119 0
-4.412520 1.026168 41.884388 117 117 117 0
-4.312366 1.026754 41.908323 118 118 118 0
-4.217959 1.028771 41.990634 117 117 117 0
-4.123611 1.030903 42.077665 121 121 121 0
-4.026079 1.032328 42.135839 131 131 131 0
-3.926265 1.033228 42.172560 140 140 140 0
-3.825831 1.034008 42.204426 140 140 140 0
-3.723908 1.034419 42.221176 137 137 137 0
-3.619814 1.034232 42.213569 133 133 133 0
-3.519119 1.035035 42.246332 132 132 132 0
-3.421469 1.036809 42.318731 129 129 129 0
-3.315387 1.036058 42.288097 129 129 129 0
-3.214612 1.036972 42.325373 130 130 130 0
-3.117363 1.039121 42.413103 129 129 129 0
-3.014634 1.039529 42.429749 128 128 128 0
-2.911063 1.039665 42.435320 127 127 127 0
-2.811455 1.041280 42.501205 122 122 122 0
-2.714325 1.043971 42.611063 120 120 120 0
-2.611931 1.044772 42.643774 115 115 115 0
-2.513571 1.047321 42.747800 103 103 103 0
-2.161724 0.939880 38.362453 88 88 88 0
-2.034095 1.070576 43.696987 124 124 124 0
-1.920093 1.066718 43.539526 140 140 140 0
-1.813429 1.066723 43.539715 147 147 147 0
-1.704537 1.065336 43.483095 145 145 145 0
-1.595259 1.063506 43.408396 146 146 146 0
-1.491071 1.065051 43.471471 147 147 147 0
-1.384029 1.064638 43.454592 145 145 145 0
-1.275374 1.062811 43.380056 138 138 138 0
-1.170550 1.064137 43.434154 127 127 127 0
-1.066125 1.066125 43.515293 121 121 121 0
-0.959036 1.065596 43.493717 121 121 121 0
-0.853354 1.066692 43.538455 118 118 118 0
-0.750300 1.071857 43.749249 132 132 132 0
-0.643514 1.072524 43.776472 145 145 145 0
-0.535821 1.071642 43.740469 143 143 143 0
-0.429037 1.072593 43.779300 144 144 144 0
-0.321635 1.072116 43.759855 140 140 140 0
-0.214218 1.071091 43.718014 140 140 140 0
-0.107086 1.070857 43.708440 139 139 139 0
0.000000 1.072402 43.771509 136 136 136 0
0.107029 1.070288 43.685216 133 133 133 0
0.214374 1.071868 43.749723 131 131 131 0
0.321837 1.072788 43.787279 130 130 130 0
0.429223 1.073057 43.798228 132 132 132 0
0.536384 1.072767 43.786415 129 129 129 0
0.645031 1.075051 43.879629 124 124 124 0
0.753246 1.076066 43.921077 124 124 124 0
0.861480 1.076850 43.953062 113 113 113 0
0.865944 0.962160 39.271834 104 104 104 0
0.965137 0.965137 39.393344 102 102 102 0
1.066501 0.969546 39.573313 103 103 103 0
1.152877 0.960731 39.213502 110 110 110 0
1.252486 0.963451 39.324519 114 114 114 0
1.539427 1.099591 44.881266 134 134 134 0
1.662823 1.108549 45.246887 146 146 146 0
1.772382 1.107739 45.213830 144 144 144 0
1.888322 1.110777 45.337853 148 148 148 0
1.995654 1.108697 45.252923 146 146 146 0
2.102979 1.106831 45.176778 147 147 147 0
2.208771 1.104385 45.076957 149 149 149 0
2.316661 1.103172 45.027430 146 146 146 0
2.423726 1.101694 44.967091 145 145 145 0
2.530935 1.100406 44.914550 147 147 147 0
2.640510 1.100213 44.906640 145 145 145 0
2.749219 1.099687 44.885202 143 143 143 0
2.849164 1.095832 44.727849 143 143 143 0
2.960281 1.096400 44.751028 141 141 141 0
3.070166 1.096488 44.754603 140 140 140 0
3.174095 1.094516 44.674110 142 142 142 0
3.284080 1.094693 44.681358 143 143 143 0
3.392855 1.094469 44.672223 140 140 140 0
3.496992 1.092810 44.604493 138 138 138 0
3.606584 1.092904 44.608341 131 131 131 0
3.726302 1.095971 44.733512 112 112 112 0
3.834731 1.095637 44.719891 93 93 93 0
3.960670 1.100186 44.905556 114 114 114 0
4.087408 1.104705 45.090000 122 122 122 0
4.195032 1.103956 45.059420 121 121 121 0
4.314640 1.106318 45.155833 110 110 110 0
4.434981 1.108745 45.254908 88 88 88 0
4.531931 1.105349 45.116291 86 86 86 0
4.696520 1.118219 45.641591 92 92 92 0
4.825579 1.122228 45.805210 104 104 104 0
4.959456 1.127149 46.006086 111 111 111 0
5.093206 1.131824 46.196878 113 113 113 0
5.229057 1.136752 46.398023 89 89 89 0
8.084762 1.347460 54.998378 83 83 83 0
8.218547 1.347303 54.991953 87 87 87 0
8.352779 1.347222 54.988669 89 89 89 0
8.487563 1.347232 54.989073 91 91 91 0
8.621270 1.347073 54.982592 90 90 90 0
8.756107 1.347093 54.983401 90 90 90 0
9.547106 1.344663 54.884198 80 80 80 0
9.681386 1.344637 54.883140 111 111 111 0
9.815483 1.344587 54.881093 118 118 118 0
9.949251 1.344493 54.877280 103 103 103 0
-8.196412 1.127007 41.818429 138 138 138 0
-8.100348 1.127897 41.851449 136 136 136 0
-8.003785 1.128739 41.882706 137 137 137 0
-7.904747 1.129250 41.901656 134 134 134 0
-7.808344 1.130155 41.935252 132 132 132 0
-7.720309 1.132312 42.015285 131 131 131 0
-7.618652 1.132502 42.022349 128 128 128 0
-7.529367 1.134562 42.098782 132 132 132 0
-7.431368 1.135348 42.127938 136 136 136 0
-7.333750 1.136215 42.160106 141 141 141 0
-7.229644 1.136087 42.155361 136 136 136 0
-7.146378 1.139278 42.273752 137 137 137 0
-7.035985 1.138174 42.232801 130 130 130 0
-6.936752 1.138870 42.258617 128 128 128 0
-6.830426 1.138404 42.241349 125 125 125 0
-6.752726 1.142769 42.403300 132 132 132 0
-6.683420 1.148713 42.623851 152 152 152 0
-6.574175 1.147872 42.592645 152 152 152 0
-6.468571 1.147650 42.584405 149 149 149 0
-6.353133 1.145647 42.510089 154 154 154 0
-6.229802 1.142130 42.379607 148 148 148 0
-6.124435 1.141844 42.368975 152 152 152 0
-6.008772 1.139595 42.285516 152 152 152 0
-5.904672 1.139498 42.281932 151 151 151 0
-5.798046 1.138902 42.259809 152 152 152 0
-5.676132 1.135226 42.123432 145 145 145 0
-5.551040 1.130767 41.957975 145 145 145 0
-5.433873 1.127785 41.847310 144 144 144 0
-5.318619 1.125093 41.747404 145 145 145 0
-5.200412 1.121657 41.619944 147 147 147 0
-5.096141 1.121151 41.601150 144 144 144 0
-4.993151 1.120911 41.592263 142 142 142 0
-4.885248 1.119536 41.541228 138 138 138 0
-4.785056 1.119907 41.554976 133 133 133 0
-4.694823 1.122675 41.657699 125 125 125 0
-4.595069 1.123239 41.678630 122 122 122 0
-4.497850 1.124463 41.724026 117 117 117 0
-4.404199 1.126656 41.805400 118 118 118 0
-4.309154 1.128588 41.877104 118 118 118 0
-4.212049 1.130062 41.931796 115 115 115 0
-4.121641 1.133451 42.057559 120 120 120 0
-4.021325 1.134220 42.086086 129 129 129 0
-3.923234 1.135673 42.139995 135 135 135 0
-3.822566 1.136439 42.168405 137 137 137 0
-3.723772 1.137819 42.219638 139 139 139 0
-3.617030 1.136781 42.181111 138 138 138 0
-3.517689 1.138076 42.229158 135 135 135 0
-3.417210 1.139070 42.266053 133 133 133 0
-3.314375 1.139316 42.275189 130 130 130 0
-3.210982 1.139381 42.277576 130 130 130 0
-3.113280 1.141536 42.357552 129 129 129 0
-3.011460 1.142278 42.385076 125 125 125 0
-2.908040 1.142444 42.391252 122 122 122 0
-2.813259 1.146143 42.528480 117 117 117 0
-2.713415 1.147983 42.596784 117 117 117 0
-2.614679 1.150459 42.688632 113 113 113 0
-2.513213 1.151889 42.741719 99 99 99 0
-2.351295 1.124532 41.726613 82 82 82 0
-2.036695 1.179139 43.752856 112 112 112 0
-1.919647 1.173118 43.529417 137 137 137 0
-1.813194 1.173243 43.534060 144 144 144 0
-1.703451 1.171122 43.455378 148 148 148 0
-1.594964 1.169640 43.400371 148 148 148 0
-1.489971 1.170691 43.439384 147 147 147 0
-1.383471 1.170630 43.437089 144 144 144 0
-1.274372 1.168174 43.345982 143 143 143 0
-1.171161 1.171161 43.456802 131 131 131 0
-1.064970 1.171467 43.468172 120 120 120 0
-0.958668 1.171705 43.476989 117 117 117 0
-0.853419 1.173451 43.541792 123 123 123 0
-0.748774 1.176645 43.660302 131 131 131 0
-0.642701 1.178286 43.721186 143 143 143 0
-0.534952 1.176895 43.669583 141 141 141 0
-0.428744 1.179046 43.749390 140 140 140 0
-0.321235 1.177861 43.705422 142 142 142 0
-0.213955 1.176751 43.664242 140 140 140 0
-0.106994 1.176932 43.670960 136 136 136 0
0.000000 1.176598 43.658570 133 133 133 0
0.106902 1.175923 43.633504 131 131 131 0
0.213937 1.176653 43.660592 133 133 133 0
0.321620 1.179273 43.757817 131 131 131 0
0.428385 1.178059 43.712773 132 132 132 0
0.535507 1.178116 43.714874 130 130 130 0
0.643536 1.179816 43.777951 124 124 124 0
0.750707 1.179683 43.773012 119 119 119 0
0.764637 1.051377 39.012117 113 113 113 0
0.858905 1.049773 38.952622 107 107 107 0
0.963536 1.059890 39.328006 103 103 103 0
1.064703 1.064703 39.506594 108 108 108 0
1.163159 1.066229 39.563221 109 109 109 0
1.251255 1.058754 39.285858 107 107 107 0
1.533718 1.205064 44.714799 121 121 121 0
1.660079 1.217392 45.172230 143 143 143 0
1.771383 1.217826 45.188342 147 147 147 0
1.884896 1.219638 45.255601 149 149 149 0
1.991306 1.216909 45.154321 148 148 148 0
2.099257 1.215360 45.096831 145 145 145 0
2.208570 1.214713 45.072853 143 143 143 0
2.315459 1.212859 45.004062 145 145 145 0
2.423510 1.211755 44.963082 145 145 145 0
2.530067 1.210032 44.899143 149 149 149 0
2.639042 1.209561 44.881670 148 148 148 0
2.748954 1.209540 44.880888 145 145 145 0
2.847701 1.204797 44.704882 145 145 145 0
2.956232 1.204391 44.689833 145 145 145 0
3.069693 1.205951 44.747705 144 144 144 0
3.172028 1.203183 44.645007 143 143 143 0
3.279374 1.202437 44.617335 141 141 141 0
3.392172 1.203674 44.663232 142 142 142 0
3.492200 1.200444 44.543373 140 140 140 0
3.607270 1.202423 44.616825 131 131 131 0
3.719890 1.203494 44.656540 111 111 111 0
3.835600 1.205474 44.730033 96 96 96 0
3.950837 1.207200 44.794072 108 108 108 0
4.078187 1.212434 44.988276 120 120 120 0
4.192717 1.213681 45.034553 122 122 122 0
4.308716 1.215279 45.093831 110 110 110 0
4.440145 1.221040 45.307603 87 87 87 0
4.553613 1.221701 45.332136 84 84 84 0
4.696399 1.230009 45.640417 91 91 91 0
4.828661 1.235239 45.834470 103 103 103 0
4.954836 1.238709 45.963229 112 112 112 0
5.088153 1.243771 46.151047 109 109 109 0
5.215474 1.247179 46.277500 85 85 85 0
8.217324 1.481813 54.983767 90 90 90 0
8.351437 1.481707 54.979837 96 96 96 0
8.486433 1.481758 54.981747 93 93 93 0
8.620717 1.481686 54.979064 85 85 85 0
9.412487 1.479105 54.883307 94 94 94 0
9.546422 1.479023 54.880265 117 117 117 0
9.681335 1.479093 54.882854 120 120 120 0
9.815501 1.479048 54.881192 119 119 119 0
9.949547 1.478987 54.878912 110 110 110 0
-8.179895 1.226984 41.734160 137 137 137 0
-8.089186 1.228737 41.793779 137 137 137 0
-7.988841 1.229053 41.804508 136 136 136 0
-7.892072 1.229933 41.834466 135 135 135 0
-7.796072 1.230959 41.869344 131 131 131 0
-7.704424 1.232708 41.928839 134 134 134 0
-7.608066 1.233740 41.963961 130 130 130 0
-7.515540 1.235431 42.021468 132 132 132 0
-7.429243 1.238207 42.115891 139 139 139 0
-7.320780 1.237315 42.085542 139 139 139 0
-7.221206 1.237921 42.106159 141 141 141 0
-7.130750 1.240130 42.181306 138 138 138 0
-7.033054 1.241127 42.215209 130 130 130 0
-6.924701 1.240245 42.185200 126 126 126 0
-6.828052 1.241464 42.226669 127 127 127 0
-6.754003 1.246893 42.411325 133 133 133 0
-6.678616 1.252240 42.593214 145 145 145 0
-6.570086 1.251445 42.566156 150 150 150 0
-6.462323 1.250772 42.543269 146 146 146 0
-6.334290 1.246090 42.384011 146 146 146 0
-6.220276 1.244055 42.314799 148 148 148 0
-6.112291 1.243178 42.284959 150 150 150 0
-6.004928 1.242399 42.258467 151 151 151 0
-5.899854 1.242075 42.247434 154 154 154 0
-5.797208 1.242259 42.253704 151 151 151 0
-5.677868 1.238808 42.136313 148 148 148 0
-5.556736 1.234830 42.001030 147 147 147 0
-5.439277 1.231534 41.888928 145 145 145 0
-5.319268 1.227523 41.752493 147 147 147 0
-5.196752 1.222765 41.590654 144 144 144 0
-5.092418 1.222180 41.570756 147 147 147 0
-4.989705 1.221969 41.563555 147 147 147 0
-4.882493 1.220623 41.517798 141 141 141 0
-4.782434 1.221047 41.532213 134 134 134 0
-4.690518 1.223613 41.619504 125 125 125 0
-4.587236 1.223263 41.607584 121 121 121 0
-4.492920 1.225342 41.678292 119 119 119 0
-4.402266 1.228539 41.787051 117 117 117 0
-4.305253 1.230072 41.839190 116 116 116 0
-4.207323 1.231412 41.884751 116 116 116 0
-4.111317 1.233395 41.952210 118 118 118 0
-4.015734 1.235611 42.027571 125 125 125 0
-3.920674 1.238107 42.112499 132 132 132 0
-3.819206 1.238662 42.131344 136 136 136 0
-3.721568 1.240523 42.194643 140 140 140 0
-3.616857 1.240065 42.179088 141 141 141 0
-3.515592 1.240797 42.203988 138 138 138 0
-3.414667 1.241697 42.234590 136 136 136 0
-3.311237 1.241714 42.235166 134 134 134 0
-3.208238 1.241899 42.241450 129 129 129 0
-3.111893 1.244757 42.338683 126 126 126 0
-3.010199 1.245600 42.367337 123 123 123 0
-2.906706 1.245731 42.371802 117 117 117 0
-2.810057 1.248914 42.480074 112 112 112 0
-2.716054 1.253564 42.638215 107 107 107 0
-2.617729 1.256510 42.738426 98 98 98 0
-2.268589 1.134294 38.581444 90 90 90 0
-2.036633 1.286295 43.751525 95 95 95 0
-1.922625 1.281750 43.596938 129 129 129 0
-1.813073 1.279816 43.531155 142 142 142 0
-1.703458 1.277594 43.455569 149 149 149 0
-1.594841 1.275873 43.397036 149 149 149 0
-1.489736 1.276917 43.432542 146 146 146 0
-1.382152 1.275833 43.395672 147 147 147 0
-1.273640 1.273640 43.321078 146 146 146 0
-1.169185 1.275475 43.383506 138 138 138 0
-1.064479 1.277375 43.448113 124 124 124 0
-0.955518 1.274023 43.334132 120 120 120 0
-0.852265 1.278397 43.482884 124 124 124 0
-0.747761 1.281876 43.601229 132 132 132 0
-0.641614 1.283228 43.647211 138 138 138 0
-0.535125 1.284301 43.683710 139 139 139 0
-0.428245 1.284734 43.698428 140 140 140 0
-0.320923 1.283692 43.663001 139 139 139 0
-0.213633 1.281800 43.598648 137 137 137 0
-0.106875 1.282506 43.622653 136 136 136 0
0.000000 1.282287 43.615218 135 135 135 0
0.106704 1.280452 43.552790 131 131 131 0
0.213783 1.282701 43.629272 130 130 130 0
0.320878 1.283512 43.656868 129 129 129 0
0.427738 1.283215 43.646757 129 129 129 0
0.534934 1.283842 43.668089 126 126 126 0
0.642007 1.284014 43.673958 124 124 124 0
0.750112 1.285906 43.738309 117 117 117 0
0.761552 1.142328 38.854685 109 109 109 0
0.859583 1.146111 38.983353 100 100 100 0
0.959005 1.150806 39.143077 101 101 101 0
1.063149 1.159799 39.448931 106 106 106 0
1.161190 1.161190 39.496263 110 110 110 0
1.246081 1.150229 39.123434 110 110 110 0
1.529494 1.310995 44.591662 118 118 118 0
1.657544 1.326035 45.103246 140 140 140 0
1.565813 1.174360 39.944210 147 147 147 0
1.881931 1.328422 45.184419 140 140 140 0
1.991893 1.327928 45.167633 144 144 144 0
2.097454 1.324708 45.058095 141 141 141 0
2.205931 1.323558 45.018993 145 145 145 0
2.313266 1.321866 44.961439 145 145 145 0
2.419654 1.319811 44.891545 143 143 143 0
2.529118 1.319540 44.882307 144 144 144 0
2.636718 1.318359 44.842137 141 141 141 0
2.746106 1.318131 44.834389 143 143 143 0
2.850489 1.315610 44.748650 145 145 145 0
2.957613 1.314495 44.710704 143 143 143 0
3.065189 1.313652 44.682055 147 147 147 0
3.167051 1.310504 44.574962 145 145 145 0
3.275989 1.310396 44.571285 145 145 145 0
3.391067 1.312671 44.648674 143 143 143 0
3.493406 1.310027 44.558749 141 141 141 0
3.601180 1.309520 44.541498 132 132 132 0
3.721561 1.313492 44.676607 112 112 112 0
3.832186 1.313892 44.690217 98 98 98 0
3.951881 1.317294 44.805905 102 102 102 0
4.074046 1.321312 44.942587 118 118 118 0
4.191420 1.323606 45.020620 119 119 119 0
4.306469 1.325067 45.070323 110 110 110 0
4.426065 1.327820 45.163932 88 88 88 0
4.546347 1.330638 45.259803 82 82 82 0
4.697342 1.342098 45.649580 94 94 94 0
4.826849 1.347028 45.817271 106 106 106 0
4.944830 1.348590 45.870412 110 110 110 0
5.080162 1.354710 46.078570 103 103 103 0
8.217032 1.616465 54.981816 88 88 88 0
8.351025 1.616327 54.977120 94 94 94 0
8.485106 1.616211 54.973155 88 88 88 0
9.278196 1.613599 54.884331 105 105 105 0
9.412326 1.613542 54.882369 120 120 120 0
9.546452 1.613485 54.880438 119 119 119 0
9.681314 1.613552 54.882734 118 118 118 0
9.815391 1.613489 54.880575 117 117 117 0
9.949598 1.613448 54.879192 112 112 112 0
-8.172658 1.328057 41.697236 135 135 135 0
-8.072136 1.328326 41.705687 135 135 135 0
-7.984886 1.330814 41.783809 136 136 136 0
-7.878467 1.330131 41.762351 134 134 134 0
-7.784261 1.331518 41.805914 131 131 131 0
-7.692454 1.333359 41.863698 128 128 128 0
-7.603163 1.335691 41.936916 130 130 130 0
-7.506570 1.336786 41.971314 132 132 132 0
-7.418829 1.339511 42.056856 135 135 135 0
-7.310482 1.338539 42.026344 139 139 139 0
-7.216743 1.340252 42.080137 139 139 139 0
-7.123017 1.342018 42.135563 137 137 137 0
-7.018353 1.341744 42.126969 129 129 129 0
-6.915810 1.341874 42.131036 124 124 124 0
-6.817543 1.342849 42.161675 129 129 129 0
-6.749532 1.349906 42.383247 133 133 133 0
-6.663037 1.353429 42.493857 149 149 149 0
-6.557419 1.353118 42.484088 149 149 149 0
-6.449539 1.352323 42.459108 147 147 147 0
-6.326785 1.348331 42.333792 149 149 149 0
-6.214413 1.346456 42.274921 148 148 148 0
-6.107678 1.345760 42.253046 147 147 147 0
-5.996809 1.344112 42.201329 151 151 151 0
-5.899625 1.345529 42.245796 151 151 151 0
-5.805006 1.347591 42.310536 150 150 150 0
-5.680611 1.342690 42.156671 147 147 147 0
-5.555310 1.337390 41.990251 146 146 146 0
-5.435672 1.333278 41.861167 147 147 147 0
-5.317544 1.329386 41.738964 146 146 146 0
-5.194157 1.324001 41.569886 147 147 147 0
-5.089889 1.323371 41.550113 147 147 147 0
-4.987835 1.323303 41.547982 148 148 148 0
-4.878974 1.321389 41.487874 145 145 145 0
-4.778784 1.321791 41.500510 136 136 136 0
-4.685346 1.324119 41.573607 128 128 128 0
-4.584068 1.324286 41.578849 123 123 123 0
-4.488027 1.326008 41.632907 117 117 117 0
-4.396428 1.329153 41.731636 117 117 117 0
-4.300899 1.331231 41.796877 115 115 115 0
-4.201400 1.332151 41.825787 114 114 114 0
-4.108599 1.335295 41.924476 116 116 116 0
-4.013100 1.337700 42.000000 121 121 121 0
-3.914352 1.339120 42.044593 130 130 130 0
-3.817562 1.341306 42.113203 134 134 134 0
-3.719134 1.343021 42.167052 140 140 140 0
-3.613849 1.342287 42.144009 140 140 140 0
-3.514208 1.343668 42.187369 140 140 140 0
-3.412907 1.344478 42.212823 138 138 138 0
-3.307698 1.343752 42.190030 135 135 135 0
-3.206132 1.344507 42.213714 130 130 130 0
-3.108893 1.347187 42.297857 126 126 126 0
-3.008872 1.348805 42.348662 121 121 121 0
-2.907184 1.349764 42.378778 114 114 114 0
-2.812130 1.353989 42.511419 109 109 109 0
-2.718311 1.359155 42.673640 100 100 100 0
-2.377616 1.236360 38.818220 93 93 93 0
-2.456404 1.330552 41.775577 85 85 85 0
-2.041398 1.396746 43.853882 83 83 83 0
-1.925714 1.390793 43.666984 125 125 125 0
-1.814602 1.387637 43.567874 139 139 139 0
-1.702945 1.383643 43.442486 146 146 146 0
-1.593895 1.381376 43.371288 149 149 149 0
-1.489164 1.382796 43.415873 151 151 151 0
-1.381851 1.381851 43.386215 150 150 150 0
-1.273438 1.379558 43.314234 146 146 146 0
-1.169100 1.381664 43.380336 144 144 144 0
-1.063398 1.382417 43.403988 133 133 133 0
-0.954738 1.379066 43.298772 118 118 118 0
-0.850873 1.382669 43.411887 120 120 120 0
-0.748058 1.389251 43.618552 134 134 134 0
-0.640708 1.388201 43.585600 138 138 138 0
-0.533860 1.388037 43.580429 139 139 139 0
-0.427458 1.389240 43.618202 138 138 138 0
-0.320400 1.388399 43.591790 137 137 137 0
-0.213284 1.386349 43.527430 137 137 137 0
-0.106732 1.387521 43.564244 137 137 137 0
0.000000 1.386204 43.522876 134 134 134 0
0.106510 1.384634 43.473607 132 132 132 0
0.213284 1.386345 43.527326 129 129 129 0
0.320264 1.387810 43.573325 131 131 131 0
0.426749 1.386934 43.545795 129 129 129 0
0.533478 1.387044 43.549257 124 124 124 0
0.641543 1.390010 43.642389 117 117 117 0
0.748828 1.390680 43.663417 112 112 112 0
0.762040 1.238315 38.879576 105 105 105 0
0.863860 1.247798 39.177336 99 99 99 0
0.961401 1.249821 39.240855 100 100 100 0
1.057981 1.250341 39.257181 109 109 109 0
1.160578 1.257293 39.475434 109 109 109 0
1.412184 1.412184 44.338596 107 107 107 0
1.343809 1.247822 39.178100 113 113 113 0
1.652824 1.432448 44.974816 134 134 134 0
1.768687 1.437058 45.119554 146 146 146 0
1.880572 1.438085 45.151792 146 146 146 0
1.991371 1.438212 45.155804 147 147 147 0
2.096132 1.434196 45.029696 143 143 143 0
2.204034 1.432622 44.980285 144 144 144 0
2.311995 1.431235 44.936731 145 145 145 0
2.416620 1.428003 44.835256 142 142 142 0
2.525356 1.427375 44.815552 142 142 142 0
2.635417 1.427518 44.820024 144 144 144 0
2.742765 1.426238 44.779830 146 146 146 0
2.846396 1.423198 44.684403 147 147 147 0
2.956744 1.423618 44.697570 147 147 147 0
3.065324 1.423186 44.684019 147 147 147 0
3.164455 1.418549 44.538428 148 148 148 0
3.275891 1.419553 44.569949 149 149 149 0
3.385819 1.419859 44.579575 148 148 148 0
3.490954 1.418200 44.527471 142 142 142 0
3.600431 1.418352 44.532238 134 134 134 0
3.716694 1.421089 44.618174 120 120 120 0
3.830798 1.422868 44.674035 105 105 105 0
3.945496 1.424762 44.733515 104 104 104 0
4.068268 1.429391 44.878852 112 112 112 0
4.183899 1.431334 44.939836 115 115 115 0
4.302997 1.434332 45.033980 110 110 110 0
4.422995 1.437473 45.132601 87 87 87 0
4.547224 1.441803 45.268531 85 85 85 0
4.696794 1.453770 45.644260 96 96 96 0
4.821471 1.457654 45.766221 108 108 108 0
4.940819 1.459787 45.833197 108 108 108 0
5.082286 1.468216 46.097831 97 97 97 0
8.350209 1.750850 54.971754 83 83 83 0
9.143592 1.748040 54.883508 110 110 110 0
9.277865 1.748004 54.882373 121 121 121 0
9.411955 1.747934 54.880203 121 121 121 0
9.546430 1.747938 54.880312 118 118 118 0
9.681265 1.748006 54.882454 118 118 118 0
9.815398 1.747948 54.880614 115 115 115 0
9.949556 1.747895 54.878963 118 118 118 0
10.082784 1.747683 54.872295 81 81 81 0
-8.157665 1.427591 41.620739 135 135 135 0
-8.068001 1.429772 41.684324 133 133 133 0
-7.970554 1.430612 41.708810 135 135 135 0
-7.864278 1.429869 41.687134 133 133 133 0
-7.775396 1.432310 41.758301 132 132 132 0
-7.684238 1.434391 41.818981 129 129 129 0
-7.591770 1.436281 41.874078 129 129 129 0
-7.503250 1.438979 41.952753 127 127 127 0
-7.401801 1.439239 41.960320 136 136 136 0
-7.309047 1.441221 42.018094 138 138 138 0
-7.207979 1.441596 42.029034 139 139 139 0
-7.112560 1.443128 42.073704 134 134 134 0
-7.009960 1.443227 42.076592 128 128 128 0
-6.906042 1.443054 42.071533 127 127 127 0
-6.810915 1.444739 42.120684 126 126 126 0
-6.751851 1.454245 42.397809 141 141 141 0
-6.664634 1.457889 42.504042 150 150 150 0
-6.544905 1.454423 42.403015 148 148 148 0
-6.439463 1.454072 42.392777 147 147 147 0
-6.312644 1.448803 42.239169 144 144 144 0
-6.201330 1.446977 42.185918 143 143 143 0
-6.101457 1.447803 42.210008 142 142 142 0
-5.989559 1.445756 42.150307 147 147 147 0
-5.891562 1.447050 42.188056 148 148 148 0
-5.795600 1.448900 42.241983 153 153 153 0
-5.684117 1.446866 42.182689 148 148 148 0
-5.561487 1.441867 42.036935 147 147 147 0
-5.436948 1.436175 41.870990 146 146 146 0
-5.316704 1.431420 41.732367 145 145 145 0
-5.194609 1.425971 41.573504 145 145 145 0
-5.089372 1.425024 41.545897 146 146 146 0
-4.985966 1.424562 41.532413 147 147 147 0
-4.874061 1.421601 41.446101 144 144 144 0
-4.776968 1.422927 41.484743 138 138 138 0
-4.681359 1.424762 41.538239 131 131 131 0
-4.581204 1.425264 41.552872 124 124 124 0
-4.482458 1.426237 41.581247 121 121 121 0
-4.390121 1.429342 41.671766 115 115 115 0
-4.297914 1.432638 41.767870 116 116 116 0
-4.200566 1.434340 41.817485 113 113 113 0
-4.105534 1.436937 41.893199 115 115 115 0
-4.009366 1.439260 41.960919 122 122 122 0
-3.914399 1.442147 42.045097 128 128 128 0
-3.815398 1.443664 42.089332 132 132 132 0
-3.715422 1.444886 42.124971 138 138 138 0
-3.613273 1.445309 42.137289 143 143 143 0
-3.513870 1.446888 42.183315 143 143 143 0
-3.408946 1.446220 42.163834 142 142 142 0
-3.305717 1.446251 42.164753 137 137 137 0
-3.204821 1.447339 42.196460 131 131 131 0
-3.106430 1.449667 42.264356 125 125 125 0
-3.008466 1.452363 42.342949 118 118 118 0
-2.909620 1.454810 42.414289 109 109 109 0
-2.814939 1.459598 42.553873 100 100 100 0
-2.474884 1.332630 38.852181 93 93 93 0
-2.387660 1.337090 38.982205 87 87 87 0
-1.931510 1.502286 43.798412 116 116 116 0
-1.814020 1.493899 43.553893 134 134 134 0
-1.703143 1.490250 43.447516 143 143 143 0
-1.593925 1.487663 43.372097 148 148 148 0
-1.488730 1.488730 43.403208 150 150 150 0
-1.381698 1.487983 43.381428 153 153 153 0
-1.272875 1.485020 43.295058 149 149 149 0
-1.169059 1.487894 43.378826 148 148 148 0
-1.062686 1.487760 43.374931 138 138 138 0
-0.956343 1.487645 43.371586 126 126 126 0
-0.850262 1.487958 43.380708 118 118 118 0
-0.746365 1.492731 43.519845 128 128 128 0
-0.640095 1.493555 43.543873 137 137 137 0
-0.533244 1.493082 43.530089 136 136 136 0
-0.427261 1.495413 43.598060 141 141 141 0
-0.319762 1.492222 43.505018 139 139 139 0
-0.212796 1.489573 43.427777 137 137 137 0
-0.106593 1.492306 43.507457 137 137 137 0
0.000000 1.492043 43.499785 135 135 135 0
0.106351 1.488911 43.408480 135 135 135 0
0.213045 1.491318 43.478652 131 131 131 0
0.319600 1.491466 43.482974 132 132 132 0
0.425528 1.489348 43.421224 130 130 130 0
0.532342 1.490557 43.456476 124 124 124 0
0.640658 1.494869 43.582197 115 115 115 0
0.665027 1.330055 38.777100 109 109 109 0
0.760143 1.330251 38.782815 103 103 103 0
0.859187 1.336514 38.965417 97 97 97 0
0.957584 1.340618 39.085061 106 106 106 0
1.059249 1.348135 39.304236 110 110 110 0
1.158374 1.351437 39.400493 111 111 111 0
1.247472 1.343431 39.167092 108 108 108 0
1.514566 1.514566 44.156440 109 109 109 0
1.653382 1.543157 44.989987 131 131 131 0
1.767186 1.546288 45.081274 144 144 144 0
1.879016 1.547425 45.114436 145 145 145 0
1.987918 1.546159 45.077508 144 144 144 0
2.095065 1.543732 45.006757 148 148 148 0
2.198491 1.538944 44.867161 146 146 146 0
2.308679 1.539119 44.872285 143 143 143 0
2.416184 1.537572 44.827157 147 147 147 0
2.524213 1.536477 44.795256 150 150 150 0
2.633613 1.536274 44.789336 146 146 146 0
2.742925 1.536038 44.782453 147 147 147 0
2.847129 1.533069 44.695901 145 145 145 0
2.956562 1.533032 44.694811 146 146 146 0
3.064811 1.532406 44.676547 149 149 149 0
3.166858 1.528828 44.572240 149 149 149 0
3.275685 1.528653 44.567137 150 150 150 0
3.384933 1.528679 44.567911 150 150 150 0
3.489257 1.526550 44.505828 145 145 145 0
3.598321 1.526561 44.506138 139 139 139 0
3.714562 1.529526 44.592581 125 125 125 0
3.826051 1.530420 44.618671 109 109 109 0
3.938671 1.531705 44.656131 105 105 105 0
4.063571 1.537567 44.827034 108 108 108 0
4.174614 1.538016 44.840104 110 110 110 0
4.295770 1.542071 44.958342 105 105 105 0
3.827063 1.339472 39.051660 84 84 84 0
4.544734 1.551860 45.243740 85 85 85 0
4.686906 1.562302 45.548161 100 100 100 0
4.815054 1.567692 45.705306 110 110 110 0
4.937220 1.570934 45.799813 105 105 105 0
5.076090 1.579228 46.041629 91 91 91 0
9.009163 1.882512 54.883724 106 106 106 0
9.143321 1.882448 54.881878 121 121 121 0
9.277965 1.882486 54.882965 123 123 123 0
9.412150 1.882430 54.881344 120 120 120 0
9.546488 1.882406 54.880643 119 119 119 0
9.681309 1.882477 54.882704 114 114 114 0
9.815431 1.882411 54.880798 117 117 117 0
9.949645 1.882365 54.879453 120 120 120 0
10.083150 1.882188 54.874283 88 88 88 0
-8.141931 1.526612 41.540465 134 134 134 0
-8.057330 1.529873 41.629192 131 131 131 0
-7.959280 1.530631 41.649817 133 133 133 0
-7.857444 1.530671 41.650912 132 132 132 0
-7.772824 1.534110 41.744491 129 129 129 0
-7.668892 1.533778 41.735468 127 127 127 0
-7.581924 1.536877 41.819770 128 128 128 0
-7.485643 1.538146 41.854310 132 132 132 0
-7.399196 1.541499 41.945554 131 131 131 0
-7.302587 1.542800 41.980955 135 135 135 0
-7.205928 1.544127 42.017071 140 140 140 0
-7.106131 1.544811 42.035678 135 135 135 0
-7.011713 1.546701 42.087113 127 127 127 0
-6.916513 1.548473 42.135324 125 125 125 0
-6.807203 1.547092 42.097731 122 122 122 0
-6.750423 1.557790 42.388839 142 142 142 0
-6.654876 1.559737 42.441810 148 148 148 0
-6.537226 1.556482 42.353264 146 146 146 0
-6.431240 1.555945 42.338644 146 146 146 0
-6.299900 1.549156 42.153899 146 146 146 0
-6.195438 1.548859 42.145836 145 145 145 0
-6.090576 1.548451 42.134735 143 143 143 0
-5.981625 1.546972 42.094476 145 145 145 0
-5.881081 1.547653 42.113004 149 149 149 0
-5.787751 1.550291 42.184776 149 149 149 0
-5.684462 1.550308 42.185250 149 149 149 0
-5.566207 1.546169 42.072615 147 147 147 0
-5.436516 1.538636 41.867659 145 145 145 0
-5.317768 1.533971 41.740718 144 144 144 0
-5.195464 1.528078 41.580345 144 144 144 0
-5.087049 1.526115 41.526928 147 147 147 0
-4.983989 1.525711 41.515946 148 148 148 0
-4.872755 1.522736 41.434995 148 148 148 0
-4.773058 1.523317 41.450789 140 140 140 0
-4.676646 1.524993 41.496419 132 132 132 0
-4.576603 1.525534 41.511136 125 125 125 0
-4.476285 1.526006 41.523981 122 122 122 0
-4.388754 1.530961 41.658797 117 117 117 0
-4.292323 1.532973 41.713541 115 115 115 0
-4.193993 1.534388 41.752043 110 110 110 0
-4.103090 1.538659 41.868269 115 115 115 0
-4.006621 1.541008 41.932192 118 118 118 0
-3.912111 1.544254 42.020526 126 126 126 0
-3.812415 1.545574 42.056430 131 131 131 0
-3.714801 1.547834 42.117930 137 137 137 0
-3.612387 1.548166 42.126957 139 139 139 0
-3.511353 1.549126 42.153094 143 143 143 0
-3.409819 1.549918 42.174637 143 143 143 0
-3.305594 1.549497 42.163189 137 137 137 0
-3.203375 1.550020 42.177419 129 129 129 0
-3.106501 1.553251 42.265324 121 121 121 0
-3.004667 1.554138 42.289470 114 114 114 0
-2.914821 1.561511 42.490100 103 103 103 0
-2.555386 1.419659 38.630171 94 94 94 0
-2.473304 1.426906 38.827384 86 86 86 0
-2.484751 1.490850 40.567359 79 79 79 0
-1.947535 1.622946 44.161788 105 105 105 0
-1.817155 1.603372 43.629166 127 127 127 0
-1.702892 1.596461 43.441123 141 141 141 0
-1.593535 1.593535 43.361500 146 146 146 0
-1.488378 1.594691 43.392945 150 150 150 0
-1.381632 1.594190 43.379326 151 151 151 0
-1.273087 1.591359 43.302284 152 152 152 0
-1.168512 1.593425 43.358502 147 147 147 0
-1.061907 1.592860 43.343131 144 144 144 0
-0.955287 1.592145 43.323685 130 130 130 0
-0.849121 1.592102 43.322494 123 123 123 0
-0.744141 1.594589 43.390175 126 126 126 0
-0.638975 1.597437 43.467682 135 135 135 0
-0.532143 1.596430 43.440270 142 142 142 0
-0.426636 1.599887 43.534336 142 142 142 0
-0.319357 1.596784 43.449892 141 141 141 0
-0.212574 1.594303 43.382387 142 142 142 0
-0.106527 1.597910 43.480539 139 139 139 0
0.000000 1.595496 43.414858 136 136 136 0
0.106211 1.593160 43.351293 137 137 137 0
0.212637 1.594776 43.395271 135 135 135 0
0.319182 1.595912 43.426168 132 132 132 0
0.424983 1.593688 43.365656 130 130 130 0
0.531647 1.594940 43.399724 124 124 124 0
0.639510 1.598776 43.504114 116 116 116 0
0.663860 1.422558 38.709049 110 110 110 0
0.762277 1.429269 38.891680 100 100 100 0
0.861530 1.435884 39.071672 96 96 96 0
0.958757 1.438135 39.132919 108 108 108 0
1.192884 1.626661 44.262871 110 110 110 0
1.156419 1.445523 39.333971 109 109 109 0
1.253131 1.445920 39.344763 110 110 110 0
