ply
format ascii 1.0
element vertex 1129
property float x
property float y
property float z
property uchar red
property uchar green
property uchar blue
property uchar alpha
end_header
-6.369986 1.746609 41.935390 150 150 150 0
-6.266439 1.746385 41.930003 149 149 149 0
-6.170293 1.748250 41.974785 154 154 154 0
-6.062032 1.746687 41.937267 148 148 148 0
-5.961535 1.747347 41.953100 151 151 151 0
-5.861477 1.748160 41.972622 147 147 147 0
-5.762706 1.749393 42.002228 147 147 147 0
-5.681711 1.756165 42.164832 152 152 152 0
-5.556953 1.749411 42.002667 149 149 149 0
-5.423545 1.739628 41.767769 148 148 148 0
-5.295593 1.731251 41.566661 148 148 148 0
-5.159463 1.719821 41.292223 145 145 145 0
-5.043222 1.714696 41.169160 145 145 145 0
-4.916771 1.705819 40.956028 144 144 144 0
-4.784621 1.694553 40.685552 142 142 142 0
-4.655027 1.683733 40.425768 143 143 143 0
-4.519374 1.670204 40.100924 141 141 141 0
-4.387737 1.657590 39.798068 145 145 145 0
-4.268960 1.649371 39.600740 141 141 141 0
-4.156445 1.643246 39.453680 144 144 144 0
-4.037763 1.634333 39.239676 140 140 140 0
-3.931097 1.629967 39.134862 140 140 140 0
-3.822822 1.624700 39.008393 142 142 142 0
-3.719273 1.621221 38.924885 146 146 146 0
-3.617381 1.618302 38.854786 145 145 145 0
-3.519099 1.616883 38.820731 145 145 145 0
-3.421113 1.615525 38.788127 148 148 148 0
-3.318705 1.611942 38.702097 148 148 148 0
-3.221131 1.610565 38.669037 149 149 149 0
-3.127146 1.610954 38.678362 150 150 150 0
-3.030129 1.609756 38.649610 148 148 148 0
-2.930201 1.606884 38.580656 152 152 152 0
-2.839970 1.609316 38.639043 148 148 148 0
-2.745384 1.609363 38.640171 144 144 144 0
-2.648758 1.608175 38.611639 142 142 142 0
-2.554792 1.608573 38.621190 139 139 139 0
-2.465551 1.612091 38.705670 135 135 135 0
-2.369876 1.611516 38.691851 127 127 127 0
-2.278277 1.613779 38.746203 120 120 120 0
-2.187613 1.616931 38.821878 108 108 108 0
-2.097890 1.621097 38.921894 96 96 96 0
-1.809445 1.464789 35.169008 93 93 93 0
-1.926249 1.637311 39.311199 93 93 93 0
-1.837799 1.644346 39.480101 102 102 102 0
-1.743342 1.646490 39.531576 111 111 111 0
-1.654366 1.654366 39.720676 116 116 116 0
-1.557356 1.654691 39.728481 120 120 120 0
-1.465582 1.660993 39.879782 131 131 131 0
-1.371860 1.665830 39.995911 152 152 152 0
-1.274354 1.666463 40.011123 150 150 150 0
-1.175736 1.665626 39.991023 153 153 153 0
-1.077216 1.664788 39.970907 150 150 150 0
-0.977313 1.661432 39.890325 150 150 150 0
-0.879029 1.660389 39.865276 150 150 150 0
-0.781052 1.659736 39.849607 153 153 153 0
-0.682566 1.657660 39.799762 151 151 151 0
-0.585352 1.658498 39.819880 152 152 152 0
-0.488033 1.659313 39.839436 151 151 151 0
-0.390254 1.658579 39.821823 147 147 147 0
-0.292350 1.656649 39.775479 144 144 144 0
-0.195296 1.660014 39.856275 146 146 146 0
-0.097599 1.659182 39.836314 148 148 148 0
0.000000 1.658277 39.814562 143 143 143 0
0.097550 1.658347 39.816251 140 140 140 0
0.195259 1.659703 39.848801 138 138 138 0
0.292870 1.659598 39.846303 135 135 135 0
0.390687 1.660418 39.865985 133 133 133 0
0.488988 1.662560 39.917400 131 131 131 0
0.586920 1.662939 39.926515 129 129 129 0
0.684664 1.662755 39.922090 130 130 130 0
0.783673 1.665306 39.983327 128 128 128 0
0.882156 1.666295 40.007087 129 129 129 0
0.981473 1.668504 40.060114 125 125 125 0
1.080400 1.669709 40.089051 125 125 125 0
1.180093 1.671798 40.139218 122 122 122 0
1.279147 1.672731 40.161608 120 120 120 0
1.380625 1.676474 40.251472 120 120 120 0
1.481098 1.678578 40.301986 116 116 116 0
1.582414 1.681314 40.367692 111 111 111 0
1.683711 1.683711 40.425236 108 108 108 0
1.790908 1.691413 40.610149 106 106 106 0
1.892493 1.693284 40.655068 105 105 105 0
1.749144 1.486773 35.696822 106 106 106 0
1.847172 1.495330 35.902270 96 96 96 0
1.944563 1.502617 36.077232 92 92 92 0
2.041606 1.509013 36.230808 80 80 80 0
2.077552 1.471600 35.332523 85 85 85 0
2.329434 1.584015 38.031576 83 83 83 0
3.234765 1.833033 44.010405 106 106 106 0
3.348577 1.836317 44.089233 133 133 133 0
3.447742 1.831613 43.976299 130 130 130 0
3.545967 1.826710 43.858585 141 141 141 0
3.641425 1.820712 43.714585 137 137 137 0
3.746610 1.819782 43.692247 137 137 137 0
3.837894 1.812339 43.513532 136 136 136 0
3.934088 1.807554 43.398653 139 139 139 0
4.033594 1.804503 43.325397 134 134 134 0
4.132460 1.801329 43.249190 137 137 137 0
4.224109 1.795246 43.103155 135 135 135 0
4.313152 1.788380 42.938295 134 134 134 0
4.407571 1.784017 42.833540 135 135 135 0
4.500644 1.779325 42.720877 135 135 135 0
4.594596 1.775185 42.621481 135 135 135 0
4.683318 1.769253 42.479071 137 137 137 0
4.790029 1.770228 42.502478 138 138 138 0
4.882907 1.766158 42.404753 136 136 136 0
4.970176 1.760271 42.263399 136 136 136 0
5.074717 1.760616 42.271697 135 135 135 0
5.173827 1.759101 42.235325 137 137 137 0
5.268435 1.756145 42.164347 135 135 135 0
5.378908 1.758489 42.220630 134 134 134 0
5.475529 1.756302 42.168107 134 134 134 0
5.571703 1.754055 42.114155 134 134 134 0
5.671519 1.753015 42.089193 132 132 132 0
5.778325 1.754134 42.116072 133 133 133 0
5.873471 1.751737 42.058509 135 135 135 0
5.982460 1.753480 42.100349 137 137 137 0
6.089881 1.754711 42.129924 137 137 137 0
6.186478 1.752836 42.084887 137 137 137 0
6.293672 1.753974 42.112227 136 136 136 0
6.394303 1.753277 42.095480 133 133 133 0
6.503644 1.754951 42.135690 128 128 128 0
6.609947 1.755767 42.155274 126 126 126 0
6.711621 1.755347 42.145186 124 124 124 0
6.828620 1.758887 42.230181 124 124 124 0
6.936345 1.759968 42.256138 124 124 124 0
7.044659 1.761165 42.284866 123 123 123 0
7.152997 1.762333 42.312905 122 122 122 0
7.276044 1.767039 42.425913 120 120 120 0
7.373661 1.765525 42.389544 119 119 119 0
7.491028 1.768715 42.466147 119 119 119 0
7.610699 1.772355 42.553531 120 120 120 0
7.714539 1.772259 42.551236 120 120 120 0
7.893673 1.789233 42.958765 116 116 116 0
8.167165 1.826866 43.862325 107 107 107 0
8.446430 1.864796 44.773018 98 98 98 0
8.560173 1.865679 44.794209 83 83 83 0
-7.818600 1.759185 39.890816 116 116 116 0
-7.719486 1.758870 39.883679 109 109 109 0
-7.638758 1.762790 39.972569 113 113 113 0
-7.566253 1.768735 40.107359 113 113 113 0
-6.889601 1.631747 37.001077 113 113 113 0
-6.800645 1.632155 37.010310 110 110 110 0
-6.746856 1.641127 37.213768 108 108 108 0
-6.681457 1.647482 37.357880 107 107 107 0
-6.567514 1.641879 37.230807 103 103 103 0
-6.524566 1.654115 37.508285 111 111 111 0
-6.484197 1.667365 37.808731 110 110 110 0
-6.393742 1.667933 37.821602 112 112 112 0
-6.318573 1.672563 37.926607 113 113 113 0
-6.262514 1.682466 38.151167 114 114 114 0
-6.214031 1.694736 38.429381 114 114 114 0
-6.671923 1.847609 41.895903 146 146 146 0
-6.049047 1.701294 38.578105 148 148 148 0
-6.473920 1.849692 41.943119 146 146 146 0
-6.374728 1.850727 41.966609 148 148 148 0
-6.273637 1.851237 41.978166 149 149 149 0
-6.168389 1.850517 41.961831 149 149 149 0
-6.062561 1.849595 41.940926 147 147 147 0
-5.956911 1.848697 41.920557 148 148 148 0
-5.869517 1.853532 42.030194 155 155 155 0
-5.784514 1.859308 42.161179 154 154 154 0
-5.683015 1.859896 42.174511 157 157 157 0
-5.552809 1.850936 41.971344 151 151 151 0
-5.425258 1.842540 41.780963 147 147 147 0
-5.285866 1.829723 41.490316 150 150 150 0
-5.161815 1.821817 41.311043 149 149 149 0
-5.041819 1.815055 41.157707 144 144 144 0
-4.920052 1.807366 40.983360 145 145 145 0
-4.788341 1.795628 40.717189 146 146 146 0
-4.645627 1.779176 40.344130 141 141 141 0
-4.514923 1.766709 40.061425 143 143 143 0
-4.381430 1.752572 39.740865 142 142 142 0
-4.266474 1.745376 39.577684 137 137 137 0
-4.151903 1.738006 39.410567 138 138 138 0
-4.031363 1.727727 39.177484 145 145 145 0
-3.928318 1.724628 39.107201 143 143 143 0
-3.822997 1.720349 39.010177 144 144 144 0
-3.719846 1.716852 38.930881 146 146 146 0
-3.613786 1.711793 38.816179 146 146 146 0
-3.517429 1.711182 38.802309 147 147 147 0
-3.420080 1.710040 38.776422 148 148 148 0
-3.317957 1.706378 38.693375 148 148 148 0
-3.219210 1.704287 38.645974 152 152 152 0
-3.127355 1.705830 38.680951 152 152 152 0
-3.029686 1.704199 38.643958 154 154 154 0
-2.929427 1.700957 38.570464 151 151 151 0
-2.840128 1.704077 38.641201 147 147 147 0
-2.745067 1.703834 38.635702 144 144 144 0
-2.648863 1.702840 38.613158 141 141 141 0
-2.554853 1.703235 38.622113 137 137 137 0
-2.466113 1.707309 38.714488 131 131 131 0
-2.371037 1.707147 38.710806 122 122 122 0
-2.279428 1.709571 38.765775 111 111 111 0
-2.191569 1.715141 38.892078 101 101 101 0
-2.102261 1.720031 39.002981 91 91 91 0
-2.014100 1.726371 39.146736 96 96 96 0
-1.931143 1.738029 39.411084 99 99 99 0
-1.834951 1.738375 39.418936 110 110 110 0
-1.743432 1.743432 39.533616 113 113 113 0
-1.651810 1.748976 39.659315 119 119 119 0
-1.558457 1.753264 39.756551 118 118 118 0
-1.462374 1.754849 39.792484 121 121 121 0
-1.370646 1.762259 39.960531 143 143 143 0
-1.274635 1.764879 40.019932 155 155 155 0
-1.176643 1.764964 40.021858 149 149 149 0
-1.077257 1.762784 39.972416 151 151 151 0
-0.978802 1.761843 39.951086 148 148 148 0
-0.880234 1.760469 39.919928 149 149 149 0
-0.781824 1.759105 39.889002 150 150 150 0
-0.682899 1.756027 39.819197 149 149 149 0
-0.585504 1.756513 39.830230 150 150 150 0
-0.488101 1.757164 39.844982 149 149 149 0
-0.390128 1.755576 39.808988 147 147 147 0
-0.292396 1.754374 39.781729 148 148 148 0
-0.195183 1.756649 39.833308 146 146 146 0
-0.097548 1.755871 39.815680 149 149 149 0
0.000000 1.755897 39.816251 147 147 147 0
0.097550 1.755895 39.816206 143 143 143 0
0.195167 1.756499 39.829909 140 140 140 0
0.292672 1.756034 39.819366 137 137 137 0
0.390390 1.756753 39.835667 135 135 135 0
0.488488 1.758557 39.876567 133 133 133 0
0.586388 1.759165 39.890354 130 130 130 0
0.684376 1.759824 39.905300 130 130 130 0
0.783235 1.762278 39.960955 128 128 128 0
0.881715 1.763431 39.987094 128 128 128 0
0.980336 1.764604 40.013695 127 127 127 0
1.079488 1.766435 40.055216 125 125 125 0
1.179165 1.768748 40.107667 123 123 123 0
1.278498 1.770229 40.141238 122 122 122 0
1.380196 1.774537 40.238937 119 119 119 0
1.479986 1.775983 40.271734 118 118 118 0
1.580050 1.777556 40.307403 112 112 112 0
1.683030 1.782032 40.408887 109 109 109 0
1.788385 1.788385 40.552959 105 105 105 0
1.889937 1.790466 40.600141 106 106 106 0
1.994144 1.794729 40.696810 102 102 102 0
1.840545 1.577610 35.773460 99 99 99 0
1.944563 1.591006 36.077232 94 94 94 0
2.017900 1.579226 35.810121 88 88 88 0
2.092508 1.569381 35.586876 89 89 89 0
2.164043 1.558111 35.331319 86 86 86 0
2.288354 1.584245 35.923926 70 70 70 0
3.228214 1.936928 43.921281 100 100 100 0
3.349983 1.945151 44.107743 133 133 133 0
3.448115 1.939565 43.981059 133 133 133 0
3.544490 1.933358 43.840316 135 135 135 0
3.639985 1.927051 43.697300 137 137 137 0
3.743440 1.925198 43.655280 137 137 137 0
3.834077 1.917038 43.470259 134 134 134 0
3.928400 1.911114 43.335909 136 136 136 0
4.024759 1.906465 43.230491 138 138 138 0
4.120889 1.901949 43.128093 135 135 135 0
4.216106 1.897248 43.021491 134 134 134 0
4.308143 1.891380 42.888436 136 136 136 0
4.396523 1.884224 42.726176 134 134 134 0
4.503923 1.885363 42.751994 136 136 136 0
4.590328 1.877862 42.581897 137 137 137 0
4.681864 1.872746 42.465890 137 137 137 0
4.781228 1.870915 42.424385 136 136 136 0
4.871457 1.865664 42.305315 137 137 137 0
4.968823 1.863308 42.251892 137 137 137 0
5.067635 1.861580 42.212699 134 134 134 0
5.167349 1.860246 42.182438 136 136 136 0
5.262649 1.857405 42.118036 136 136 136 0
5.366386 1.857595 42.122339 135 135 135 0
5.469404 1.857533 42.120939 133 133 133 0
5.563764 1.854588 42.054148 135 135 135 0
5.665685 1.854224 42.045902 135 135 135 0
5.774962 1.856238 42.091562 132 132 132 0
5.871779 1.854246 42.046395 136 136 136 0
5.979601 1.855738 42.080235 137 137 137 0
6.086987 1.857047 42.109904 136 136 136 0
6.185609 1.855683 42.078970 135 135 135 0
6.291688 1.856564 42.098947 132 132 132 0
6.393280 1.856114 42.088745 129 129 129 0
6.506688 1.859054 42.155415 127 127 127 0
6.608948 1.858767 42.148901 127 127 127 0
6.716754 1.860024 42.177417 125 125 125 0
6.830383 1.862832 42.241080 123 123 123 0
6.934688 1.863051 42.246045 126 126 126 0
7.042720 1.864250 42.273232 125 125 125 0
7.153102 1.866027 42.313526 124 124 124 0
7.276178 1.871017 42.426696 121 121 121 0
7.366960 1.867680 42.351020 119 119 119 0
7.491637 1.872909 42.469599 117 117 117 0
7.608399 1.876044 42.540670 116 116 116 0
7.716523 1.876992 42.562176 115 115 115 0
7.833543 1.880050 42.631527 110 110 110 0
8.168018 1.934531 43.866906 102 102 102 0
8.279819 1.935542 43.889845 96 96 96 0
8.182194 1.888199 42.816296 78 78 78 0
-7.779917 1.847730 39.693454 114 114 114 0
-7.687304 1.848845 39.717408 111 111 111 0
-7.603532 1.852142 39.788237 111 111 111 0
-7.519584 1.855482 39.859976 111 111 111 0
-6.871013 1.717753 36.901251 111 111 111 0
-6.794034 1.721155 36.974335 109 109 109 0
-6.717487 1.724760 37.051776 106 106 106 0
-6.674727 1.737258 37.320249 109 109 109 0
-6.574256 1.734873 37.269025 106 106 106 0
-6.548631 1.752451 37.646631 115 115 115 0
-6.453038 1.751539 37.627041 110 110 110 0
-6.376566 1.755866 37.719998 108 108 108 0
-6.323946 1.766985 37.958861 113 113 113 0
-6.289633 1.783627 38.316374 116 116 116 0
-6.209562 1.787601 38.401746 110 110 110 0
-6.149650 1.797590 38.616324 116 116 116 0
-6.066339 1.800944 38.688388 147 147 147 0
-6.481654 1.954785 41.993223 150 150 150 0
-6.382354 1.955883 42.016814 149 149 149 0
-6.274530 1.954362 41.984139 146 146 146 0
-6.173231 1.954856 41.994766 154 154 154 0
-6.078552 1.957500 42.051550 149 149 149 0
-5.967379 1.954831 41.994222 153 153 153 0
-5.887495 1.962498 42.158935 153 153 153 0
-5.798317 1.967286 42.261786 152 152 152 0
-5.680515 1.962360 42.155953 154 154 154 0
-5.547685 1.951963 41.932612 151 151 151 0
-5.411652 1.940026 41.676178 150 150 150 0
-5.284785 1.930979 41.481830 143 143 143 0
-5.160837 1.922665 41.303214 143 143 143 0
-5.035001 1.913300 41.102046 149 149 149 0
-4.914969 1.905804 40.941017 145 145 145 0
-4.782980 1.893263 40.671602 145 145 145 0
-4.646033 1.878184 40.347661 142 142 142 0
-4.515749 1.865201 40.068759 139 139 139 0
-4.386684 1.852155 39.788515 144 144 144 0
-4.267009 1.842572 39.582646 140 140 140 0
-4.151453 1.834363 39.406296 142 142 142 0
-4.032884 1.824400 39.192260 141 141 141 0
-3.929376 1.820930 39.117730 144 144 144 0
-3.823038 1.815943 39.010597 145 145 145 0
-3.721584 1.813079 38.949072 142 142 142 0
-3.615493 1.807747 38.834516 143 143 143 0
-3.519232 1.807173 38.822197 146 146 146 0
-3.419363 1.804664 38.768287 145 145 145 0
-3.319696 1.802121 38.713656 145 145 145 0
-3.221185 1.800074 38.669687 145 145 145 0
-3.128733 1.801391 38.697991 145 145 145 0
-3.030684 1.799468 38.656679 145 145 145 0
-2.931483 1.796715 38.597532 143 143 143 0
-2.841447 1.799583 38.659137 142 142 142 0
-2.746198 1.799233 38.651619 139 139 139 0
-2.650455 1.798523 38.636367 137 137 137 0
-2.557172 1.799492 38.657179 132 132 132 0
-2.467363 1.803073 38.734116 123 123 123 0
-2.372872 1.803383 38.740774 115 115 115 0
-2.282091 1.806655 38.811070 103 103 103 0
-2.196346 1.814373 38.976864 96 96 96 0
-2.111988 1.823989 39.183447 98 98 98 0
-2.020824 1.828365 39.277437 106 106 106 0
-1.931384 1.834815 39.415996 111 111 111 0
-1.838954 1.838954 39.504913 107 107 107 0
-1.743114 1.839953 39.526384 114 114 114 0
-1.650904 1.845128 39.637541 115 115 115 0
-1.557356 1.849361 39.728481 117 117 117 0
-1.459130 1.848231 39.704210 117 117 117 0
-1.367247 1.855550 39.861432 137 137 137 0
-1.274067 1.862098 40.002114 150 150 150 0
-1.176821 1.863299 40.027909 147 147 147 0
-1.078566 1.862977 40.020995 146 146 146 0
-0.980372 1.862706 40.015167 148 148 148 0
-0.881319 1.860562 39.969109 147 147 147 0
-0.782313 1.857993 39.913914 146 146 146 0
-0.683173 1.854326 39.835150 147 147 147 0
-0.585751 1.854880 39.847037 147 147 147 0
-0.487947 1.854197 39.832372 147 147 147 0
-0.390439 1.854585 39.840700 145 145 145 0
-0.292359 1.851608 39.776748 148 148 148 0
-0.195330 1.855631 39.863180 149 149 149 0
-0.097588 1.854169 39.831764 149 149 149 0
0.000000 1.852298 39.791576 149 149 149 0
0.097494 1.852386 39.793477 146 146 146 0
0.195222 1.854612 39.841280 142 142 142 0
0.292596 1.853109 39.809007 139 139 139 0
0.390073 1.852846 39.803349 135 135 135 0
0.488312 1.855587 39.862235 135 135 135 0
0.585956 1.855526 39.860923 132 132 132 0
0.684168 1.857026 39.893149 130 130 130 0
0.782702 1.858917 39.933764 128 128 128 0
0.881644 1.861248 39.983850 128 128 128 0
0.979933 1.861873 39.997266 127 127 127 0
1.078931 1.863609 40.034562 126 126 126 0
1.178272 1.865598 40.077284 125 125 125 0
1.277525 1.867152 40.110671 123 123 123 0
1.378805 1.871235 40.198395 120 120 120 0
1.478642 1.872946 40.235152 118 118 118 0
1.578842 1.874875 40.276594 113 113 113 0
1.681956 1.879833 40.383100 109 109 109 0
1.787946 1.887276 40.542983 107 107 107 0
1.889705 1.889705 40.595172 106 106 106 0
1.992291 1.892676 40.658996 102 102 102 0
1.840888 1.665565 35.780133 98 98 98 0
1.930756 1.667471 35.821077 92 92 92 0
2.059088 1.700986 36.541050 88 88 88 0
1.971506 1.560775 33.529010 84 84 84 0
2.177219 1.654686 35.546429 92 92 92 0
2.274681 1.662267 35.709285 74 74 74 0
3.215098 2.036229 43.742825 92 92 92 0
3.347598 2.051754 44.076341 125 125 125 0
3.441306 2.043276 43.894213 133 133 133 0
3.545067 2.041099 43.847455 136 136 136 0
3.638891 2.033498 43.684172 135 135 135 0
3.738874 2.029675 43.602035 134 134 134 0
3.833334 2.023148 43.461832 136 136 136 0
3.931619 2.018939 43.371412 133 133 133 0
4.029569 2.014785 43.282160 136 136 136 0
4.113521 2.004023 43.050978 135 135 135 0
4.207579 1.998600 42.934475 135 135 135 0
4.308405 1.996578 42.891040 136 136 136 0
4.397194 1.989207 42.732692 133 133 133 0
4.502525 1.989488 42.738731 138 138 138 0
4.586312 1.980453 42.544638 134 134 134 0
4.680391 1.976165 42.452525 136 136 136 0
4.776745 1.973003 42.384604 138 138 138 0
4.868870 1.968267 42.282849 136 136 136 0
4.963955 1.964899 42.210504 136 136 136 0
5.060184 1.962112 42.150637 135 135 135 0
5.160091 1.960835 42.123191 136 136 136 0
5.258197 1.958936 42.082408 135 135 135 0
5.355333 1.956756 42.035582 136 136 136 0
5.461236 1.957801 42.058034 134 134 134 0
5.561354 1.956773 42.035930 133 133 133 0
5.662604 1.956172 42.023033 134 134 134 0
5.769831 1.957621 42.054159 132 132 132 0
5.873636 1.957879 42.059694 134 134 134 0
5.972007 1.956347 42.026793 135 135 135 0
6.080575 1.958151 42.065551 134 134 134 0
6.190623 1.960364 42.113081 131 131 131 0
6.292406 1.959930 42.103754 130 130 130 0
6.395839 1.960015 42.105588 129 129 129 0
6.512015 1.963941 42.189926 127 127 127 0
6.611489 1.962786 42.165105 126 126 126 0
6.717931 1.963703 42.184810 126 126 126 0
6.838460 1.968648 42.291032 126 126 126 0
6.939611 1.967950 42.276037 127 127 127 0
7.040838 1.967293 42.261931 127 127 127 0
7.155461 1.970344 42.327483 126 126 126 0
7.272922 1.974079 42.407706 124 124 124 0
7.376373 1.973959 42.405132 120 120 120 0
7.490263 1.976597 42.461811 115 115 115 0
7.608508 1.980297 42.541282 110 110 110 0
7.727585 1.984110 42.623192 106 106 106 0
7.847562 1.988049 42.707819 103 103 103 0
7.505084 1.876271 40.306572 101 101 101 0
8.281621 2.043517 43.899395 97 97 97 0
-7.762050 1.940512 39.602295 117 117 117 0
-7.672577 1.942425 39.641317 113 113 113 0
-7.580070 1.943608 39.665466 112 112 112 0
-7.515155 1.951988 39.836499 113 113 113 0
-6.859847 1.805223 36.841284 110 110 110 0
-6.793530 1.811608 36.971594 108 108 108 0
-6.703632 1.811792 36.975357 109 109 109 0
-6.631205 1.816768 37.076905 106 106 106 0
-6.582648 1.828513 37.316601 106 106 106 0
-6.480519 1.825498 37.255066 104 104 104 0
-6.444656 1.841330 37.578167 109 109 109 0
-6.347670 1.839904 37.549067 109 109 109 0
-6.305523 1.854566 37.848279 113 113 113 0
-6.221979 1.857307 37.904226 111 111 111 0
-6.179371 1.872537 38.215034 115 115 115 0
-6.144454 1.890601 38.583701 101 101 101 0
-6.046644 1.889576 38.562778 117 117 117 0
-6.481826 2.057723 41.994338 149 149 149 0
-6.387498 2.060483 42.050680 153 153 153 0
-6.288546 2.061818 42.077927 151 151 151 0
-6.183436 2.061145 42.064189 148 148 148 0
-6.081634 2.061571 42.072877 156 156 156 0
-5.982808 2.063037 42.102800 152 152 152 0
-5.895177 2.068483 42.213939 159 159 159 0
-5.806695 2.073819 42.322847 157 157 157 0
-5.670140 2.061869 42.078964 153 153 153 0
-5.534341 2.049756 41.831754 151 151 151 0
-5.399176 2.037425 41.580098 148 148 148 0
-5.281889 2.031496 41.459098 150 150 150 0
-5.159220 2.023223 41.290273 144 144 144 0
-5.040276 2.016110 41.145108 143 143 143 0
-4.910551 2.004307 40.904218 145 145 145 0
-4.762097 1.984207 40.494020 142 142 142 0
-4.639682 1.974333 40.292503 140 140 140 0
-4.509364 1.960593 40.012102 140 140 140 0
-4.386557 1.949581 39.787369 136 136 136 0
-4.276027 1.943649 39.666301 140 140 140 0
-4.156119 1.933079 39.450583 138 138 138 0
-4.033914 1.920911 39.202270 142 142 142 0
-3.936433 1.920211 39.187983 139 139 139 0
-3.827127 1.913563 39.052315 139 139 139 0
-3.726649 1.911102 39.002087 140 140 140 0
-3.623039 1.906863 38.915565 138 138 138 0
-3.522399 1.903999 38.857127 137 137 137 0
-3.424600 1.902555 38.827661 135 135 135 0
-3.322908 1.898805 38.751112 137 137 137 0
-3.222994 1.895879 38.691406 136 136 136 0
-3.130512 1.897280 38.719995 136 136 136 0
-3.033302 1.895814 38.690077 137 137 137 0
-2.934538 1.893250 38.637762 135 135 135 0
-2.845229 1.896819 38.710599 137 137 137 0
-2.750011 1.896559 38.705295 133 133 133 0
-2.654113 1.895795 38.689692 131 131 131 0
-2.559795 1.896145 38.696830 125 125 125 0
-2.470921 1.900709 38.789973 118 118 118 0
-2.377288 1.901830 38.812861 109 109 109 0
-2.286498 1.905415 38.886014 103 103 103 0
-2.201301 1.914175 39.064788 98 98 98 0
-2.112894 1.920813 39.200260 107 107 107 0
-2.019358 1.923198 39.248937 116 116 116 0
-1.931153 1.931153 39.411295 116 116 116 0
-1.837330 1.934032 39.470034 112 112 112 0
-1.742819 1.936465 39.519695 115 115 115 0
-1.647796 1.938584 39.562930 116 116 116 0
-1.556346 1.945432 39.702702 116 116 116 0
-1.459165 1.945553 39.705167 112 112 112 0
-1.360389 1.943413 39.661491 122 122 122 0
-1.272210 1.957247 39.943814 140 140 140 0
-1.176832 1.961386 40.028289 148 148 148 0
-1.078324 1.960588 40.012005 146 146 146 0
-0.981588 1.963177 40.064832 146 146 146 0
-0.882418 1.960929 40.018954 141 141 141 0
-0.783180 1.957950 39.958162 143 143 143 0
-0.683849 1.953855 39.874593 144 144 144 0
-0.585990 1.953298 39.863234 143 143 143 0
-0.488304 1.953216 39.861554 145 145 145 0
-0.390402 1.952008 39.836891 146 146 146 0
-0.292537 1.950245 39.800921 148 148 148 0
-0.195287 1.952874 39.854567 150 150 150 0
-0.097558 1.951160 39.819591 150 150 150 0
0.000000 1.950453 39.805163 152 152 152 0
0.097579 1.951572 39.828000 151 151 151 0
0.195153 1.951532 39.827191 146 146 146 0
0.292489 1.949929 39.794477 142 142 142 0
0.390028 1.950138 39.798737 137 137 137 0
0.488287 1.953149 39.860182 135 135 135 0
0.585861 1.952870 39.854486 133 133 133 0
0.683669 1.953340 39.864078 131 131 131 0
0.782330 1.955825 39.914788 130 130 130 0
0.880778 1.957284 39.944576 129 129 129 0
0.978906 1.957812 39.955342 128 128 128 0
1.078320 1.960581 40.011865 125 125 125 0
1.177471 1.962451 40.050029 124 124 124 0
1.276625 1.964038 40.082411 123 123 123 0
1.377570 1.967957 40.162388 122 122 122 0
1.477922 1.970562 40.215552 119 119 119 0
1.579415 1.974269 40.291199 117 117 117 0
1.679594 1.975993 40.326390 110 110 110 0
1.565890 1.739877 35.507700 108 108 108 0
1.654882 1.741981 35.550624 105 105 105 0
1.990570 1.990570 40.623877 103 103 103 0
1.834406 1.747053 35.654149 99 99 99 0
1.932233 1.756576 35.848484 97 97 97 0
2.012826 1.750284 35.720079 83 83 83 0
2.115977 1.763314 35.985996 85 85 85 0
2.224496 1.779597 36.318309 85 85 85 0
2.294313 1.764856 36.017478 84 84 84 0
3.215645 2.143763 43.750269 87 87 87 0
3.336773 2.152757 43.933807 130 130 130 0
3.438439 2.149025 43.857643 135 135 135 0
3.536645 2.143421 43.743290 137 137 137 0
3.632088 2.136523 43.602502 130 130 130 0
3.738696 2.136397 43.599949 135 135 135 0
3.834110 2.130061 43.470632 138 138 138 0
3.927036 2.122722 43.320865 134 134 134 0
4.021303 2.116475 43.193375 127 127 127 0
4.108953 2.107155 43.003169 134 134 134 0
4.212121 2.106061 42.980829 136 136 136 0
4.300072 2.097596 42.808082 133 133 133 0
4.388968 2.089985 42.652747 138 138 138 0
4.493105 2.089816 42.649314 135 135 135 0
4.581000 2.082273 42.495363 136 136 136 0
4.674804 2.077691 42.401853 137 137 137 0
4.778434 2.077580 42.399596 136 136 136 0
4.866083 2.070674 42.258643 139 139 139 0
4.959083 2.066285 42.169075 136 136 136 0
5.057741 2.064384 42.130285 137 137 137 0
5.153372 2.061349 42.068346 138 138 138 0
5.252765 2.059908 42.038939 140 140 140 0
5.354194 2.059305 42.026639 136 136 136 0
5.450740 2.056883 41.977202 137 137 137 0
5.556683 2.058031 42.000625 135 135 135 0
5.660273 2.058281 42.005733 132 132 132 0
5.763770 2.058489 42.009987 132 132 132 0
5.871437 2.060153 42.043943 131 131 131 0
5.974061 2.060021 42.041242 130 130 130 0
6.085958 2.063037 42.102787 131 131 131 0
6.190507 2.063502 42.112296 129 129 129 0
6.290732 2.062535 42.092554 128 128 128 0
6.402920 2.065458 42.152203 127 127 127 0
6.512341 2.067410 42.192040 126 126 126 0
6.616374 2.067617 42.196265 125 125 125 0
6.719990 2.067689 42.197742 127 127 127 0
6.844475 2.074083 42.328231 127 127 127 0
6.939218 2.071408 42.273643 128 128 128 0
7.045882 2.072318 42.292208 127 127 127 0
7.153691 2.073534 42.317014 127 127 127 0
7.270755 2.077359 42.395076 123 123 123 0
7.372860 2.076862 42.384939 119 119 119 0
7.498713 2.082976 42.509708 113 113 113 0
7.610006 2.084933 42.549653 105 105 105 0
7.737768 2.091289 42.679360 100 100 100 0
7.854443 2.094518 42.745268 101 101 101 0
7.989482 2.102495 42.908065 102 102 102 0
8.282659 2.151340 43.904899 96 96 96 0
-7.732763 2.029850 39.452871 115 115 115 0
-7.654220 2.034666 39.546474 117 117 117 0
-6.994125 1.883034 36.599292 117 117 117 0
-6.908233 1.884064 36.619310 110 110 110 0
-6.844002 1.891106 36.756187 113 113 113 0
-6.765309 1.894287 36.818011 107 107 107 0
-6.685097 1.897122 36.873124 108 108 108 0
-6.604017 1.899786 36.924891 111 111 111 0
-6.551993 1.910998 37.142816 106 106 106 0
-6.494224 1.920827 37.333854 107 107 107 0
-6.420176 1.926053 37.435429 113 113 113 0
-6.302702 1.918214 37.283062 106 106 106 0
-6.304673 1.947031 37.843178 107 107 107 0
-6.202089 1.943938 37.783056 108 108 108 0
-6.197612 1.971967 38.327842 115 115 115 0
-6.016556 1.943810 37.780573 115 115 115 0
-6.370375 2.090279 40.627394 92 92 92 0
-6.481271 2.160424 41.990740 121 121 121 0
-6.399719 2.167647 42.131135 144 144 144 0
-6.293170 2.166501 42.108864 149 149 149 0
-6.186908 2.165418 42.087812 151 151 151 0
-6.079995 2.164066 42.061532 150 150 150 0
-5.998718 2.171950 42.214766 152 152 152 0
-5.907522 2.176455 42.302339 157 157 157 0
-5.808761 2.178286 42.337911 158 158 158 0
-5.659438 2.160876 41.999542 154 154 154 0
-5.522312 2.147566 41.740834 151 151 151 0
-5.400500 2.139821 41.590300 145 145 145 0
-5.278370 2.131649 41.431476 148 148 148 0
-5.154433 2.122414 41.251967 143 143 143 0
-5.033999 2.114279 41.093866 143 143 143 0
-4.901072 2.100460 40.825260 145 145 145 0
-4.764810 2.084604 40.517091 145 145 145 0
-4.642912 2.074492 40.320553 141 141 141 0
-4.516045 2.061673 40.071387 138 138 138 0
-4.391330 2.049287 39.830658 142 142 142 0
-4.273506 2.039628 39.642912 135 135 135 0
-4.166205 2.034658 39.546320 138 138 138 0
-4.049838 2.024919 39.357027 140 140 140 0
-3.940696 2.018405 39.230427 136 136 136 0
-3.838907 2.015426 39.172522 136 136 136 0
-3.735661 2.011510 39.096401 137 137 137 0
-3.632797 2.007599 39.020381 135 135 135 0
-3.534804 2.006240 38.993974 132 132 132 0
-3.436256 2.004483 38.959819 131 131 131 0
-3.333075 1.999845 38.869680 132 132 132 0
-3.237674 1.999740 38.867631 131 131 131 0
-3.142342 1.999672 38.866317 133 133 133 0
-3.045113 1.998356 38.840732 134 134 134 0
-2.943378 1.993901 38.754158 130 130 130 0
-2.850342 1.995240 38.780169 130 130 130 0
-2.756643 1.996190 38.798636 127 127 127 0
-2.658814 1.994110 38.758220 126 126 126 0
-2.564488 1.994602 38.767770 120 120 120 0
-2.474343 1.998508 38.843692 114 114 114 0
-2.385147 2.003523 38.941173 109 109 109 0
-2.295505 2.008567 39.039208 106 106 106 0
-2.203723 2.012095 39.107769 110 110 110 0
-2.114218 2.018118 39.224833 118 118 118 0
-2.019512 2.019512 39.251933 123 123 123 0
-1.929865 2.026359 39.385010 120 120 120 0
-1.837147 2.030531 39.466098 119 119 119 0
-1.741550 2.031808 39.490925 117 117 117 0
-1.647529 2.035182 39.556507 116 116 116 0
-1.552985 2.038292 39.616956 116 116 116 0
-1.458535 2.041950 39.688038 118 118 118 0
-1.355302 2.032953 39.513180 114 114 114 0
-1.267282 2.047148 39.789083 123 123 123 0
-1.175582 2.057268 39.985777 134 134 134 0
-1.079520 2.060903 40.056418 142 142 142 0
-0.981498 2.061145 40.061134 144 144 144 0
-0.883557 2.061633 40.070610 142 142 142 0
-0.784870 2.060283 40.044368 144 144 144 0
-0.684878 2.054634 39.934583 144 144 144 0
-0.586570 2.052995 39.902729 145 145 145 0
-0.488725 2.052645 39.895924 145 145 145 0
-0.390455 2.049889 39.842342 145 145 145 0
-0.292530 2.047712 39.800031 149 149 149 0
-0.195284 2.050483 39.853897 151 151 151 0
-0.097606 2.049730 39.839268 151 151 151 0
0.000000 2.047510 39.796108 153 153 153 0
0.097532 2.048167 39.808873 151 151 151 0
0.195186 2.049455 39.833916 147 147 147 0
0.292480 2.047360 39.793192 143 143 143 0
0.389920 2.047082 39.787788 140 140 140 0
0.488078 2.049927 39.843084 136 136 136 0
0.585767 2.050184 39.848094 134 134 134 0
0.683377 2.050132 39.847072 133 133 133 0
0.781852 2.052361 39.890389 133 133 133 0
0.880586 2.054702 39.935891 129 129 129 0
0.978989 2.055876 39.958725 126 126 126 0
1.077688 2.057404 39.988408 126 126 126 0
1.177070 2.059873 40.036399 124 124 124 0
1.275915 2.061093 40.060124 122 122 122 0
1.376656 2.064984 40.135748 122 122 122 0
1.477362 2.068307 40.200328 122 122 122 0
1.577610 2.070613 40.245154 116 116 116 0
1.677312 2.071974 40.271601 112 112 112 0
1.782651 2.079760 40.422936 106 106 106 0
1.884918 2.083331 40.492332 105 105 105 0
1.742466 1.829589 35.560533 104 104 104 0
1.831921 1.831921 35.605857 101 101 101 0
1.930001 1.842274 35.807077 98 98 98 0
2.027098 1.850829 35.973352 90 90 90 0
2.062128 1.804362 35.070209 86 86 86 0
2.105429 1.768560 34.374346 85 85 85 0
2.519397 2.034897 39.550969 83 83 83 0
3.201673 2.241171 43.560179 86 86 86 0
3.338310 2.261436 43.954051 128 128 128 0
3.436009 2.254881 43.826645 134 134 134 0
3.537585 2.251190 43.754917 135 135 135 0
3.637889 2.246932 43.672139 139 139 139 0
3.735753 2.241452 43.565637 138 138 138 0
3.832797 2.235798 43.455750 134 134 134 0
3.923148 2.226651 43.277966 128 128 128 0
4.012012 2.217164 43.093576 136 136 136 0
4.106958 2.211439 42.982294 133 133 133 0
4.205359 2.207813 42.911823 136 136 136 0
4.297113 2.200961 42.778630 132 132 132 0
4.387795 2.193897 42.641348 136 136 136 0
4.486825 2.191240 42.589699 135 135 135 0
4.574961 2.183504 42.439342 132 132 132 0
4.673320 2.180883 42.388392 139 139 139 0
4.766035 2.175798 42.289571 139 139 139 0
4.860749 2.171824 42.212324 138 138 138 0
4.954894 2.167766 42.133452 140 140 140 0
5.051338 2.164859 42.076947 140 140 140 0
5.147781 2.162068 42.022699 141 141 141 0
5.246205 2.160202 41.986437 140 140 140 0
5.352097 2.161424 42.010180 140 140 140 0
5.450774 2.159741 41.977466 137 137 137 0
5.554529 2.160095 41.984347 135 135 135 0
5.659500 2.160900 42.000000 129 129 129 0
5.761056 2.160396 41.990203 129 129 129 0
5.871397 2.163146 42.043660 129 129 129 0
5.976167 2.163785 42.056066 130 130 130 0
6.082747 2.165046 42.080574 130 130 130 0
6.186708 2.165348 42.086452 128 128 128 0
6.295186 2.167195 42.122354 127 127 127 0
6.404998 2.169435 42.165883 127 127 127 0
6.515295 2.171765 42.211173 126 126 126 0
6.619739 2.172102 42.217723 128 128 128 0
6.720705 2.171305 42.202231 127 127 127 0
6.846116 2.178310 42.338379 127 127 127 0
6.945554 2.176965 42.312241 127 127 127 0
7.046381 2.176088 42.295207 127 127 127 0
7.159330 2.178927 42.350371 126 126 126 0
7.285061 2.185518 42.478487 122 122 122 0
7.380445 2.182949 42.428544 118 118 118 0
7.499529 2.187363 42.514338 110 110 110 0
7.625293 2.193577 42.635131 100 100 100 0
7.744211 2.197682 42.714900 98 98 98 0
7.897775 2.211377 42.981087 101 101 101 0
8.005542 2.212058 42.994318 103 103 103 0
8.284528 2.259417 43.914805 93 93 93 0
8.456146 2.247836 43.689724 79 79 79 0
-7.719288 2.122804 39.384122 113 113 113 0
-7.622242 2.122650 39.381254 114 114 114 0
-6.964158 1.964250 36.442480 112 112 112 0
-7.474516 2.135576 39.621077 107 107 107 0
-6.822729 1.975000 36.641938 110 110 110 0
-6.740998 1.977359 36.685704 112 112 112 0
-6.665680 1.981689 36.766021 112 112 112 0
-6.607132 1.991190 36.942307 110 110 110 0
-6.522644 1.993030 36.976438 109 109 109 0
-6.459477 2.001528 37.134101 106 106 106 0
-6.403722 2.012598 37.339488 110 110 110 0
-6.323216 2.016098 37.404414 103 103 103 0
-6.245841 2.020713 37.490041 111 111 111 0
-6.149578 2.019264 37.463161 113 113 113 0
-6.108547 2.036182 37.777036 113 113 113 0
-6.016767 2.036444 37.781895 117 117 117 0
-6.345565 2.181288 40.469166 98 98 98 0
-5.860992 2.046695 37.972086 94 94 94 0
-6.370447 2.260481 41.938427 132 132 132 0
-6.286094 2.267116 42.061520 150 150 150 0
-6.188407 2.269083 42.098007 151 151 151 0
-6.104207 2.276145 42.229033 152 152 152 0
-6.016491 2.282117 42.339836 160 160 160 0
-5.913545 2.282421 42.345471 158 158 158 0
-5.787215 2.273549 42.180866 156 156 156 0
-5.655456 2.262182 41.969988 148 148 148 0
-5.513920 2.246412 41.677401 150 150 150 0
-5.394041 2.239036 41.540555 146 146 146 0
-5.271860 2.230402 41.380376 143 143 143 0
-5.143411 2.218726 41.163751 145 145 145 0
-5.017692 2.207785 40.960752 145 145 145 0
-4.893723 2.197182 40.764043 135 135 135 0
-4.763256 2.183159 40.503878 140 140 140 0
-4.638239 2.171091 40.279974 140 140 140 0
-4.514759 2.159233 40.059973 141 141 141 0
-4.395268 2.148798 39.866377 141 141 141 0
-4.284620 2.142310 39.746009 137 137 137 0
-4.173451 2.135254 39.615098 138 138 138 0
-4.058279 2.125765 39.439053 135 135 135 0
-3.955890 2.122673 39.381681 139 139 139 0
-3.850272 2.117650 39.288491 137 137 137 0
-3.745563 2.112882 39.200030 135 135 135 0
-3.644869 2.110187 39.150046 133 133 133 0
-3.548761 2.110074 39.147945 133 133 133 0
-3.451929 2.109512 39.137512 128 128 128 0
-3.346599 2.103576 39.027393 127 127 127 0
-3.253771 2.105381 39.060879 129 129 129 0
-3.161040 2.107360 39.097593 129 129 129 0
-3.059601 2.103476 39.025521 129 129 129 0
-2.955935 2.097760 38.919486 129 129 129 0
-2.865022 2.101016 38.979886 130 130 130 0
-2.767266 2.099305 38.948145 128 128 128 0
-2.671029 2.098666 38.936287 123 123 123 0
-2.573523 2.096945 38.904357 122 122 122 0
-2.481382 2.099631 38.954187 114 114 114 0
-2.390100 2.103288 39.022033 114 114 114 0
-2.299520 2.107893 39.107481 117 117 117 0
-2.206690 2.110747 39.160425 124 124 124 0
-2.114385 2.114385 39.227916 129 129 129 0
-2.019281 2.115437 39.247444 128 128 128 0
-1.928719 2.121591 39.361615 127 127 127 0
-1.834720 2.124413 39.413962 122 122 122 0
-1.739023 2.125472 39.433622 118 118 118 0
-1.644228 2.127825 39.477269 117 117 117 0
-1.553186 2.135631 39.622087 119 119 119 0
-1.457339 2.137430 39.655478 112 112 112 0
-1.357309 2.132914 39.571681 109 109 109 0
-1.263490 2.138213 39.670009 116 116 116 0
-1.173124 2.150727 39.902164 120 120 120 0
-1.078918 2.157837 40.034077 140 140 140 0
-0.982320 2.161104 40.094694 143 143 143 0
-0.884266 2.161539 40.102772 148 148 148 0
-0.786444 2.162722 40.124708 146 146 146 0
-0.686816 2.158565 40.047591 147 147 147 0
-0.587099 2.152698 39.938735 147 147 147 0
-0.489025 2.151709 39.920391 148 148 148 0
-0.390731 2.149021 39.870519 147 147 147 0
-0.292967 2.148426 39.859486 149 149 149 0
-0.195326 2.148590 39.862519 151 151 151 0
-0.097595 2.147081 39.834521 153 153 153 0
0.000000 2.144910 39.794258 153 153 153 0
0.097495 2.144887 39.793817 153 153 153 0
0.195185 2.147036 39.833690 148 148 148 0
0.292513 2.145093 39.797637 143 143 143 0
0.389754 2.143647 39.770810 144 144 144 0
0.487961 2.147030 39.833577 138 138 138 0
0.585534 2.146958 39.832247 136 136 136 0
0.683138 2.147005 39.833120 134 134 134 0
0.781736 2.149773 39.884480 132 132 132 0
0.879784 2.150582 39.899490 131 131 131 0
0.978290 2.152237 39.930193 127 127 127 0
1.077055 2.154109 39.964922 126 126 126 0
1.176654 2.157199 40.022244 124 124 124 0
1.275475 2.158496 40.046310 125 125 125 0
1.376746 2.163458 40.138362 122 122 122 0
1.475679 2.164330 40.154544 120 120 120 0
1.576042 2.167057 40.205144 116 116 116 0
1.675475 2.168262 40.227490 113 113 113 0
1.782026 2.178032 40.408754 109 109 109 0
1.649818 1.910316 35.441856 105 105 105 0
1.986753 2.185428 40.545977 102 102 102 0
2.093060 2.192729 40.681431 101 101 101 0
1.930851 1.930851 35.822840 103 103 103 0
2.031943 1.943597 36.059317 83 83 83 0
2.006443 1.839239 34.123175 83 83 83 0
2.125568 1.870500 34.703150 85 85 85 0
2.271539 1.922071 35.659951 83 83 83 0
3.204080 2.349658 43.592919 75 75 75 0
3.330199 2.363367 43.847250 133 133 133 0
3.440405 2.365278 43.882718 133 133 133 0
3.540030 2.360020 43.785164 137 137 137 0
3.627728 2.347354 43.550159 134 134 134 0
3.738782 2.350092 43.600961 137 137 137 0
3.830881 2.341094 43.434028 131 131 131 0
3.915180 2.327945 43.190069 125 125 125 0
4.012031 2.322755 43.093778 131 131 131 0
4.108206 2.317449 42.995352 136 136 136 0
4.197692 2.308730 42.833590 138 138 138 0
4.291964 2.303005 42.727370 137 137 137 0
4.383889 2.296323 42.603388 134 134 134 0
4.486306 2.295319 42.584771 140 140 140 0
4.572818 2.286409 42.419467 135 135 135 0
4.662412 2.279401 42.289448 134 134 134 0
4.766061 2.279421 42.289805 135 135 135 0
4.859049 2.274448 42.197556 138 138 138 0
4.948307 2.267974 42.077436 138 138 138 0
5.050473 2.267559 42.069746 141 141 141 0
5.143050 2.262942 41.984085 145 145 145 0
5.244131 2.262174 41.969839 144 144 144 0
5.347033 2.262206 41.970432 138 138 138 0
5.448242 2.261535 41.957970 135 135 135 0
5.550186 2.261187 41.951523 131 131 131 0
5.653718 2.261487 41.957089 130 130 130 0
5.763748 2.264330 42.009824 127 127 127 0
5.872143 2.266441 42.049001 129 129 129 0
5.974067 2.266025 42.041288 129 129 129 0
6.083490 2.268420 42.085712 128 128 128 0
6.190267 2.269765 42.110660 127 127 127 0
6.294682 2.270213 42.118983 125 125 125 0
6.401138 2.271372 42.140475 126 126 126 0
6.518293 2.276229 42.230602 126 126 126 0
6.626730 2.277939 42.262311 127 127 127 0
6.726028 2.276502 42.235656 126 126 126 0
6.849785 2.283262 42.361069 128 128 128 0
6.947952 2.281417 42.326849 127 127 127 0
7.051586 2.281395 42.326446 126 126 126 0
7.160831 2.283164 42.359250 123 123 123 0
7.285026 2.289579 42.478284 120 120 120 0
7.379115 2.286486 42.420897 115 115 115 0
7.513199 2.295700 42.591833 105 105 105 0
7.630895 2.299722 42.666452 97 97 97 0
7.752225 2.304716 42.759102 99 99 99 0
7.871215 2.308890 42.836542 101 101 101 0
8.008042 2.318118 43.007747 102 102 102 0
8.285145 2.367184 43.918074 93 93 93 0
-7.689611 2.210763 39.232709 114 114 114 0
-7.605156 2.214159 39.292977 112 112 112 0
-6.949704 2.049272 36.366842 110 110 110 0
-6.875890 2.053837 36.447866 110 110 110 0
-6.802764 2.058731 36.534716 106 106 106 0
-6.732401 2.064603 36.638920 109 109 109 0
-6.654253 2.068214 36.702994 112 112 112 0
-6.581351 2.073576 36.798162 107 107 107 0
-6.487932 2.072534 36.779662 102 102 102 0
-6.437788 2.085481 37.009419 106 106 106 0
-6.379720 2.096194 37.199535 108 108 108 0
-6.312592 2.104197 37.341568 110 110 110 0
-6.231018 2.107550 37.401070 112 112 112 0
-6.188962 2.124569 37.703087 108 108 108 0
-6.046009 2.106943 37.390286 107 107 107 0
-6.208007 2.196679 38.982775 124 124 124 0
-6.332664 2.275801 40.386890 115 115 115 0
-6.327968 2.310211 40.997527 100 100 100 0
-6.301350 2.337598 41.483543 106 106 106 0
-6.281406 2.368399 42.030152 132 132 132 0
-6.202599 2.377663 42.194553 147 147 147 0
-6.112378 2.382791 42.285562 158 158 158 0
-6.021590 2.387872 42.375722 158 158 158 0
-5.911166 2.385207 42.328432 150 150 150 0
-5.778803 2.373437 42.119559 155 155 155 0
-5.639635 2.358393 41.852580 150 150 150 0
-5.509303 2.346555 41.642501 145 145 145 0
-5.387681 2.338050 41.491577 150 150 150 0
-5.260899 2.326936 41.294342 143 143 143 0
-5.137820 2.317056 41.119007 143 143 143 0
-5.017692 2.308138 40.960752 142 142 142 0
-4.888348 2.294531 40.719266 141 141 141 0
-4.751055 2.276547 40.400131 140 140 140 0
-4.636184 2.268771 40.262131 142 142 142 0
-4.516200 2.258100 40.072760 142 142 142 0
-4.398034 2.247884 39.891463 141 141 141 0
-4.286673 2.240761 39.765055 143 143 143 0
-4.181750 2.236750 39.693874 143 143 143 0
-4.073370 2.230655 39.585711 136 136 136 0
-3.967052 2.225419 39.492801 139 139 139 0
-3.864950 2.222346 39.438269 137 137 137 0
-3.762501 2.218911 39.377297 136 136 136 0
-3.655558 2.212575 39.264856 136 136 136 0
-3.563047 2.214867 39.305536 131 131 131 0
-3.462068 2.211877 39.252469 133 133 133 0
-3.364954 2.211256 39.241448 135 135 135 0
-3.269059 2.211422 39.244401 135 135 135 0
-3.169088 2.208758 39.197128 132 132 132 0
-3.072346 2.208249 39.188089 138 138 138 0
-2.974479 2.206872 39.163650 138 138 138 0
-2.880238 2.208183 39.186912 133 133 133 0
-2.776970 2.202425 39.084732 133 133 133 0
-2.679044 2.200643 39.053118 129 129 129 0
-2.580766 2.198430 39.013841 124 124 124 0
-2.488932 2.201748 39.072717 124 124 124 0
-2.394266 2.202725 39.090055 127 127 127 0
-2.303752 2.207762 39.179449 132 132 132 0
-2.210570 2.210570 39.229273 133 133 133 0
-2.113688 2.209765 39.214995 133 133 133 0
-2.019738 2.212094 39.256327 131 131 131 0
-1.927187 2.216265 39.330353 128 128 128 0
-1.832412 2.218183 39.364381 125 125 125 0
-1.737624 2.220298 39.401909 119 119 119 0
-1.643132 2.223061 39.450949 118 118 118 0
-1.551861 2.230800 39.588292 116 116 116 0
-1.455504 2.231772 39.605543 116 116 116 0
-1.360866 2.235709 39.675408 110 110 110 0
-1.263625 2.235645 39.674260 108 108 108 0
-1.169056 2.240692 39.763825 116 116 116 0
-1.076729 2.251342 39.952829 133 133 133 0
-0.981915 2.258405 40.078181 147 147 147 0
-0.885487 2.262912 40.158151 145 145 145 0
-0.786972 2.262545 40.151650 144 144 144 0
-0.687616 2.259310 40.094226 145 145 145 0
-0.588300 2.255149 40.020392 146 146 146 0
-0.489222 2.250419 39.936454 149 149 149 0
-0.391168 2.249214 39.915074 149 149 149 0
-0.292897 2.245543 39.849924 149 149 149 0
-0.195334 2.246339 39.864041 152 152 152 0
-0.097596 2.244704 39.835033 153 153 153 0
0.000000 2.243576 39.815012 152 152 152 0
0.097539 2.243400 39.811889 152 152 152 0
0.195153 2.244262 39.827191 148 148 148 0
0.292550 2.242885 39.802754 145 145 145 0
0.389846 2.241613 39.780186 142 142 142 0
0.487973 2.244676 39.834540 140 140 140 0
0.585569 2.244679 39.834596 137 137 137 0
0.682935 2.243929 39.821282 135 135 135 0
0.781225 2.246022 39.858423 134 134 134 0
0.880206 2.249415 39.918630 133 133 133 0
0.977821 2.248988 39.911064 130 130 130 0
1.076972 2.251850 39.961848 127 127 127 0
1.176360 2.254689 40.012236 125 125 125 0
1.275142 2.256021 40.035870 125 125 125 0
1.374814 2.258624 40.082051 122 122 122 0
1.475125 2.261859 40.139467 120 120 120 0
1.575471 2.264739 40.190582 120 120 120 0
1.675315 2.266603 40.223650 114 114 114 0
1.780173 2.274666 40.366743 111 111 111 0
1.648668 1.995756 35.417141 107 107 107 0
1.983526 2.281055 40.480122 102 102 102 0
2.090542 2.289641 40.632492 101 101 101 0
1.919904 2.007173 35.619744 99 99 99 0
2.007415 2.007415 35.624041 89 89 89 0
1.971506 1.889360 33.529010 84 84 84 0
2.160430 1.987596 35.272325 90 90 90 0
2.334066 2.064751 36.641545 85 85 85 0
3.204978 2.457150 43.605144 82 82 82 0
3.332082 2.472190 43.872042 125 125 125 0
3.434823 2.468779 43.811522 135 135 135 0
3.532075 2.461749 43.686761 137 137 137 0
3.629609 2.455324 43.572734 138 138 138 0
3.740610 2.458115 43.622279 129 129 129 0
3.821983 2.441823 43.333142 128 128 128 0
3.916849 2.434798 43.208480 131 131 131 0
4.005619 2.424454 43.024908 133 133 133 0
4.102692 2.419536 42.937645 132 132 132 0
4.198086 2.413900 42.837614 132 132 132 0
4.284107 2.403279 42.649147 134 134 134 0
4.377284 2.397084 42.539202 132 132 132 0
4.486757 2.399893 42.589057 137 137 137 0
4.565963 2.386753 42.355873 136 136 136 0
4.659242 2.381390 42.260694 135 135 135 0
4.761034 2.380517 42.245201 136 136 136 0
4.851336 2.374058 42.130578 137 137 137 0
4.945428 2.369684 42.052961 140 140 140 0
5.040572 2.365983 41.987272 147 147 147 0
5.142178 2.365402 41.976966 150 150 150 0
5.245163 2.365466 41.978093 150 150 150 0
5.346264 2.364694 41.964393 140 140 140 0
5.442431 2.361810 41.913219 132 132 132 0
5.550745 2.364206 41.955743 129 129 129 0
5.656499 2.365445 41.977728 128 128 128 0
5.767612 2.368840 42.037986 128 128 128 0
5.870686 2.368873 42.038569 128 128 128 0
5.976223 2.369882 42.056462 126 126 126 0
6.090868 2.374406 42.136753 128 128 128 0
6.196844 2.375457 42.155403 127 127 127 0
6.300868 2.375737 42.160377 127 127 127 0
6.406964 2.376777 42.178825 127 127 127 0
6.519366 2.380086 42.237554 127 127 127 0
6.624600 2.380716 42.248727 127 127 127 0
6.727914 2.380647 42.247500 127 127 127 0
6.849358 2.386897 42.358429 126 126 126 0
6.950988 2.386160 42.345345 126 126 126 0
7.054465 2.386069 42.343727 124 124 124 0
7.166584 2.388861 42.393280 122 122 122 0
7.287433 2.394442 42.492319 118 118 118 0
7.392078 2.394617 42.495420 112 112 112 0
7.519807 2.402161 42.629292 100 100 100 0
7.642466 2.407900 42.731150 96 96 96 0
7.762756 2.412748 42.817185 99 99 99 0
7.892231 2.420284 42.950915 104 104 104 0
8.019421 2.426930 43.068858 102 102 102 0
8.286528 2.475197 43.925407 91 91 91 0
-7.675559 2.302668 39.161016 114 114 114 0
-7.581925 2.303370 39.172953 113 113 113 0
-7.508398 2.310276 39.290412 109 109 109 0
-7.436493 2.317868 39.419521 111 111 111 0
-6.775868 2.139748 36.390269 109 109 109 0
-6.716081 2.149146 36.550101 105 105 105 0
-6.639396 2.153318 36.621047 105 105 105 0
-6.572617 2.160860 36.749327 109 109 109 0
-6.492681 2.164227 36.806584 104 104 104 0
-6.420312 2.170246 36.908954 105 105 105 0
-6.384919 2.189115 37.229850 107 107 107 0
-6.303473 2.192512 37.287625 107 107 107 0
-6.206466 2.190517 37.253697 106 106 106 0
-6.117131 2.191211 37.265494 110 110 110 0
-6.113550 2.223109 37.807979 113 113 113 0
-6.374458 2.353646 40.027993 112 112 112 0
-6.260135 2.347551 39.924333 111 111 111 0
-6.351039 2.419443 41.146995 111 111 111 0
-6.254451 2.421078 41.174791 98 98 98 0
-6.239478 2.454877 41.749601 105 105 105 0
-6.205859 2.482343 42.216725 141 141 141 0
-6.126426 2.492106 42.382749 156 156 156 0
-6.022836 2.492208 42.384493 155 155 155 0
-5.899075 2.483821 42.241856 150 150 150 0
-5.760774 2.468903 41.988148 147 147 147 0
-5.627714 2.455730 41.764114 151 151 151 0
-5.502167 2.445408 41.588565 145 145 145 0
-5.380189 2.436312 41.433880 144 144 144 0
-5.257162 2.426382 41.265007 142 142 142 0
-5.127853 2.413107 41.039238 142 142 142 0
-5.005554 2.402666 40.861662 138 138 138 0
-4.882746 2.391549 40.672602 139 139 139 0
-4.746988 2.373494 40.365547 138 138 138 0
-4.631376 2.364958 40.220376 141 141 141 0
-4.516974 2.356682 40.079631 139 139 139 0
-4.402570 2.348037 39.932605 144 144 144 0
-4.290081 2.340044 39.796666 148 148 148 0
-4.186055 2.336403 39.734740 146 146 146 0
-4.078795 2.330740 39.638436 144 144 144 0
-3.974051 2.326274 39.562478 142 142 142 0
-3.875479 2.325288 39.545708 143 143 143 0
-3.769476 2.319677 39.450295 142 142 142 0
-3.666922 2.315951 39.386923 142 142 142 0
-3.565572 2.312803 39.333388 143 143 143 0
-3.467954 2.311969 39.319208 139 139 139 0
-3.368226 2.309641 39.279603 144 144 144 0
-3.275389 2.312039 39.320398 141 141 141 0
-3.179333 2.312243 39.323852 142 142 142 0
-3.079770 2.309827 39.282777 141 141 141 0
-2.979908 2.307026 39.235133 142 142 142 0
-2.887236 2.309789 39.282120 140 140 140 0
-2.783668 2.303725 39.178996 138 138 138 0
-2.686620 2.302817 39.163557 137 137 137 0
-2.590835 2.302965 39.166067 137 137 137 0
-2.495056 2.303129 39.168861 137 137 137 0
-2.396927 2.301050 39.133509 140 140 140 0
-2.304373 2.304373 39.190014 144 144 144 0
-2.210906 2.307032 39.235236 141 141 141 0
-2.114066 2.306254 39.222007 136 136 136 0
-2.018533 2.306894 39.232899 130 130 130 0
