ply
format ascii 1.0
element vertex 1104
property float x
property float y
property float z
property uchar red
property uchar green
property uchar blue
property uchar alpha
end_header
-0.702052 -4.713777 40.935967 113 113 113 0
-0.674423 -5.282977 45.879088 108 108 108 0
-0.504111 -4.738639 41.151881 108 108 108 0
-0.451282 -5.302566 46.049206 109 109 109 0
-0.303999 -4.762643 41.360341 110 110 110 0
-0.225735 -5.304775 46.068389 112 112 112 0
-0.114815 -5.396318 46.863379 137 137 137 0
0.000000 -5.405859 46.946236 147 147 147 0
0.115217 -5.415209 47.027437 149 149 149 0
0.230163 -5.408832 46.972055 153 153 153 0
0.345205 -5.408215 46.966693 151 151 151 0
0.460283 -5.408330 46.967696 149 149 149 0
0.574473 -5.400048 46.895767 144 144 144 0
0.690055 -5.405433 46.942537 144 144 144 0
0.775658 -5.207991 45.227889 126 126 126 0
0.876906 -5.151820 44.740078 127 127 127 0
0.975408 -5.093798 44.236200 120 120 120 0
1.076320 -5.058705 43.931441 121 121 121 0
1.179661 -5.040371 43.772220 123 123 123 0
1.284474 -5.030856 43.689585 125 125 125 0
1.387192 -5.015232 43.553901 125 125 125 0
1.486182 -4.989324 43.328909 125 125 125 0
1.590632 -4.983980 43.282497 122 122 122 0
1.691877 -4.969888 43.160118 124 124 124 0
1.793046 -4.957244 43.050313 123 123 123 0
1.893563 -4.944303 42.937933 126 126 126 0
1.994123 -4.932831 42.838310 127 127 127 0
2.097863 -4.929978 42.813528 125 125 125 0
2.198013 -4.919363 42.721348 126 126 126 0
2.300422 -4.914539 42.679450 126 126 126 0
2.405066 -4.914700 42.680849 125 125 125 0
2.508382 -4.912248 42.659554 126 126 126 0
2.609709 -4.906253 42.607493 127 127 127 0
2.717141 -4.911756 42.655282 126 126 126 0
2.821062 -4.910738 42.646445 124 124 124 0
2.921695 -4.904273 42.590303 121 121 121 0
3.031897 -4.913764 42.672719 120 120 120 0
3.138370 -4.916780 42.698912 120 120 120 0
3.242208 -4.915606 42.688719 120 120 120 0
3.347331 -4.916392 42.695542 119 119 119 0
3.457899 -4.924887 42.769318 118 118 118 0
3.561748 -4.923593 42.758077 121 121 121 0
3.667848 -4.925396 42.773738 119 119 119 0
3.775210 -4.928746 42.802830 121 121 121 0
3.881104 -4.930051 42.814160 121 121 121 0
3.983672 -4.927173 42.789174 120 120 120 0
4.094158 -4.933986 42.848336 117 117 117 0
4.204628 -4.940437 42.904363 115 115 115 0
4.313288 -4.944500 42.939648 110 110 110 0
4.427475 -4.954555 43.026964 111 111 111 0
4.525617 -4.946605 42.957921 115 115 115 0
4.634014 -4.949970 42.987143 117 117 117 0
4.749086 -4.960156 43.075608 123 123 123 0
4.870507 -4.976388 43.216566 129 129 129 0
4.980518 -4.980518 43.252439 131 131 131 0
5.081822 -4.975950 43.212770 130 130 130 0
5.175681 -4.964429 43.112711 128 128 128 0
5.262607 -4.946851 42.960060 127 127 127 0
5.362636 -4.942037 42.918253 126 126 126 0
5.458205 -4.933378 42.843056 126 126 126 0
5.555460 -4.926540 42.783670 125 125 125 0
5.655634 -4.922496 42.748558 124 124 124 0
5.751334 -4.914776 42.681514 122 122 122 0
5.854989 -4.914008 42.674844 121 121 121 0
5.948388 -4.904811 42.594974 120 120 120 0
6.045140 -4.898648 42.541450 117 117 117 0
6.157248 -4.904926 42.595972 115 115 115 0
6.251944 -4.897356 42.530233 115 115 115 0
6.363500 -4.903024 42.579457 113 113 113 0
6.465357 -4.901158 42.563247 113 113 113 0
6.575225 -4.905327 42.599449 110 110 110 0
6.676126 -4.902780 42.577335 110 110 110 0
6.787055 -4.907563 42.618868 108 108 108 0
6.092223 -4.338401 37.676086 107 107 107 0
7.011723 -4.918672 42.715341 106 106 106 0
6.130208 -4.237056 36.795968 100 100 100 0
6.518023 -4.439813 38.556779 100 100 100 0
6.766625 -4.543305 39.455539 96 96 96 0
6.867368 -4.546004 39.478979 94 94 94 0
6.809880 -4.445338 38.604760 97 97 97 0
7.380606 -4.751897 41.267016 94 94 94 0
7.165829 -4.551270 39.524706 93 93 93 0
7.591010 -4.757033 41.311618 94 94 94 0
8.033507 -4.968090 43.144505 92 92 92 0
8.014025 -4.891678 42.480916 94 94 94 0
8.534112 -5.142350 44.657834 97 97 97 0
8.689288 -5.169576 44.894279 97 97 97 0
-9.539578 -5.485257 48.671314 144 144 144 0
-9.406537 -5.477224 48.600037 146 146 146 0
-9.294922 -5.481621 48.639049 144 144 144 0
-9.168655 -5.477379 48.601407 149 149 149 0
-9.038187 -5.470482 48.540209 151 151 151 0
-8.920061 -5.470971 48.544551 141 141 141 0
-8.802147 -5.471605 48.550176 137 137 137 0
-8.697621 -5.480693 48.630813 148 148 148 0
-8.590584 -5.488429 48.699457 142 142 142 0
-8.261073 -5.352244 47.491075 119 119 119 0
-8.095160 -5.319677 47.202100 116 116 116 0
-7.942326 -5.294884 46.982114 115 115 115 0
-7.798646 -5.275554 46.810599 115 115 115 0
-7.672561 -5.267728 46.741157 115 115 115 0
-7.547564 -5.260423 46.676339 113 113 113 0
-7.423161 -5.253314 46.613258 115 115 115 0
-7.309372 -5.253611 46.615890 113 113 113 0
-7.197660 -5.255434 46.632067 114 114 114 0
-7.078753 -5.251978 46.601403 114 114 114 0
-6.969127 -5.255407 46.631832 113 113 113 0
-6.860749 -5.259907 46.671759 114 114 114 0
-6.746431 -5.259929 46.671956 110 110 110 0
-6.119597 -4.853474 43.065427 117 117 117 0
-6.533239 -5.272438 46.782948 112 112 112 0
-6.425663 -5.278223 46.834276 110 110 110 0
-6.327823 -5.292361 46.959724 110 110 110 0
-6.210820 -5.290699 46.944976 112 112 112 0
-5.628437 -4.885059 43.345685 112 112 112 0
-6.006645 -5.313571 47.147922 108 108 108 0
-5.900742 -5.322238 47.224823 109 109 109 0
-5.787722 -5.324704 47.246711 116 116 116 0
-5.688965 -5.340661 47.388295 107 107 107 0
-5.572614 -5.340421 47.386170 114 114 114 0
-5.479125 -5.362548 47.582502 123 123 123 0
-5.383514 -5.383514 47.768539 151 151 151 0
-5.288416 -5.405937 47.967495 153 153 153 0
-5.148199 -5.382208 47.756944 149 149 149 0
-5.021062 -5.371369 47.660768 152 152 152 0
-4.911147 -5.378876 47.727378 154 154 154 0
-4.780299 -5.363263 47.588844 150 150 150 0
-4.659680 -5.358632 47.547752 149 149 149 0
-4.541797 -5.356991 47.533197 152 152 152 0
-4.415535 -5.345121 47.427870 151 151 151 0
-4.307246 -5.354954 47.515124 144 144 144 0
-4.155922 -5.310344 47.119294 130 130 130 0
-3.978281 -5.228598 46.393946 122 122 122 0
-3.840879 -5.196483 46.108990 123 123 123 0
-3.712398 -5.174857 45.917100 121 121 121 0
-3.583986 -5.151979 45.714103 118 118 118 0
-3.459930 -5.134089 45.555361 120 120 120 0
-3.342143 -5.124619 45.471332 120 120 120 0
-3.215503 -5.100453 45.256902 118 118 118 0
-3.098522 -5.090429 45.167958 118 118 118 0
-2.982478 -5.081258 45.086587 117 117 117 0
-2.867268 -5.072859 45.012055 116 116 116 0
-2.751291 -5.062376 44.919043 116 116 116 0
-2.638478 -5.057083 44.872079 118 118 118 0
-2.530806 -5.061612 44.912265 117 117 117 0
-2.419933 -5.059860 44.896721 114 114 114 0
-2.308824 -5.057424 44.875098 117 117 117 0
-2.201004 -5.062308 44.918439 117 117 117 0
-2.091963 -5.064754 44.940139 113 113 113 0
-1.982213 -5.065654 44.948130 115 115 115 0
-1.875297 -5.074333 45.025135 111 111 111 0
-1.764889 -5.074056 45.022678 114 114 114 0
-1.658326 -5.085534 45.124526 114 114 114 0
-1.549090 -5.089867 45.162972 110 110 110 0
-1.440458 -5.097005 45.226306 108 108 108 0
-1.330423 -5.099954 45.252477 112 112 112 0
-1.222429 -5.111976 45.359145 108 108 108 0
-1.113103 -5.120274 45.432779 106 106 106 0
-0.904190 -4.621416 41.006352 111 111 111 0
-0.804156 -4.623899 41.028387 106 106 106 0
-0.705240 -4.634433 41.121856 110 110 110 0
-0.672738 -5.157661 45.764513 110 110 110 0
-0.507292 -4.667088 41.411608 109 109 109 0
-0.406998 -4.680478 41.530414 113 113 113 0
-0.305967 -4.691490 41.628128 109 109 109 0
-0.228954 -5.265951 46.725390 125 125 125 0
-0.115109 -5.294996 46.983102 148 148 148 0
0.000000 -5.296278 46.994484 153 153 153 0
0.115186 -5.298544 47.014589 151 151 151 0
0.230032 -5.290740 46.945344 147 147 147 0
0.345395 -5.296053 46.992481 154 154 154 0
0.459583 -5.285206 46.896239 150 150 150 0
0.574441 -5.284860 46.893164 148 148 148 0
0.689466 -5.285902 46.902417 142 142 142 0
0.784697 -5.156580 45.754928 131 131 131 0
0.879860 -5.059192 44.890792 125 125 125 0
0.979626 -5.006978 44.427490 122 122 122 0
1.079629 -4.966295 44.066508 122 122 122 0
1.182411 -4.944627 43.874243 118 118 118 0
1.286356 -4.931032 43.753616 123 123 123 0
1.389432 -4.916453 43.624252 123 123 123 0
1.489039 -4.892557 43.412223 121 121 121 0
1.592558 -4.883846 43.334923 121 121 121 0
1.694994 -4.873109 43.239654 122 122 122 0
1.796330 -4.860657 43.129164 123 123 123 0
1.896399 -4.846353 43.002243 125 125 125 0
1.999842 -4.841723 42.961166 126 126 126 0
2.101578 -4.833629 42.889345 124 124 124 0
2.203918 -4.827631 42.836119 124 124 124 0
2.306014 -4.821665 42.783183 124 124 124 0
2.410595 -4.821190 42.778975 126 126 126 0
2.513915 -4.818338 42.753663 125 125 125 0
2.614373 -4.810447 42.683647 124 124 124 0
2.723338 -4.818213 42.752555 123 123 123 0
2.827661 -4.817496 42.746192 124 124 124 0
2.928020 -4.810319 42.682511 120 120 120 0
3.036561 -4.816613 42.738362 119 119 119 0
3.142670 -4.818760 42.757411 118 118 118 0
3.246884 -4.817957 42.750281 120 120 120 0
3.352966 -4.819888 42.767422 116 116 116 0
3.463853 -4.828401 42.842955 116 116 116 0
3.568952 -4.828581 42.844556 117 117 117 0
3.671004 -4.824748 42.810539 118 118 118 0
3.783388 -4.834329 42.895555 120 120 120 0
3.886158 -4.831439 42.869913 118 118 118 0
3.991863 -4.832255 42.877152 118 118 118 0
4.101471 -4.837632 42.924864 114 114 114 0
4.212265 -4.844105 42.982298 111 111 111 0
4.324466 -4.851840 43.050934 111 111 111 0
4.432666 -4.854824 43.077413 110 110 110 0
4.539426 -4.856130 43.088995 112 112 112 0
4.648399 -4.859690 43.120588 113 113 113 0
4.767070 -4.873005 43.238729 118 118 118 0
4.873337 -4.873337 43.241677 126 126 126 0
4.990403 -4.884225 43.338285 129 129 129 0
5.090122 -4.878034 43.283353 130 130 130 0
5.178204 -4.861171 43.133729 128 128 128 0
5.275024 -4.853022 43.061417 128 128 128 0
5.368944 -4.842577 42.968741 127 127 127 0
5.471241 -4.839944 42.945376 127 127 127 0
5.566298 -4.831127 42.867142 126 126 126 0
5.668719 -4.828909 42.847460 124 124 124 0
5.766239 -4.822673 42.792129 123 123 123 0
5.865314 -4.817936 42.750099 122 122 122 0
5.967932 -4.816225 42.734920 118 118 118 0
6.064561 -4.809824 42.678120 117 117 117 0
6.172003 -4.812070 42.698047 116 116 116 0
6.274521 -4.810466 42.683814 115 115 115 0
6.379818 -4.811010 42.688645 115 115 115 0
6.484024 -4.810727 42.686136 113 113 113 0
6.592835 -4.813816 42.713542 111 111 111 0
6.696537 -4.813136 42.707509 108 108 108 0
6.812836 -4.821392 42.780762 107 107 107 0
6.924194 -4.825953 42.821237 103 103 103 0
6.186236 -4.247267 37.686482 100 100 100 0
7.147371 -4.834986 42.901388 97 97 97 0
6.524066 -4.349377 38.592521 96 96 96 0
6.469428 -4.251338 37.722613 93 93 93 0
6.870819 -4.451517 39.498818 96 96 96 0
7.122284 -4.550348 40.375757 95 95 95 0
7.229227 -4.555403 40.420616 95 95 95 0
7.331247 -4.557262 40.437103 93 93 93 0
7.760639 -4.759859 42.234771 93 93 93 0
8.016275 -4.851956 43.051958 90 90 90 0
8.254624 -4.931334 43.756290 97 97 97 0
8.398374 -4.952887 43.947533 92 92 92 0
8.708171 -5.070581 44.991842 79 79 79 0
-9.544163 -5.368591 48.694707 139 139 139 0
-9.416389 -5.363766 48.650939 143 143 143 0
-9.301241 -5.366100 48.672112 145 145 145 0
-9.172685 -5.360660 48.622766 147 147 147 0
-9.045873 -5.356109 48.581489 149 149 149 0
-8.932721 -5.359632 48.613447 147 147 147 0
-8.791971 -5.346469 48.494046 136 136 136 0
-8.696831 -5.361060 48.626394 145 145 145 0
-8.599085 -5.374428 48.747647 148 148 148 0
-8.439225 -5.348805 48.515234 133 133 133 0
-8.148256 -5.238164 47.511694 118 118 118 0
-7.994393 -5.213734 47.290107 114 114 114 0
-7.836124 -5.185670 47.035557 114 114 114 0
-7.701996 -5.172982 46.920476 114 114 114 0
-7.574080 -5.164145 46.840321 113 113 113 0
-7.448066 -5.156354 46.769647 116 116 116 0
-7.333080 -5.156072 46.767091 114 114 114 0
-7.215078 -5.153627 46.744917 113 113 113 0
-7.097095 -5.151118 46.722154 113 113 113 0
-6.994061 -5.159554 46.798672 116 116 116 0
-6.879774 -5.159830 46.801183 114 114 114 0
-6.771428 -5.164649 46.844886 113 113 113 0
-6.663210 -5.169732 46.890995 111 111 111 0
-6.549727 -5.170837 46.901016 108 108 108 0
-6.444219 -5.178390 46.969525 110 110 110 0
-6.336293 -5.184240 47.022583 111 111 111 0
-6.228444 -5.190370 47.078185 113 113 113 0
-6.123070 -5.198833 47.154945 110 110 110 0
-6.032698 -5.220604 47.352416 108 108 108 0
-5.916477 -5.220421 47.350756 109 109 109 0
-5.798523 -5.218671 47.334881 109 109 109 0
-5.699812 -5.234521 47.478650 113 113 113 0
-5.598513 -5.248606 47.606400 120 120 120 0
-5.499674 -5.265645 47.760951 139 139 139 0
-5.398692 -5.281329 47.903215 156 156 156 0
-5.281322 -5.281322 47.903145 144 144 144 0
-5.141164 -5.258008 47.691686 152 152 152 0
-5.020215 -5.253714 47.652732 151 151 151 0
-4.911199 -5.261999 47.727881 153 153 153 0
-4.784403 -5.251174 47.629695 147 147 147 0
-4.661303 -5.243966 47.564317 148 148 148 0
-4.543810 -5.242858 47.554270 151 151 151 0
-4.418147 -5.232017 47.455934 152 152 152 0
-4.307280 -5.238584 47.515498 143 143 143 0
-4.186840 -5.233549 47.469836 138 138 138 0
-3.996271 -5.138063 46.603748 126 126 126 0
-3.851686 -5.097819 46.238724 121 121 121 0
-3.726563 -5.081677 46.092309 121 121 121 0
-3.597384 -5.058821 45.884996 121 121 121 0
-3.471528 -5.039315 45.708072 120 120 120 0
-3.351828 -5.027742 45.603102 117 117 117 0
-3.229130 -5.010719 45.448697 118 118 118 0
-3.110288 -4.998676 45.339469 117 117 117 0
-2.994989 -4.991649 45.275725 115 115 115 0
-2.875783 -4.977317 45.145735 116 116 116 0
-2.760217 -4.968391 45.064771 115 115 115 0
-2.649707 -4.968201 45.063051 116 116 116 0
-2.536509 -4.962735 45.013468 114 114 114 0
-2.426088 -4.962453 45.010909 117 117 117 0
-2.316943 -4.964877 45.032896 116 116 116 0
-2.207579 -4.967053 45.052639 115 115 115 0
-2.096334 -4.965002 45.034034 114 114 114 0
-1.989382 -4.973454 45.110696 112 112 112 0
-1.879138 -4.974189 45.117361 114 114 114 0
-1.772439 -4.984986 45.215292 112 112 112 0
-1.663988 -4.991965 45.278594 113 113 113 0
-1.399439 -4.498198 40.799982 112 112 112 0
-1.443811 -4.997807 45.331583 110 110 110 0
-1.335918 -5.009694 45.439402 110 110 110 0
-1.224608 -5.009759 45.439990 108 108 108 0
-1.115350 -5.019075 45.524490 110 110 110 0
-1.005398 -5.026988 45.596264 107 107 107 0
-0.896786 -5.044420 45.754375 106 106 106 0
-0.708937 -4.557455 41.337461 105 105 105 0
-0.676084 -5.070629 45.992104 111 111 111 0
-0.507970 -4.571726 41.466898 112 112 112 0
-0.450384 -5.066825 45.957592 113 113 113 0
-0.341851 -5.127758 46.510275 118 118 118 0
-0.229873 -5.172132 46.912759 141 141 141 0
-0.115172 -5.182731 47.008900 145 145 145 0
0.000000 -5.178542 46.970899 147 147 147 0
0.115001 -5.175058 46.939305 150 150 150 0
0.230419 -5.184432 47.024328 152 152 152 0
0.344992 -5.174878 46.937668 154 154 154 0
0.459562 -5.170077 46.894125 151 151 151 0
0.573649 -5.162843 46.828505 152 152 152 0
0.688815 -5.166109 46.858130 146 146 146 0
0.795892 -5.116449 46.407700 136 136 136 0
0.884092 -4.973019 45.106747 126 126 126 0
0.984445 -4.922227 44.646047 121 121 121 0
1.083234 -4.874554 44.213645 118 118 118 0
1.187128 -4.856434 44.049284 121 121 121 0
1.289022 -4.833833 43.844291 121 121 121 0
1.391851 -4.817945 43.700186 124 124 124 0
1.494071 -4.802370 43.558914 121 121 121 0
1.597294 -4.791882 43.463780 121 121 121 0
1.699363 -4.779458 43.351092 121 121 121 0
1.800209 -4.765259 43.222307 121 121 121 0
1.903750 -4.759376 43.168941 122 122 122 0
2.005192 -4.749139 43.076090 123 123 123 0
2.107715 -4.742358 43.014584 126 126 126 0
2.208856 -4.733263 42.932089 124 124 124 0
2.310983 -4.727011 42.875384 124 124 124 0
2.415287 -4.725561 42.862231 123 123 123 0
2.517148 -4.719652 42.808633 123 123 123 0
2.621342 -4.718416 42.797427 122 122 122 0
2.726752 -4.719378 42.806153 122 122 122 0
2.832594 -4.720989 42.820765 120 120 120 0
2.934694 -4.716473 42.779796 117 117 117 0
3.042654 -4.721360 42.824129 118 118 118 0
3.148250 -4.722375 42.833330 118 118 118 0
3.254572 -4.724378 42.851505 116 116 116 0
3.361236 -4.726738 42.872903 114 114 114 0
3.468109 -4.729239 42.895592 115 115 115 0
3.575460 -4.732227 42.922692 117 117 117 0
3.682889 -4.735143 42.949144 117 117 117 0
3.791352 -4.739191 42.985856 117 117 117 0
3.898175 -4.741023 43.002478 117 117 117 0
4.003601 -4.741107 43.003237 116 116 116 0
4.111337 -4.743850 43.028117 114 114 114 0
4.217588 -4.744787 43.036617 113 113 113 0
4.333745 -4.756549 43.143304 112 112 112 0
4.444467 -4.761929 43.192097 111 111 111 0
4.554160 -4.765982 43.228858 108 108 108 0
4.654399 -4.760181 43.176244 111 111 111 0
4.772426 -4.772426 43.287309 118 118 118 0
4.887029 -4.780789 43.363166 123 123 123 0
4.996316 -4.783707 43.389633 127 127 127 0
5.101231 -4.782404 43.377811 127 127 127 0
5.188834 -4.765256 43.222275 126 126 126 0
5.285843 -4.757258 43.149737 127 127 127 0
5.377123 -4.744520 43.034196 127 127 127 0
5.481808 -4.743872 43.028320 125 125 125 0
5.578780 -4.736700 42.963265 125 125 125 0
5.682010 -4.735008 42.947918 125 125 125 0
5.774736 -4.724784 42.855185 124 124 124 0
5.880351 -4.725282 42.859705 123 123 123 0
5.980199 -4.721210 42.822767 122 122 122 0
6.083457 -4.719924 42.811101 120 120 120 0
6.187510 -4.719288 42.805330 118 118 118 0
6.293924 -4.720443 42.815808 114 114 114 0
6.392001 -4.715410 42.770161 113 113 113 0
6.504610 -4.721088 42.821661 111 111 111 0
6.618984 -4.727846 42.882957 109 109 109 0
6.715298 -4.721694 42.827156 106 106 106 0
6.824629 -4.724743 42.854816 104 104 104 0
6.950234 -4.738796 42.982275 101 101 101 0
7.066236 -4.745980 43.047434 98 98 98 0
6.428462 -4.254129 38.586205 96 96 96 0
6.526379 -4.256334 38.606205 95 95 95 0
6.770732 -4.352613 39.479487 96 96 96 0
7.025614 -4.452854 40.388700 94 94 94 0
7.125890 -4.453681 40.396204 92 92 92 0
7.230244 -4.457000 40.426300 97 97 97 0
7.492158 -4.556042 41.324645 94 94 94 0
7.740413 -4.644248 42.124698 88 88 88 0
7.503048 -4.442594 40.295638 94 94 94 0
8.281153 -4.839635 43.896915 92 92 92 0
8.584987 -4.952877 44.924056 89 89 89 0
8.710694 -4.961788 45.004876 86 86 86 0
-9.554920 -5.255206 48.749590 140 140 140 0
-9.425058 -5.249399 48.695728 140 140 140 0
-9.304474 -5.248678 48.689031 140 140 140 0
-9.182483 -5.247133 48.674706 145 145 145 0
-9.050189 -5.239583 48.604666 144 144 144 0
-8.933794 -5.241159 48.619288 147 147 147 0
-8.797146 -5.230735 48.522592 139 139 139 0
-8.690135 -5.237889 48.588955 139 139 139 0
-8.595150 -5.252592 48.725339 145 145 145 0
-8.490084 -5.261461 48.807614 147 147 147 0
-8.294972 -5.213983 48.367186 132 132 132 0
-8.038096 -5.125743 47.548633 119 119 119 0
-7.881009 -5.099476 47.304976 114 114 114 0
-7.736353 -5.080590 47.129775 114 114 114 0
-7.605695 -5.070464 47.035840 113 113 113 0
-7.478813 -5.062581 46.962719 111 111 111 0
-7.357267 -5.058121 46.921344 112 112 112 0
-7.243046 -5.058635 46.926116 113 113 113 0
-7.118470 -5.051818 46.862872 113 113 113 0
-7.013034 -5.058582 46.925618 111 111 111 0
-6.904116 -5.063018 46.966776 110 110 110 0
-6.789209 -5.063139 46.967895 112 112 112 0
-6.682342 -5.069363 47.025628 111 111 111 0
-6.571464 -5.072709 47.056669 108 108 108 0
-6.459608 -5.075406 47.081691 112 112 112 0
-5.849705 -4.679764 43.411538 110 110 110 0
-6.256693 -5.098046 47.291706 111 111 111 0
-6.143119 -5.099947 47.309346 110 110 110 0
-6.040864 -5.111500 47.416515 113 113 113 0
-5.923818 -5.110745 47.409512 110 110 110 0
-5.813117 -5.115543 47.454016 116 116 116 0
-5.708050 -5.125596 47.547269 122 122 122 0
-5.620765 -5.152368 47.795622 140 140 140 0
-5.518625 -5.166372 47.925531 155 155 155 0
-5.406504 -5.171438 47.972527 148 148 148 0
-5.272345 -5.155182 47.821722 145 145 145 0
-5.140056 -5.140056 47.681410 145 145 145 0
-5.021721 -5.138505 47.667023 149 149 149 0
-4.911610 -5.145496 47.731871 154 154 154 0
-4.785161 -5.135294 47.637240 150 150 150 0
-4.664426 -5.130869 47.596188 149 149 149 0
-4.547444 -5.130449 47.592292 152 152 152 0
-4.418147 -5.115750 47.455934 151 151 151 0
-4.304602 -5.118986 47.485959 144 144 144 0
-4.198019 -5.130912 47.596588 139 139 139 0
-4.028539 -5.064450 46.980052 127 127 127 0
-3.874193 -5.013661 46.508919 121 121 121 0
-3.742657 -4.990210 46.291369 119 119 119 0
-3.611215 -4.965421 46.061417 120 120 120 0
-3.485263 -4.946825 45.888915 119 119 119 0
-3.363590 -4.933266 45.763131 119 119 119 0
-3.239103 -4.914502 45.589068 118 118 118 0
-3.119131 -4.901491 45.468376 119 119 119 0
-3.002396 -4.892794 45.387702 118 118 118 0
-2.886577 -4.884976 45.315175 118 118 118 0
-2.769355 -4.874065 45.213958 115 115 115 0
-2.656299 -4.869882 45.175160 117 117 117 0
-2.544014 -4.866810 45.146661 115 115 115 0
-2.431934 -4.863868 45.119370 114 114 114 0
-2.324565 -4.870517 45.181052 117 117 117 0
-2.211655 -4.865640 45.135808 115 115 115 0
-2.101546 -4.866739 45.146001 115 115 115 0
-1.994421 -4.875250 45.224956 115 115 115 0
-1.884687 -4.878015 45.250600 112 112 112 0
-1.774370 -4.879518 45.264542 112 112 112 0
-1.666490 -4.888372 45.346676 111 111 111 0
-1.558808 -4.899112 45.446304 112 112 112 0
-1.304787 -4.416202 40.966620 110 110 110 0
-1.337998 -4.905992 45.510133 112 112 112 0
-1.229159 -4.916636 45.608870 109 109 109 0
-1.009588 -4.442188 41.207682 109 109 109 0
-0.908948 -4.443747 41.222147 110 110 110 0
-0.808036 -4.444197 41.226315 108 108 108 0
-0.708579 -4.453924 41.316550 109 109 109 0
-0.610399 -4.476258 41.523732 109 109 109 0
-0.566440 -4.984675 46.240031 117 117 117 0
-0.407372 -4.481091 41.568558 118 118 118 0
-0.343732 -5.041403 46.766258 129 129 129 0
-0.229762 -5.054756 46.890130 146 146 146 0
-0.115159 -5.066986 47.003584 151 151 151 0
0.000000 -5.065943 46.993907 148 148 148 0
0.115176 -5.067753 47.010699 150 150 150 0
0.230101 -5.062218 46.959348 151 151 151 0
0.344445 -5.051866 46.863321 149 149 149 0
0.459148 -5.050627 46.851825 150 150 150 0
0.572942 -5.041891 46.770790 152 152 152 0
0.687532 -5.041901 46.770884 149 149 149 0
0.803289 -5.049242 46.838980 138 138 138 0
0.888282 -4.885549 45.320488 127 127 127 0
0.991073 -4.845248 44.946640 125 125 125 0
1.090225 -4.796989 44.498974 122 122 122 0
1.191423 -4.765693 44.208654 120 120 120 0
1.292870 -4.740523 43.975168 122 122 122 0
1.396513 -4.726659 43.846556 122 122 122 0
1.499053 -4.711310 43.704176 121 121 121 0
1.600972 -4.696183 43.563854 121 121 121 0
1.703227 -4.683875 43.449671 120 120 120 0
1.806184 -4.674830 43.365770 122 122 122 0
1.907245 -4.662154 43.248185 120 120 120 0
2.010118 -4.655010 43.181913 120 120 120 0
2.111217 -4.644678 43.086071 121 121 121 0
2.212650 -4.636029 43.005833 120 120 120 0
2.317222 -4.634443 42.991125 121 121 121 0
2.421725 -4.632866 42.976494 121 121 121 0
2.524408 -4.628081 42.932102 120 120 120 0
2.625316 -4.620555 42.862294 119 119 119 0
2.733212 -4.625436 42.907572 119 119 119 0
2.837629 -4.624284 42.896883 118 118 118 0
2.943728 -4.625859 42.911491 116 116 116 0
3.050742 -4.628712 42.937956 117 117 117 0
3.157027 -4.630306 42.952747 115 115 115 0
3.261561 -4.629312 42.943529 112 112 112 0
3.369193 -4.632641 42.974405 112 112 112 0
3.480529 -4.640705 43.049214 114 114 114 0
3.584666 -4.638979 43.033203 115 115 115 0
3.692360 -4.641824 43.059592 117 117 117 0
3.802788 -4.647851 43.115505 117 117 117 0
3.904783 -4.643525 43.075375 116 116 116 0
4.012664 -4.646243 43.100584 116 116 116 0
4.119446 -4.647580 43.112983 114 114 114 0
4.227361 -4.650097 43.136334 113 113 113 0
4.343110 -4.660898 43.236534 110 110 110 0
4.454984 -4.667126 43.294302 106 106 106 0
4.556043 -4.661997 43.246728 108 108 108 0
4.665401 -4.665401 43.278298 108 108 108 0
4.789739 -4.683300 43.444341 118 118 118 0
4.899796 -4.686762 43.476452 125 125 125 0
5.003946 -4.684545 43.455894 127 127 127 0
5.115183 -4.688918 43.496452 127 127 127 0
5.207701 -4.676303 43.379432 125 125 125 0
5.297040 -4.661395 43.241145 125 125 125 0
5.397392 -4.656573 43.196413 124 124 124 0
5.493489 -4.648337 43.120006 124 124 124 0
5.594225 -4.644262 43.082209 122 122 122 0
5.686356 -4.633327 42.980769 122 122 122 0
5.786414 -4.629131 42.941846 124 124 124 0
5.893024 -4.630233 42.952069 121 121 121 0
5.988301 -4.622548 42.880778 120 120 120 0
6.097670 -4.625819 42.911122 117 117 117 0
6.200063 -4.623776 42.892166 114 114 114 0
6.303984 -4.622922 42.884247 112 112 112 0
6.405544 -4.620392 42.860780 111 111 111 0
6.517015 -4.624978 42.903321 108 108 108 0
6.636482 -4.635004 42.996322 108 108 108 0
6.727952 -4.625467 42.907859 105 105 105 0
6.852872 -4.638867 43.032162 103 103 103 0
6.965187 -4.643458 43.074747 101 101 101 0
7.095453 -4.659701 43.225424 96 96 96 0
7.218611 -4.670866 43.328996 95 95 95 0
6.525919 -4.161455 38.603481 94 94 94 0
6.475089 -4.070056 37.755619 95 95 95 0
6.873135 -4.259408 39.512131 96 96 96 0
6.977297 -4.263904 39.553840 94 94 94 0
7.229039 -4.357229 40.419564 97 97 97 0
7.343060 -4.366144 40.502260 89 89 89 0
7.576553 -4.444911 41.232941 94 94 94 0
8.009993 -4.637365 43.018225 94 94 94 0
7.972108 -4.555490 42.258723 93 93 93 0
8.590008 -4.845646 44.950332 91 91 91 0
8.906867 -4.960787 46.018429 116 116 116 0
-9.562213 -5.139689 48.786799 137 137 137 0
-9.435346 -5.135695 48.748881 135 135 135 0
-9.314086 -5.134688 48.739330 138 138 138 0
-9.193686 -5.134137 48.734092 140 140 140 0
-9.061931 -5.127145 48.667730 143 143 143 0
-8.941393 -5.126399 48.660643 142 142 142 0
-8.815302 -5.122405 48.622733 141 141 141 0
-8.679362 -5.112501 48.528722 131 131 131 0
-8.585754 -5.127603 48.672075 140 140 140 0
-8.486495 -5.139708 48.786977 146 146 146 0
-8.371206 -5.142312 48.811695 144 144 144 0
-8.186686 -5.101848 48.427604 127 127 127 0
-7.921386 -5.009112 47.547338 119 119 119 0
-7.775980 -4.990554 47.371185 112 112 112 0
-7.647763 -4.982634 47.295999 115 115 115 0
-7.513295 -4.970333 47.179244 111 111 111 0
-7.387246 -4.963306 47.112537 110 110 110 0
-7.268651 -4.961143 47.092004 112 112 112 0
-7.150276 -4.959062 47.072255 111 111 111 0
-7.036678 -4.960281 47.083827 110 110 110 0
-6.929066 -4.965830 47.136501 107 107 107 0
-6.808512 -4.962136 47.101435 108 108 108 0
-6.712165 -4.976260 47.235505 109 109 109 0
-6.591537 -4.972563 47.200409 110 110 110 0
-6.486184 -4.980463 47.275395 107 107 107 0
-6.383221 -4.990518 47.370840 110 110 110 0
-6.281948 -5.002292 47.482602 107 107 107 0
-6.163013 -5.000180 47.462554 107 107 107 0
-5.567768 -4.604116 43.703043 111 111 111 0
-5.948774 -5.015633 47.609234 116 116 116 0
-5.836888 -5.019723 47.648062 113 113 113 0
-5.734036 -5.031909 47.763732 135 135 135 0
-5.636283 -5.049170 47.927578 150 150 150 0
-5.525409 -5.055161 47.984445 154 154 154 0
-5.391834 -5.040192 47.842359 146 146 146 0
-5.264607 -5.030624 47.751536 146 146 146 0
-5.139656 -5.022845 47.677697 148 148 148 0
-5.025004 -5.025004 47.698187 152 152 152 0
-4.912839 -5.029811 47.743817 147 147 147 0
-4.786917 -5.020425 47.654726 151 151 151 0
-4.665723 -5.015652 47.609419 151 151 151 0
-4.546652 -5.012976 47.584012 149 149 149 0
-4.420230 -5.001839 47.478301 152 152 152 0
-4.306975 -5.005403 47.512136 149 149 149 0
-4.197781 -5.014016 47.593889 141 141 141 0
-4.060543 -4.988667 47.353272 137 137 137 0
-3.885119 -4.913533 46.640089 123 123 123 0
-3.759902 -4.899267 46.504667 120 120 120 0
-3.623152 -4.868611 46.213674 120 120 120 0
-3.498195 -4.852335 46.059186 117 117 117 0
-3.375277 -4.837897 45.922140 120 120 120 0
-3.252010 -4.821946 45.770729 119 119 119 0
-3.128200 -4.804022 45.600585 117 117 117 0
-3.013416 -4.799145 45.554290 116 116 116 0
-2.893892 -4.786052 45.430017 116 116 116 0
-2.778876 -4.779667 45.369407 117 117 117 0
-2.667856 -4.779909 45.371708 114 114 114 0
-2.553360 -4.773674 45.312517 115 115 115 0
-2.437447 -4.764100 45.221642 117 117 117 0
-2.330310 -4.771587 45.292714 114 114 114 0
-2.218695 -4.770194 45.279490 114 114 114 0
-2.107360 -4.769287 45.270882 115 115 115 0
-2.001277 -4.780828 45.380430 114 114 114 0
-1.892149 -4.786023 45.429740 118 118 118 0
-1.778559 -4.779877 45.371401 113 113 113 0
-1.670889 -4.789881 45.466363 111 111 111 0
-1.561805 -4.796971 45.533663 111 111 111 0
-1.452004 -4.802782 45.588815 113 113 113 0
-1.211289 -4.340454 41.200321 111 111 111 0
-1.233117 -4.820366 45.755733 111 111 111 0
-1.123012 -4.828954 45.837243 110 110 110 0
-0.911814 -4.356447 41.352130 109 109 109 0
-0.809203 -4.349465 41.285856 108 108 108 0
-0.713739 -4.384395 41.617420 115 115 115 0
-0.677214 -4.853368 46.068992 113 113 113 0
-0.566655 -4.873237 46.257590 110 110 110 0
-0.455245 -4.893884 46.453578 119 119 119 0
-0.344089 -4.931949 46.814891 141 141 141 0
-0.230156 -4.948363 46.970699 148 148 148 0
-0.115179 -4.952688 47.011754 148 148 148 0
0.000000 -4.953057 47.015256 148 148 148 0
0.115000 -4.945004 46.938814 149 149 149 0
0.229637 -4.937200 46.864733 152 152 152 0
0.344735 -4.941200 46.902704 149 149 149 0
0.458743 -4.931488 46.810520 155 155 155 0
0.572887 -4.926825 46.766257 153 153 153 0
0.686431 -4.919426 46.696020 149 149 149 0
0.804399 -4.941309 46.903735 142 142 142 0
0.894545 -4.808180 45.640053 126 126 126 0
0.991702 -4.738133 44.975163 124 124 124 0
1.090047 -4.687201 44.491702 123 123 123 0
1.194765 -4.670443 44.332637 122 122 122 0
1.298294 -4.652221 44.159666 121 121 121 0
1.400947 -4.633901 43.985767 120 120 120 0
1.503531 -4.617989 43.834734 120 120 120 0
1.605801 -4.603295 43.695252 122 122 122 0
1.708546 -4.591718 43.585366 120 120 120 0
1.810003 -4.578243 43.457460 122 122 122 0
1.913109 -4.570205 43.381163 120 120 120 0
2.016821 -4.564385 43.325918 118 118 118 0
2.116824 -4.551172 43.200493 118 118 118 0
2.220368 -4.546469 43.155849 117 117 117 0
2.324783 -4.543894 43.131406 118 118 118 0
2.428114 -4.539517 43.089858 121 121 121 0
2.530929 -4.534581 43.043011 119 119 119 0
2.634764 -4.531794 43.016557 119 119 119 0
2.740290 -4.532019 43.018687 118 118 118 0
2.843712 -4.528875 42.988849 118 118 118 0
2.949242 -4.529193 42.991868 116 116 116 0
3.057960 -4.534217 43.039555 115 115 115 0
3.164099 -4.535209 43.048968 113 113 113 0
3.271998 -4.538577 43.080943 112 112 112 0
3.380471 -4.542508 43.118253 111 111 111 0
3.485361 -4.541530 43.108974 111 111 111 0
3.593280 -4.544442 43.136615 114 114 114 0
3.701986 -4.548154 43.171843 115 115 115 0
3.810416 -4.551330 43.201991 115 115 115 0
3.912390 -4.546831 43.159292 114 114 114 0
4.021830 -4.551018 43.199028 114 114 114 0
4.132023 -4.555820 43.244615 112 112 112 0
4.239951 -4.557947 43.264805 108 108 108 0
4.348660 -4.560790 43.291789 107 107 107 0
4.463252 -4.569520 43.374659 105 105 105 0
4.569351 -4.569351 43.373055 106 106 106 0
4.676233 -4.569955 43.378780 109 109 109 0
4.805424 -4.591850 43.586613 118 118 118 0
4.912581 -4.592195 43.589891 123 123 123 0
5.019356 -4.592177 43.589716 125 125 125 0
5.120249 -4.586890 43.539536 125 125 125 0
5.212030 -4.573822 43.415495 124 124 124 0
5.308473 -4.565287 43.334473 123 123 123 0
5.406331 -4.558279 43.267956 121 121 121 0
5.504302 -4.551634 43.204882 123 123 123 0
5.605260 -4.547664 43.167196 120 120 120 0
5.706269 -4.543881 43.131285 120 120 120 0
5.803561 -4.537329 43.069098 119 119 119 0
5.908673 -4.537017 43.066131 116 116 116 0
6.005186 -4.530228 43.001693 115 115 115 0
6.114581 -4.533224 43.030125 112 112 112 0
6.225380 -4.537141 43.067313 109 109 109 0
6.325052 -4.532954 43.027567 109 109 109 0
6.421320 -4.526504 42.966340 108 108 108 0
6.532934 -4.530906 43.008126 104 104 104 0
6.650095 -4.538954 43.084515 106 106 106 0
6.768012 -4.547258 43.163343 104 104 104 0
6.882410 -4.552979 43.217647 101 101 101 0
6.245483 -4.069027 38.623892 100 100 100 0
6.197541 -3.977526 37.755353 97 97 97 0
6.144169 -3.885284 36.879768 98 98 98 0
6.532159 -4.070766 38.640397 99 99 99 0
6.782673 -4.166499 39.549115 97 97 97 0
6.879765 -4.166618 39.550244 95 95 95 0
6.820071 -4.073098 38.662536 94 94 94 0
7.377839 -4.345850 41.251543 96 96 96 0
7.202669 -4.185335 39.727903 92 92 92 0
7.726447 -4.429830 42.048693 97 97 97 0
8.043332 -4.550833 43.197271 99 99 99 0
8.147238 -4.549756 43.187057 94 94 94 0
8.450552 -4.658638 44.220575 123 123 123 0
8.566050 -4.662533 44.257555 143 143 143 0
-9.578867 -5.028905 48.871773 134 134 134 0
-9.443755 -5.020730 48.792326 135 135 135 0
-9.323254 -5.020214 48.787307 135 135 135 0
-9.205903 -5.021402 48.798851 136 136 136 0
-9.073056 -5.014057 48.727475 136 136 136 0
-8.947282 -5.010478 48.692693 140 140 140 0
-8.820958 -5.006489 48.653931 141 141 141 0
-8.690690 -5.000123 48.592059 136 136 136 0
-8.573192 -5.001029 48.600864 138 138 138 0
-8.483727 -5.018543 48.771067 143 143 143 0
-8.363792 -5.018275 48.768469 148 148 148 0
-8.261611 -5.028807 48.870814 150 150 150 0
-8.061438 -4.979124 48.387983 124 124 124 0
-7.830074 -4.908405 47.700727 114 114 114 0
-7.681112 -4.887981 47.502241 110 110 110 0
-7.552091 -4.879813 47.422864 109 109 109 0
-7.433009 -4.877912 47.404394 112 112 112 0
-7.306235 -4.870823 47.335501 107 107 107 0
-7.183356 -4.866145 47.290035 111 111 111 0
-7.067601 -4.866217 47.290737 108 108 108 0
-6.955445 -4.868812 47.315954 110 110 110 0
-6.826307 -4.859405 47.224541 108 108 108 0
-6.723963 -4.869077 47.318532 109 109 109 0
-6.614537 -4.873870 47.365109 108 108 108 0
-6.508020 -4.881015 47.434552 109 109 109 0
-6.403326 -4.889813 47.520047 110 110 110 0
-6.286114 -4.889200 47.514091 109 109 109 0
-6.181990 -4.898936 47.608704 112 112 112 0
-6.073254 -4.905320 47.670751 112 112 112 0
-5.964714 -4.912117 47.736803 121 121 121 0
-5.859565 -4.922034 47.833181 136 136 136 0
-5.756892 -4.934479 47.954122 154 154 154 0
-5.645537 -4.939845 48.006270 146 146 146 0
-5.517397 -4.930440 47.914871 143 143 143 0
-5.382805 -4.914735 47.762243 147 147 147 0
-5.268819 -4.917564 47.789740 142 142 142 0
-5.147989 -4.913989 47.754997 145 145 145 0
-5.026885 -4.909981 47.716044 149 149 149 0
-4.915784 -4.915784 47.772435 149 149 149 0
-4.784578 -4.901275 47.631438 146 146 146 0
-4.665317 -4.898583 47.605274 147 147 147 0
-4.548475 -4.898358 47.603091 150 150 150 0
-4.422563 -4.888096 47.503365 150 150 150 0
-4.307280 -4.889345 47.515498 149 149 149 0
-4.192459 -4.891202 47.533546 140 140 140 0
-4.077346 -4.892815 47.549227 138 138 138 0
-3.911832 -4.832263 46.960768 123 123 123 0
-3.776064 -4.805900 46.704565 121 121 121 0
-3.637647 -4.774412 46.398561 119 119 119 0
-3.511189 -4.757095 46.230268 119 119 119 0
-3.388398 -4.743757 46.100651 120 120 120 0
-3.262386 -4.724835 45.916763 117 117 117 0
-3.142786 -4.714178 45.813201 116 116 116 0
-3.026649 -4.708121 45.754331 117 117 117 0
-2.902811 -4.689156 45.570031 117 117 117 0
-2.787145 -4.682404 45.504414 118 118 118 0
-2.675153 -4.681517 45.495797 116 116 116 0
-2.559836 -4.674483 45.427435 117 117 117 0
-2.447746 -4.672970 45.412733 115 115 115 0
-2.336919 -4.673838 45.421167 116 116 116 0
-2.223823 -4.670028 45.384142 115 115 115 0
-2.113657 -4.672295 45.406171 115 115 115 0
-2.005286 -4.679002 45.471348 113 113 113 0
-1.894284 -4.679996 45.481012 115 115 115 0
-1.783293 -4.681145 45.492178 113 113 113 0
-1.674263 -4.687935 45.558167 114 114 114 0
-1.566600 -4.699800 45.673469 109 109 109 0
-1.456441 -4.705424 45.728126 110 110 110 0
-1.213745 -4.248107 41.283841 110 110 110 0
-1.112829 -4.248982 41.292346 112 112 112 0
-1.014863 -4.262426 41.422996 110 110 110 0
-1.013631 -4.730277 45.969647 109 109 109 0
-0.812696 -4.266653 41.464069 108 108 108 0
-0.713330 -4.279980 41.593582 112 112 112 0
-0.680865 -4.766055 46.317349 108 108 108 0
-0.567312 -4.765423 46.311207 111 111 111 0
-0.458234 -4.811458 46.758578 132 132 132 0
-0.345015 -4.830211 46.940830 146 146 146 0
-0.230065 -4.831367 46.952057 151 151 151 0
-0.115116 -4.834880 46.986198 149 149 149 0
0.000000 -4.831363 46.952023 150 150 150 0
0.115002 -4.830081 46.939567 154 154 154 0
0.229914 -4.828191 46.921194 153 153 153 0
0.344684 -4.825583 46.895846 155 155 155 0
0.458813 -4.817538 46.817668 152 152 152 0
0.572762 -4.811204 46.756112 156 156 156 0
0.686213 -4.803489 46.681136 149 149 149 0
0.802793 -4.816761 46.810115 147 147 147 0
0.908483 -4.769534 46.351156 131 131 131 0
0.997325 -4.654182 45.230146 125 125 125 0
1.097257 -4.608479 44.785993 122 122 122 0
1.198181 -4.574872 44.459400 119 119 119 0
1.302247 -4.557865 44.294120 120 120 120 0
1.403505 -4.534401 44.066088 118 118 118 0
1.507916 -4.523748 43.962569 120 120 120 0
1.608946 -4.505048 43.780831 124 124 124 0
1.713511 -4.497966 43.712010 123 123 123 0
1.815746 -4.485960 43.595332 122 122 122 0
1.918740 -4.477059 43.508836 121 121 121 0
2.022994 -4.471881 43.458517 119 119 119 0
2.122445 -4.457134 43.315203 119 119 119 0
2.225380 -4.450761 43.253262 118 118 118 0
2.331397 -4.450848 43.254110 115 115 115 0
2.433721 -4.444187 43.189376 117 117 117 0
2.537605 -4.440809 43.156552 118 118 118 0
2.642862 -4.440009 43.148771 116 116 116 0
2.746222 -4.436205 43.111810 117 117 117 0
2.851832 -4.436183 43.111590 115 115 115 0
2.956860 -4.435290 43.102915 114 114 114 0
3.065368 -4.439499 43.143817 112 112 112 0
3.170560 -4.438785 43.136877 112 112 112 0
3.279673 -4.443428 43.182006 110 110 110 0
3.389568 -4.448808 43.234288 111 111 111 0
3.494754 -4.447869 43.225162 111 111 111 0
3.603838 -4.451799 43.263356 115 115 115 0
3.712724 -4.455268 43.297067 113 113 113 0
3.819053 -4.455562 43.299924 114 114 114 0
3.924410 -4.454736 43.291890 114 114 114 0
4.038567 -4.463680 43.378811 111 111 111 0
4.143775 -4.462527 43.367606 109 109 109 0
4.252984 -4.465633 43.397796 106 106 106 0
4.361459 -4.467836 43.419205 105 105 105 0
4.480901 -4.480901 43.546175 105 105 105 0
4.576836 -4.470398 43.444100 108 108 108 0
4.695653 -4.482214 43.558933 111 111 111 0
4.819159 -4.497882 43.711195 118 118 118 0
4.919870 -4.492055 43.654571 122 122 122 0
5.027619 -4.492766 43.661475 124 124 124 0
5.126509 -4.485695 43.592764 123 123 123 0
5.226302 -4.479687 43.534376 121 121 121 0
5.321343 -4.469928 43.439538 121 121 121 0
5.420388 -4.463849 43.380457 119 119 119 0
5.526474 -4.463690 43.378915 118 118 118 0
5.613852 -4.448713 43.233360 119 119 119 0
5.715754 -4.445586 43.202975 118 118 118 0
5.823057 -4.446698 43.213783 116 116 116 0
5.921618 -4.441213 43.160479 114 114 114 0
6.029541 -4.442820 43.176092 114 114 114 0
6.130714 -4.439482 43.143657 111 111 111 0
6.239494 -4.441673 43.164950 108 108 108 0
6.341453 -4.439017 43.139137 108 108 108 0
6.451882 -4.442279 43.170838 106 106 106 0
6.568246 -4.449457 43.240590 104 104 104 0
6.680111 -4.453407 43.278984 102 102 102 0
6.788339 -4.454848 43.292980 102 102 102 0
6.898828 -4.457704 43.320740 99 99 99 0
7.021903 -4.468483 43.425496 97 97 97 0
6.201199 -3.887319 37.777638 95 95 95 0
6.586523 -4.068147 39.534955 93 93 93 0
6.535531 -3.978149 38.660343 95 95 95 0
6.786501 -4.071901 39.571435 95 95 95 0
6.877252 -4.068234 39.535798 95 95 95 0
6.823202 -3.980201 38.680283 98 98 98 0
7.240321 -4.165664 40.482646 97 97 97 0
7.368244 -4.181976 40.641167 100 100 100 0
7.791176 -4.363058 42.400957 97 97 97 0
7.772559 -4.295362 41.743066 105 105 105 0
8.180303 -4.461984 43.362329 122 122 122 0
8.460137 -4.555459 44.270734 147 147 147 0
8.565537 -4.553830 44.254903 148 148 148 0
-9.589267 -4.914499 48.924832 133 133 133 0
-9.456216 -4.907657 48.856710 133 133 133 0
-9.337089 -4.907957 48.859700 136 136 136 0
-9.215695 -4.907059 48.850757 132 132 132 0
-9.080916 -4.898915 48.769686 134 134 134 0
-8.958081 -4.897084 48.751462 134 134 134 0
-8.831463 -4.893108 48.711877 137 137 137 0
-8.700464 -4.886562 48.646710 139 139 139 0
-8.576550 -4.883869 48.619901 137 137 137 0
-8.470059 -4.891161 48.692492 133 133 133 0
-8.355290 -4.893813 48.718891 141 141 141 0
-8.257644 -4.906716 48.847349 149 149 149 0
-8.143456 -4.910025 48.880286 140 140 140 0
-7.993063 -4.891278 48.693655 127 127 127 0
-7.751077 -4.815063 47.934920 112 112 112 0
-7.591619 -4.788559 47.671075 108 108 108 0
-7.464977 -4.782251 47.608273 110 110 110 0
-7.338025 -4.775540 47.541465 108 108 108 0
-7.213109 -4.769959 47.485906 109 109 109 0
-7.097689 -4.770578 47.492063 107 107 107 0
-6.995550 -4.780292 47.588772 108 108 108 0
-6.859763 -4.766954 47.455985 111 111 111 0
-6.757011 -4.776507 47.551095 108 108 108 0
-6.646310 -4.780679 47.592621 107 107 107 0
-6.538518 -4.787129 47.656835 108 108 108 0
-6.428310 -4.792013 47.705453 106 106 106 0
-6.320511 -4.798906 47.774078 108 108 108 0
-6.212057 -4.805554 47.840255 110 110 110 0
-6.096383 -4.806763 47.852298 117 117 117 0
-5.993543 -4.818338 47.967529 130 130 130 0
-5.882675 -4.823794 48.021839 145 145 145 0
-5.763951 -4.822898 48.012922 145 145 145 0
-5.632607 -4.811185 47.896314 141 141 141 0
-5.508458 -4.805250 47.837236 147 147 147 0
-5.381096 -4.796194 47.747079 145 145 145 0
-5.272535 -4.803865 47.823444 144 144 144 0
-5.148311 -4.797289 47.757983 145 145 145 0
-5.026645 -4.792848 47.713766 146 146 146 0
-4.916310 -4.799255 47.777554 148 148 148 0
-4.789225 -4.789225 47.677697 147 147 147 0
-4.667411 -4.784097 47.626648 149 149 149 0
-4.552085 -4.785526 47.640873 148 148 148 0
-4.424892 -4.774225 47.528375 148 148 148 0
-4.309355 -4.775231 47.538391 150 150 150 0
-4.194474 -4.777040 47.556396 144 144 144 0
-4.074174 -4.772604 47.512237 139 139 139 0
-3.952449 -4.766189 47.448372 132 132 132 0
-3.790625 -4.709564 46.884663 122 122 122 0
-3.657103 -4.685663 46.646722 123 123 123 0
-3.523703 -4.660381 46.395030 118 118 118 0
-3.399792 -4.646382 46.255667 119 119 119 0
-3.274877 -4.629999 46.092574 117 117 117 0
-3.153306 -4.617341 45.966561 118 118 118 0
-3.035450 -4.609387 45.887381 118 118 118 0
-2.915248 -4.597122 45.765275 118 118 118 0
-2.797089 -4.587226 45.666760 116 116 116 0
-2.683398 -4.584138 45.636013 117 117 117 0
-2.569420 -4.580270 45.597511 118 118 118 0
-2.455306 -4.575798 45.552994 117 117 117 0
-2.345316 -4.578950 45.584371 116 116 116 0
-2.230870 -4.573283 45.527954 115 115 115 0
-2.118429 -4.571347 45.508680 113 113 113 0
-2.010681 -4.579885 45.593680 115 115 115 0
-1.901886 -4.586901 45.663521 114 114 114 0
-1.787162 -4.579601 45.590855 115 115 115 0
-1.678366 -4.587533 45.669811 113 113 113 0
-1.569458 -4.596269 45.756781 111 111 111 0
-1.458356 -4.599430 45.788255 111 111 111 0
-1.215699 -4.153638 41.350306 113 113 113 0
-1.115948 -4.159442 41.408086 114 114 114 0
-1.017891 -4.173351 41.546555 111 111 111 0
-0.916510 -4.175211 41.565064 113 113 113 0
-0.815382 -4.178831 41.601109 110 110 110 0
-0.793386 -4.646974 46.261559 110 110 110 0
-0.680991 -4.653439 46.325919 112 112 112 0
-0.571282 -4.684510 46.635244 122 122 122 0
-0.459737 -4.712306 46.911956 150 150 150 0
-0.344791 -4.712137 46.910278 148 148 148 0
-0.230159 -4.718269 46.971322 150 150 150 0
-0.115038 -4.716541 46.954118 146 146 146 0
0.000000 -4.718602 46.974631 146 146 146 0
0.115003 -4.715137 46.940137 150 150 150 0
0.230044 -4.715900 46.947731 150 150 150 0
0.344280 -4.705158 46.840797 155 155 155 0
0.459132 -4.706099 46.850165 153 153 153 0
0.572400 -4.693679 46.726520 155 155 155 0
0.685652 -4.685288 46.642982 148 148 148 0
0.801815 -4.696345 46.753064 145 145 145 0
0.915543 -4.692159 46.711384 138 138 138 0
1.000753 -4.558986 45.385629 127 127 127 0
1.101675 -4.516869 44.966344 125 125 125 0
1.203271 -4.484919 44.648277 118 118 118 0
1.306662 -4.464430 44.444301 119 119 119 0
1.407626 -4.439436 44.195475 118 118 118 0
1.512616 -4.429804 44.099588 118 118 118 0
1.614384 -4.412650 43.928824 118 118 118 0
1.717754 -4.401744 43.820251 121 121 121 0
1.819011 -4.387027 43.673743 121 121 121 0
1.923894 -4.382203 43.625717 122 122 122 0
2.029593 -4.379649 43.600288 122 122 122 0
2.128364 -4.363146 43.435999 122 122 122 0
2.233064 -4.359792 43.402611 121 121 121 0
2.339965 -4.360845 43.413089 119 119 119 0
2.440717 -4.350843 43.313521 117 117 117 0
2.543532 -4.345201 43.257348 116 116 116 0
2.651494 -4.348451 43.289702 117 117 117 0
2.756219 -4.346345 43.268738 115 115 115 0
2.858479 -4.340653 43.212073 115 115 115 0
2.966882 -4.344363 43.249010 113 113 113 0
3.075146 -4.347620 43.281431 113 113 113 0
3.179339 -4.345097 43.256316 111 111 111 0
3.287374 -4.347817 43.283397 112 112 112 0
3.397828 -4.353467 43.339645 112 112 112 0
3.501951 -4.350909 43.314178 113 113 113 0
3.610805 -4.354206 43.346999 114 114 114 0
3.725560 -4.364227 43.446758 113 113 113 0
3.829366 -4.361222 43.416847 113 113 113 0
3.931569 -4.356604 43.370869 111 111 111 0
4.051076 -4.370898 43.513172 109 109 109 0
4.151797 -4.364710 43.451567 107 107 107 0
4.262616 -4.369181 43.496077 106 106 106 0
4.381150 -4.381150 43.615227 106 106 106 0
4.490875 -4.383950 43.643103 103 103 103 0
4.600930 -4.386933 43.672806 106 106 106 0
4.708036 -4.387034 43.673804 110 110 110 0
4.831753 -4.402264 43.825422 117 117 117 0
4.935868 -4.399361 43.796523 122 122 122 0
5.038533 -4.395316 43.756258 121 121 121 0
5.146330 -4.395824 43.761311 122 122 122 0
5.242305 -4.386419 43.667682 121 121 121 0
5.335357 -4.374993 43.553933 121 121 121 0
5.435910 -4.370045 43.504679 120 120 120 0
5.539826 -4.367940 43.483723 120 120 120 0
5.628867 -4.354406 43.348994 120 120 120 0
5.735174 -4.354484 43.349765 118 118 118 0
5.841592 -4.354641 43.351333 115 115 115 0
5.940924 -4.349605 43.301198 113 113 113 0
6.051702 -4.352978 43.334778 112 112 112 0
6.159933 -4.354435 43.349280 110 110 110 0
6.258614 -4.349206 43.297227 107 107 107 0
6.368898 -4.352080 43.325835 104 104 104 0
6.485318 -4.358984 43.394569 104 104 104 0
6.590279 -4.358088 43.385641 104 104 104 0
6.693434 -4.356044 43.365299 99 99 99 0
5.694782 -3.648220 36.318764 100 100 100 0
6.017778 -3.795829 37.788242 98 98 98 0
6.254945 -3.885647 38.682404 96 96 96 0
6.203864 -3.796395 37.793874 94 94 94 0
6.447582 -3.887512 38.700970 96 96 96 0
6.549484 -3.891723 38.742883 98 98 98 0
6.486388 -3.799170 37.821502 96 96 96 0
6.892006 -3.979891 39.620614 95 95 95 0
7.126304 -4.058034 40.398548 94 94 94 0
7.407444 -4.160345 41.417076 98 98 98 0
7.202373 -3.990504 39.726273 102 102 102 0
7.784866 -4.255726 42.366615 100 100 100 0
8.232194 -4.441052 44.211567 119 119 119 0
7.509056 -3.998328 39.804166 141 141 141 0
8.460005 -4.446926 44.270041 143 143 143 0
8.739423 -4.535650 45.153311 145 145 145 0
-9.601420 -4.800710 48.986839 129 129 129 0
-9.474343 -4.797136 48.950365 132 132 132 0
-9.347247 -4.793460 48.912855 134 134 134 0
-9.228861 -4.794213 48.920545 132 132 132 0
-9.096566 -4.787666 48.853739 132 132 132 0
-8.969726 -4.783854 48.814835 131 131 131 0
-8.840381 -4.778584 48.761063 133 133 133 0
-8.711051 -4.773179 48.705903 136 136 136 0
-8.593560 -4.774200 48.716326 139 139 139 0
-8.470456 -4.772088 48.694774 138 138 138 0
-8.351432 -4.772247 48.696399 140 140 140 0
-8.248268 -4.781605 48.791883 143 143 143 0
-8.137401 -4.786707 48.843944 149 149 149 0
-8.021028 -4.788673 48.864014 143 143 143 0
-7.899770 -4.787739 48.854484 128 128 128 0
-7.695233 -4.735528 48.321715 118 118 118 0
-7.540116 -4.712572 48.087474 109 109 109 0
-7.390885 -4.692626 47.883936 112 112 112 0
-7.263427 -4.686082 47.817161 109 109 109 0
-7.141705 -4.683085 47.786584 106 106 106 0
-7.020783 -4.680522 47.760428 110 110 110 0
-6.894991 -4.674570 47.699696 107 107 107 0
-6.787415 -4.680976 47.765057 110 110 110 0
-6.685651 -4.691685 47.874336 105 105 105 0
-6.559015 -4.685011 47.806235 108 108 108 0
-6.447661 -4.689208 47.849060 110 110 110 0
-6.339280 -4.695763 47.915947 116 116 116 0
-6.234076 -4.704963 48.009825 120 120 120 0
-6.132912 -4.717625 48.139026 135 135 135 0
-6.013079 -4.716141 48.123885 144 144 144 0
-5.887341 -4.709873 48.059926 145 145 145 0
-5.758800 -4.701061 47.970010 149 149 149 0
-5.627173 -4.689311 47.850114 147 147 147 0
-5.503830 -4.684111 47.797051 146 146 146 0
-5.387284 -4.684595 47.801988 148 148 148 0
-5.274194 -4.688172 47.838494 147 147 147 0
-5.153731 -4.685210 47.808266 148 148 148 0
-5.029954 -4.679027 47.745170 146 146 146 0
-4.914698 -4.680664 47.761881 147 147 147 0
-4.789125 -4.672317 47.676703 146 146 146 0
-4.667813 -4.667813 47.630741 147 147 147 0
-4.552300 -4.669026 47.643124 149 149 149 0
-4.425163 -4.658066 47.531288 149 149 149 0
-4.310043 -4.659506 47.545978 152 152 152 0
-4.195301 -4.661446 47.565774 143 143 143 0
-4.071598 -4.653255 47.482193 134 134 134 0
-3.967611 -4.667778 47.630386 144 144 144 0
-3.820728 -4.631186 47.256997 127 127 127 0
-3.666336 -4.582920 46.764489 121 121 121 0
-3.543346 -4.572059 46.653665 120 120 120 0
-3.414382 -4.552509 46.454177 119 119 119 0
-3.284639 -4.530536 46.229960 120 120 120 0
-3.163037 -4.518625 46.108416 117 117 117 0
-3.043744 -4.509250 46.012755 117 117 117 0
-2.923982 -4.498434 45.902386 117 117 117 0
-2.805241 -4.488386 45.799857 119 119 119 0
-2.690987 -4.484979 45.765092 117 117 117 0
