ply
format ascii 1.0
element vertex 1099
property float x
property float y
property float z
property uchar red
property uchar green
property uchar blue
property uchar alpha
end_header
3.958055 -3.298379 44.875903 106 106 106 0
4.073794 -3.303076 44.939815 104 104 104 0
4.181751 -3.301382 44.916767 104 104 104 0
3.718319 -2.860245 38.914904 104 104 104 0
4.422680 -3.317010 45.129385 103 103 103 0
4.531136 -3.315465 45.108373 103 103 103 0
4.010424 -2.864589 38.973995 99 99 99 0
4.763812 -3.323590 45.218906 100 100 100 0
4.208079 -2.869145 39.035984 99 99 99 0
4.303540 -2.869027 39.034378 104 104 104 0
4.414271 -2.878873 39.168335 102 102 102 0
4.521698 -2.886191 39.267898 101 101 101 0
4.632417 -2.895261 39.391300 105 105 105 0
4.730861 -2.896446 39.407424 113 113 113 0
5.711067 -3.426640 46.620953 130 130 130 0
5.840682 -3.435695 46.744151 150 150 150 0
5.945553 -3.430127 46.668388 149 149 149 0
6.064974 -3.433004 46.707537 144 144 144 0
6.176915 -3.431619 46.688697 142 142 142 0
6.277413 -3.424044 46.585628 140 140 140 0
6.403899 -3.430660 46.675652 143 143 143 0
6.514347 -3.428604 46.647669 145 145 145 0
6.627320 -3.427924 46.638424 148 148 148 0
6.741099 -3.427678 46.635070 152 152 152 0
6.851323 -3.425662 46.607639 151 151 151 0
6.958631 -3.422277 46.561598 147 147 147 0
7.066474 -3.419262 46.520568 148 148 148 0
7.180907 -3.419480 46.523532 147 147 147 0
7.278796 -3.411935 46.420890 147 147 147 0
7.366255 -3.399810 46.255921 142 142 142 0
7.458927 -3.390421 46.128180 138 138 138 0
7.594528 -3.400535 46.265779 141 141 141 0
7.772181 -3.428903 46.651744 133 133 133 0
7.888491 -3.429779 46.663656 126 126 126 0
7.883944 -3.378833 45.970520 124 124 124 0
7.946064 -3.357492 45.680162 124 124 124 0
8.020838 -3.342016 45.469605 124 124 124 0
8.106259 -3.331339 45.324343 121 121 121 0
8.187480 -3.319249 45.159844 119 119 119 0
8.277718 -3.311087 45.048804 120 120 120 0
8.368158 -3.303220 44.941771 119 119 119 0
8.456354 -3.294683 44.825622 118 118 118 0
8.592692 -3.304882 44.964376 118 118 118 0
8.877822 -3.371325 45.868367 117 117 117 0
-9.623836 -3.488641 49.101206 121 121 121 0
-9.481898 -3.480697 48.989399 122 122 122 0
-9.350147 -3.476337 48.928035 124 124 124 0
-9.214363 -3.470344 48.843694 125 125 125 0
-9.076907 -3.463557 48.748160 125 125 125 0
-8.951113 -3.461097 48.713541 125 125 125 0
-8.820968 -3.456866 48.653990 127 127 127 0
-8.690786 -3.452504 48.592596 128 128 128 0
-8.569988 -3.451801 48.582701 128 128 128 0
-8.435464 -3.445471 48.493612 127 127 127 0
-8.305406 -3.440811 48.428022 126 126 126 0
-8.190959 -3.442577 48.452877 123 123 123 0
-8.063726 -3.438942 48.401719 124 124 124 0
-7.943894 -3.438402 48.394116 127 127 127 0
-7.831957 -3.441314 48.435108 124 124 124 0
-7.706685 -3.438367 48.393625 129 129 129 0
-7.592694 -3.440440 48.422795 127 127 127 0
-7.478281 -3.442383 48.450152 127 127 127 0
-7.347985 -3.436960 48.373828 129 129 129 0
-7.229139 -3.436804 48.371624 127 127 127 0
-7.110121 -3.436559 48.368173 127 127 127 0
-6.977683 -3.429708 48.271758 126 126 126 0
-6.858750 -3.429375 48.267064 129 129 129 0
-6.730582 -3.424331 48.196076 127 127 127 0
-6.604362 -3.420116 48.136753 127 127 127 0
-6.482135 -3.417853 48.104896 129 129 129 0
-6.353298 -3.411956 48.021902 127 127 127 0
-6.230287 -3.409025 47.980649 128 128 128 0
-6.104482 -3.404423 47.915871 130 130 130 0
-5.984921 -3.403190 47.898528 133 133 133 0
-5.861428 -3.399628 47.848391 132 132 132 0
-5.732657 -3.392797 47.752247 128 128 128 0
-5.613216 -3.391318 47.731427 132 132 132 0
-5.490281 -3.387620 47.679382 136 136 136 0
-5.367966 -3.384152 47.630574 141 141 141 0
-5.253209 -3.385401 47.648154 148 148 148 0
-5.130126 -3.381219 47.589293 147 147 147 0
-5.015900 -3.382816 47.611773 144 144 144 0
-4.899049 -3.382677 47.609808 147 147 147 0
-4.779052 -3.380305 47.576425 147 147 147 0
-4.668758 -3.384850 47.640391 150 150 150 0
-4.554353 -3.386570 47.664605 150 150 150 0
-4.429671 -3.380539 47.579714 147 147 147 0
-4.310617 -3.378592 47.552309 147 147 147 0
-4.194411 -3.378831 47.555676 144 144 144 0
-4.065997 -3.368969 47.416872 143 143 143 0
-3.950809 -3.369808 47.428678 144 144 144 0
-3.828406 -3.364357 47.351959 143 143 143 0
-3.701828 -3.354782 47.217195 145 145 145 0
-3.584690 -3.353420 47.198026 146 146 146 0
-3.462162 -3.346756 47.104238 146 146 146 0
-3.342921 -3.342921 47.050257 149 149 149 0
-3.227070 -3.342322 47.041836 148 148 148 0
-3.111851 -3.342358 47.042339 146 146 146 0
-2.994698 -3.340241 47.012535 141 141 141 0
-2.882062 -3.343192 47.054077 138 138 138 0
-2.765055 -3.341108 47.024749 137 137 137 0
-2.650256 -3.341627 47.032042 135 135 135 0
-2.535942 -3.342833 47.049019 135 135 135 0
-2.421481 -3.343950 47.064747 138 138 138 0
-2.305224 -3.342574 47.045380 139 139 139 0
-2.190454 -3.343325 47.055941 140 140 140 0
-2.074210 -3.341783 47.034239 142 142 142 0
-1.957550 -3.339350 47.000000 143 143 143 0
-1.842519 -3.339566 47.003038 144 144 144 0
-1.726350 -3.337611 46.975519 146 146 146 0
-1.611583 -3.338279 46.984926 147 147 147 0
-1.494605 -3.334120 46.926383 144 144 144 0
-1.380666 -3.336610 46.961430 141 141 141 0
-1.263199 -3.330253 46.871963 143 143 143 0
-1.146656 -3.325302 46.802284 140 140 140 0
-1.029991 -3.318860 46.711608 146 146 146 0
-0.914514 -3.315114 46.658887 144 144 144 0
-0.800153 -3.314920 46.656152 138 138 138 0
-0.688096 -3.325796 46.809229 134 134 134 0
-0.569842 -3.305086 46.517751 129 129 129 0
-0.448729 -3.253285 45.788664 123 123 123 0
-0.334600 -3.234464 45.523773 120 120 120 0
-0.222488 -3.226083 45.405807 120 120 120 0
-0.110893 -3.215906 45.262570 119 119 119 0
0.000000 -3.207342 45.142038 119 119 119 0
0.110461 -3.203381 45.086288 121 121 121 0
0.220382 -3.195534 44.975852 120 120 120 0
0.330053 -3.190514 44.905187 119 119 119 0
0.439209 -3.184268 44.817283 119 119 119 0
0.548861 -3.183394 44.804989 119 119 119 0
0.658202 -3.181311 44.775659 118 118 118 0
0.766919 -3.177237 44.718323 117 117 117 0
0.876237 -3.176360 44.705978 117 117 117 0
0.986282 -3.178019 44.729333 115 115 115 0
1.093492 -3.171128 44.632339 117 117 117 0
1.204405 -3.175250 44.690361 115 115 115 0
1.314248 -3.176098 44.702296 113 113 113 0
1.423200 -3.174832 44.684471 113 113 113 0
1.533186 -3.175884 44.699288 113 113 113 0
1.644987 -3.180309 44.761562 116 116 116 0
1.754817 -3.180605 44.765734 114 114 114 0
1.864817 -3.181159 44.773523 112 112 112 0
1.978194 -3.187090 44.857009 112 112 112 0
2.087535 -3.186238 44.845013 114 114 114 0
2.197026 -3.185687 44.837258 114 114 114 0
2.309466 -3.189262 44.887578 115 115 115 0
2.420962 -3.191268 44.915801 116 116 116 0
2.530894 -3.191127 44.913817 115 115 115 0
2.641363 -3.191647 44.921141 116 116 116 0
2.752961 -3.193435 44.946303 115 115 115 0
2.862698 -3.193010 44.940319 116 116 116 0
2.976579 -3.197067 44.997420 117 117 117 0
3.083549 -3.193676 44.949695 116 116 116 0
3.195012 -3.195012 44.968497 117 117 117 0
3.304285 -3.194142 44.956259 115 115 115 0
3.412500 -3.192338 44.930872 113 113 113 0
3.525458 -3.194947 44.967582 113 113 113 0
3.638875 -3.197799 45.007733 112 112 112 0
3.748416 -3.197178 44.998986 109 109 109 0
3.857994 -3.196624 44.991185 107 107 107 0
3.973630 -3.200980 45.052495 106 106 106 0
4.088838 -3.204765 45.105775 105 105 105 0
3.632301 -2.772019 39.015048 106 106 106 0
4.313133 -3.207201 45.140058 105 105 105 0
4.426684 -3.209346 45.170245 104 104 104 0
3.932180 -2.781298 39.145646 104 104 104 0
4.693320 -3.240626 45.610493 100 100 100 0
4.130201 -2.785485 39.204570 100 100 100 0
4.227738 -2.786464 39.218348 100 100 100 0
4.332896 -2.792311 39.300644 104 104 104 0
4.448042 -2.804200 39.467985 101 101 101 0
4.538743 -2.800501 39.415918 101 101 101 0
4.642288 -2.804716 39.475241 108 108 108 0
5.596577 -3.312260 46.618713 130 130 130 0
5.715743 -3.315131 46.659126 145 145 145 0
5.844572 -3.323384 46.775284 143 143 143 0
5.949463 -3.317970 46.699078 144 144 144 0
6.070685 -3.321696 46.751522 145 145 145 0
6.180460 -3.319136 46.715493 142 142 142 0
6.272174 -3.307146 46.546747 143 143 143 0
6.395710 -3.312064 46.615964 141 141 141 0
6.513156 -3.313711 46.639141 145 145 145 0
6.616413 -3.308206 46.561668 150 150 150 0
6.740005 -3.312884 46.627501 152 152 152 0
6.855585 -3.313533 46.636631 151 151 151 0
6.971367 -3.314256 46.646817 148 148 148 0
7.068957 -3.306448 46.536912 146 146 146 0
7.174804 -3.302688 46.483994 147 147 147 0
7.273727 -3.295907 46.388563 147 147 147 0
7.368588 -3.287524 46.270570 145 145 145 0
7.441026 -3.269542 46.017474 139 139 139 0
7.582533 -3.281992 46.192705 134 134 134 0
7.745368 -3.303172 46.490807 138 138 138 0
7.902043 -3.321149 46.743822 126 126 126 0
7.948489 -3.292946 46.346876 127 127 127 0
7.967575 -3.254362 45.803821 121 121 121 0
8.048775 -3.241868 45.627976 123 123 123 0
8.128597 -3.229169 45.449244 122 122 122 0
8.202687 -3.214567 45.243725 121 121 121 0
8.300836 -3.209657 45.174620 118 118 118 0
8.391163 -3.201891 45.065324 119 119 119 0
8.478980 -3.193382 44.945561 118 118 118 0
8.596269 -3.196049 44.983094 118 118 118 0
8.705631 -3.195738 44.978717 117 117 117 0
-9.650754 -3.377764 49.238541 121 121 121 0
-9.506829 -3.369509 49.118205 123 123 123 0
-9.370531 -3.363781 49.034701 123 123 123 0
-9.238503 -3.359456 48.971659 122 122 122 0
-9.101807 -3.353297 48.881887 121 121 121 0
-8.973106 -3.349960 48.833230 122 122 122 0
-8.844479 -3.346560 48.783666 123 123 123 0
-8.707300 -3.339786 48.684932 124 124 124 0
-8.587487 -3.339578 48.681898 125 125 125 0
-8.450771 -3.332698 48.581608 123 123 123 0
-8.326523 -3.330609 48.551153 122 122 122 0
-8.205490 -3.329764 48.538832 123 123 123 0
-8.079137 -3.326703 48.494219 125 125 125 0
-7.960084 -3.326602 48.492742 127 127 127 0
-7.847244 -3.329134 48.529648 125 125 125 0
-7.715860 -3.323755 48.451240 127 127 127 0
-7.605120 -3.327240 48.502038 126 126 126 0
-7.489928 -3.328857 48.525610 128 128 128 0
-7.360371 -3.324039 48.455373 126 126 126 0
-7.241663 -3.324042 48.455423 125 125 125 0
-7.123145 -3.324134 48.456769 127 127 127 0
-6.989686 -3.317139 48.354799 127 127 127 0
-6.874797 -3.318867 48.379991 128 128 128 0
-6.747860 -3.314738 48.319797 125 125 125 0
-6.616360 -3.308180 48.224201 125 125 125 0
-6.495976 -3.307042 48.207615 125 125 125 0
-6.367589 -3.301713 48.129923 127 127 127 0
-6.239736 -3.296464 48.053418 126 126 126 0
-6.117938 -3.294274 48.021494 127 127 127 0
-5.994319 -3.290999 47.973740 129 129 129 0
-5.872044 -3.288344 47.935051 131 131 131 0
-5.746557 -3.283747 47.868033 127 127 127 0
-5.620960 -3.278893 47.797280 127 127 127 0
-5.498605 -3.275765 47.751675 131 131 131 0
-5.372948 -3.270490 47.674781 135 135 135 0
-5.257794 -3.271516 47.689738 139 139 139 0
-5.130191 -3.264667 47.589896 144 144 144 0
-5.011184 -3.263096 47.567001 148 148 148 0
-4.899434 -3.266290 47.613551 144 144 144 0
-4.772440 -3.259227 47.510604 148 148 148 0
-4.663432 -3.264402 47.586039 147 147 147 0
-4.549960 -3.266638 47.618626 146 146 146 0
-4.420850 -3.257468 47.484962 149 149 149 0
-4.310182 -3.261759 47.547512 145 145 145 0
-4.192429 -3.260778 47.533208 146 146 146 0
-4.063201 -3.250561 47.384266 144 144 144 0
-3.948535 -3.251735 47.401383 144 144 144 0
-3.825475 -3.245857 47.315705 142 142 142 0
-3.700743 -3.238150 47.203358 141 141 141 0
-3.582352 -3.235673 47.167241 143 143 143 0
-3.462586 -3.231747 47.110007 146 146 146 0
-3.345738 -3.230368 47.089910 143 143 143 0
-3.228704 -3.228704 47.065660 140 140 140 0
-3.113517 -3.228832 47.067521 135 135 135 0
-2.998100 -3.228723 47.065938 134 134 134 0
-2.882470 -3.228366 47.060733 132 132 132 0
-2.770233 -3.231939 47.112807 132 132 132 0
-2.651912 -3.228414 47.061430 134 134 134 0
-2.536757 -3.228599 47.064132 135 135 135 0
-2.423107 -3.230810 47.096353 134 134 134 0
-2.306984 -3.229777 47.081300 137 137 137 0
-2.192017 -3.230341 47.089520 137 137 137 0
-2.076191 -3.229630 47.079161 138 138 138 0
-1.958674 -3.226051 47.026982 139 139 139 0
-1.843362 -3.225883 47.024540 141 141 141 0
-1.727250 -3.224200 47.000000 144 144 144 0
-1.611855 -3.223709 46.992846 144 144 144 0
-1.496504 -3.223239 46.985991 143 143 143 0
-1.380727 -3.221695 46.963487 139 139 139 0
-1.263685 -3.216653 46.889981 140 140 140 0
-1.147315 -3.212483 46.829192 141 141 141 0
-1.030435 -3.205799 46.731768 142 142 142 0
-0.916265 -3.206927 46.748208 147 147 147 0
-0.800303 -3.201210 46.664876 139 139 139 0
-0.687538 -3.208512 46.771318 137 137 137 0
-0.573753 -3.213015 46.836948 132 132 132 0
-0.451628 -3.161399 46.084533 121 121 121 0
-0.336193 -3.137803 45.740563 121 121 121 0
-0.223454 -3.128350 45.602766 119 119 119 0
-0.111283 -3.115929 45.421712 121 121 121 0
0.000000 -3.105613 45.271322 120 120 120 0
0.110738 -3.100675 45.199345 118 118 118 0
0.221069 -3.094968 45.116155 120 120 120 0
0.330967 -3.089027 45.029552 120 120 120 0
0.440558 -3.083908 44.954923 120 120 120 0
0.550288 -3.081612 44.921457 119 119 119 0
0.660076 -3.080352 44.903097 117 117 117 0
0.768722 -3.074887 44.823424 117 117 117 0
0.879374 -3.077809 44.866015 117 117 117 0
0.988595 -3.075628 44.834228 115 115 115 0
1.097313 -3.072477 44.788289 115 115 115 0
1.207698 -3.074140 44.812536 114 114 114 0
1.317890 -3.075077 44.826200 114 114 114 0
1.428234 -3.076196 44.842507 113 113 113 0
1.536261 -3.072522 44.788957 111 111 111 0
1.649263 -3.078625 44.877914 114 114 114 0
1.758924 -3.078118 44.870520 112 112 112 0
1.870084 -3.080138 44.899970 111 111 111 0
1.983440 -3.085351 44.975968 112 112 112 0
2.093798 -3.085597 44.979552 112 112 112 0
2.205000 -3.087000 45.000000 115 115 115 0
2.316468 -3.088624 45.023668 114 114 114 0
2.425039 -3.086414 44.991452 115 115 115 0
2.538732 -3.090631 45.052927 114 114 114 0
2.648823 -3.090293 45.048010 115 115 115 0
2.760247 -3.091477 45.065263 116 116 116 0
2.867898 -3.088506 45.021948 116 116 116 0
2.980880 -3.091283 45.062439 115 115 115 0
3.091322 -3.091322 45.063009 116 116 116 0
3.206118 -3.095562 45.124812 115 115 115 0
3.314125 -3.093183 45.090134 115 115 115 0
3.424394 -3.093001 45.087472 112 112 112 0
3.534865 -3.093007 45.087564 112 112 112 0
3.651279 -3.098055 45.161152 109 109 109 0
3.756983 -3.093986 45.101836 108 108 108 0
3.877442 -3.101954 45.217987 107 107 107 0
3.991852 -3.104774 45.259098 109 109 109 0
3.561495 -2.695186 39.288422 103 103 103 0
3.648555 -2.688409 39.189633 105 105 105 0
3.746258 -2.689621 39.207308 105 105 105 0
4.460434 -3.122304 45.514636 102 102 102 0
3.955347 -2.701213 39.376281 104 104 104 0
4.696599 -3.131066 45.642365 101 101 101 0
4.134968 -2.692538 39.249818 102 102 102 0
4.242735 -2.699922 39.357466 103 103 103 0
4.340397 -2.700691 39.368680 105 105 105 0
4.452184 -2.710025 39.504740 107 107 107 0
4.569716 -2.722384 39.684896 108 108 108 0
5.476088 -3.194385 46.565372 129 129 129 0
5.607777 -3.204444 46.712013 145 145 145 0
5.722042 -3.204343 46.710545 146 146 146 0
5.844002 -3.208472 46.770724 144 144 144 0
5.933308 -3.194858 46.572273 143 143 143 0
6.052524 -3.197560 46.611663 143 143 143 0
6.176630 -3.202697 46.686543 143 143 143 0
6.279362 -3.196766 46.600088 137 137 137 0
6.401828 -3.200914 46.660556 138 138 138 0
6.521002 -3.203299 46.695326 142 142 142 0
6.628565 -3.199997 46.647186 146 146 146 0
6.740691 -3.198972 46.632247 147 147 147 0
6.846341 -3.194959 46.573749 150 150 150 0
6.965008 -3.197053 46.604268 149 149 149 0
7.063076 -3.189776 46.498193 144 144 144 0
7.167272 -3.185454 46.435194 148 148 148 0
7.282146 -3.185939 46.442261 150 150 150 0
7.370419 -3.174950 46.282067 149 149 149 0
7.464452 -3.166737 46.162349 141 141 141 0
7.572730 -3.164723 46.132990 135 135 135 0
7.713182 -3.176016 46.297611 133 133 133 0
7.908334 -3.209179 46.781037 138 138 138 0
7.997244 -3.198898 46.631161 122 122 122 0
7.998714 -3.154422 45.982832 124 124 124 0
8.062108 -3.135264 45.703557 122 122 122 0
8.154643 -3.127808 45.594872 124 124 124 0
8.212312 -3.107361 45.296809 122 122 122 0
8.317829 -3.105323 45.267094 123 123 123 0
8.407276 -3.097417 45.151857 120 120 120 0
8.501552 -3.091473 45.065209 118 118 118 0
8.604725 -3.088876 45.027340 120 120 120 0
8.707872 -3.086334 44.990296 117 117 117 0
-9.678805 -3.266597 49.381656 121 121 121 0
-9.534139 -3.258503 49.259308 123 123 123 0
-9.400418 -3.253991 49.191096 120 120 120 0
-9.261149 -3.247416 49.091701 121 121 121 0
-9.124955 -3.241760 49.006203 121 121 121 0
-8.994224 -3.237921 48.948158 123 123 123 0
-8.863570 -3.234005 48.888970 122 122 122 0
-8.731148 -3.229329 48.818273 121 121 121 0
-8.604113 -3.226542 48.776149 121 121 121 0
-8.475547 -3.223095 48.724042 122 122 122 0
-8.346126 -3.219220 48.665455 122 122 122 0
-8.223288 -3.217808 48.644117 121 121 121 0
-8.096928 -3.214957 48.601010 123 123 123 0
-7.970682 -3.212066 48.557309 123 123 123 0
-7.860518 -3.215667 48.611739 123 123 123 0
-7.738092 -3.214284 48.590844 125 125 125 0
-7.618048 -3.213864 48.584491 126 126 126 0
-7.506370 -3.217016 48.632135 125 125 125 0
-7.377060 -3.212591 48.565242 125 125 125 0
-7.257605 -3.212383 48.562094 126 126 126 0
-7.140445 -3.213200 48.574453 125 125 125 0
-7.007436 -3.206793 48.477593 127 127 127 0
-6.884737 -3.204964 48.449944 125 125 125 0
-6.766624 -3.205243 48.454166 124 124 124 0
-6.631621 -3.197389 48.335432 124 124 124 0
-6.510323 -3.195977 48.314084 125 125 125 0
-6.384017 -3.192008 48.254096 125 125 125 0
-6.251609 -3.184782 48.144853 125 125 125 0
-6.132497 -3.184181 48.135770 125 125 125 0
-6.004852 -3.179039 48.058039 126 126 126 0
-5.879797 -3.175091 47.998346 127 127 127 0
-5.755259 -3.171265 47.940516 127 127 127 0
-5.634085 -3.169173 47.908889 127 127 127 0
-5.506599 -3.163366 47.821096 129 129 129 0
-5.380646 -3.158205 47.743089 131 131 131 0
-5.264821 -3.158893 47.753477 135 135 135 0
-5.134233 -3.150552 47.627395 140 140 140 0
-5.015336 -3.149164 47.606414 142 142 142 0
-4.901190 -3.150765 47.630615 143 143 143 0
-4.773599 -3.143590 47.522141 147 147 147 0
-4.660316 -3.145714 47.554248 148 148 148 0
-4.540763 -3.143605 47.522373 147 147 147 0
-4.418476 -3.139444 47.459464 145 145 145 0
-4.305357 -3.141747 47.494283 143 143 143 0
-4.186385 -3.139789 47.464681 145 145 145 0
-4.059172 -3.131361 47.337285 143 143 143 0
-3.947312 -3.134630 47.386698 142 142 142 0
-3.823743 -3.128517 47.294291 140 140 140 0
-3.701708 -3.123316 47.215661 141 141 141 0
-3.583474 -3.121090 47.182009 140 140 140 0
-3.462813 -3.116532 47.113104 140 140 140 0
-3.347309 -3.116460 47.112023 139 139 139 0
-3.231282 -3.115879 47.103241 132 132 132 0
-3.115269 -3.115269 47.094011 131 131 131 0
-3.001466 -3.116907 47.118780 129 129 129 0
-2.886147 -3.117039 47.120774 128 128 128 0
-2.772281 -3.118816 47.147631 130 130 130 0
-2.656277 -3.118239 47.138908 133 133 133 0
-2.543156 -3.121146 47.182863 134 134 134 0
-2.426709 -3.120055 47.166358 136 136 136 0
-2.309003 -3.117155 47.122517 140 140 140 0
-2.194220 -3.118102 47.136835 138 138 138 0
-2.077445 -3.116167 47.107586 138 138 138 0
-1.960955 -3.114458 47.081754 138 138 138 0
-1.846179 -3.115427 47.096400 137 137 137 0
-1.729962 -3.113932 47.073804 138 138 138 0
-1.612405 -3.109639 47.008905 138 138 138 0
-1.496852 -3.108846 46.996916 140 140 140 0
-1.381524 -3.108430 46.990623 142 142 142 0
-1.265323 -3.105793 46.950770 141 141 141 0
-1.148126 -3.099941 46.862299 140 140 140 0
-1.032324 -3.096973 46.817437 142 142 142 0
-0.916908 -3.094566 46.781045 144 144 144 0
-0.800589 -3.087985 46.681564 144 144 144 0
-0.686655 -3.089947 46.711220 133 133 133 0
-0.574328 -3.101373 46.883941 137 137 137 0
-0.457178 -3.085952 46.650826 127 127 127 0
-0.337662 -3.038958 45.940405 121 121 121 0
-0.224271 -3.027655 45.769537 120 120 120 0
-0.111629 -3.013976 45.562750 121 121 121 0
0.000000 -3.003354 45.402176 121 121 121 0
0.111215 -3.002812 45.393979 120 120 120 0
0.221581 -2.991341 45.220572 120 120 120 0
0.331707 -2.985362 45.130184 120 120 120 0
0.442227 -2.985031 45.125187 119 119 119 0
0.551815 -2.979801 45.046127 117 117 117 0
0.661420 -2.976389 44.994537 118 118 118 0
0.771519 -2.975860 44.986540 116 116 116 0
0.881490 -2.975029 44.973985 116 116 116 0
0.991732 -2.975195 44.976496 116 116 116 0
1.100017 -2.970047 44.898668 116 116 116 0
1.211406 -2.973451 44.950129 113 113 113 0
1.321071 -2.972410 44.934388 110 110 110 0
1.432497 -2.975187 44.976369 114 114 114 0
1.543194 -2.976160 44.991078 113 113 113 0
1.654369 -2.977864 45.016838 112 112 112 0
1.761831 -2.973089 44.944660 114 114 114 0
1.655433 -2.629216 39.746280 110 110 110 0
1.753055 -2.629583 39.751822 112 112 112 0
2.098246 -2.981718 45.075095 113 113 113 0
2.210377 -2.984010 45.109743 117 117 117 0
2.321992 -2.985418 45.131039 116 116 116 0
2.431419 -2.984014 45.109812 116 116 116 0
2.544551 -2.987081 45.156176 117 117 117 0
2.655471 -2.987405 45.161070 117 117 117 0
2.768049 -2.989493 45.192636 117 117 117 0
2.878244 -2.988946 45.184369 117 117 117 0
2.992021 -2.992021 45.230849 116 116 116 0
3.100300 -2.989575 45.193877 115 115 115 0
3.210512 -2.989098 45.186664 114 114 114 0
3.325294 -2.992764 45.242090 112 112 112 0
3.435217 -2.991963 45.229974 109 109 109 0
3.541251 -2.987931 45.169020 108 108 108 0
3.659617 -2.994232 45.264279 107 107 107 0
3.279097 -2.603989 39.364906 106 106 106 0
3.376243 -2.604530 39.373095 106 106 106 0
4.009743 -3.007307 45.461936 108 108 108 0
3.569880 -2.605048 39.380921 103 103 103 0
4.225873 -3.002594 45.390684 105 105 105 0
3.766088 -2.607292 39.414843 106 106 106 0
3.862481 -2.607175 39.413076 103 103 103 0
3.961466 -2.608770 39.437189 105 105 105 0
4.058053 -2.608748 39.436859 104 104 104 0
4.155354 -2.609176 39.443324 99 99 99 0
4.271250 -2.620994 39.621982 101 101 101 0
4.340397 -2.604238 39.368680 102 102 102 0
4.479244 -2.629121 39.744841 112 112 112 0
5.360399 -3.079378 46.551447 130 130 130 0
5.492926 -3.089771 46.708557 142 142 142 0
5.608138 -3.090199 46.715022 143 143 143 0
5.719686 -3.088630 46.691311 143 143 143 0
5.835589 -3.089429 46.703390 144 144 144 0
5.936078 -3.082195 46.594022 144 144 144 0
6.054235 -3.084233 46.624833 139 139 139 0
6.164131 -3.082065 46.592070 138 138 138 0
6.278700 -3.082271 46.595179 139 139 139 0
6.395737 -3.083659 46.616156 139 139 139 0
6.516950 -3.086976 46.666307 146 146 146 0
6.625277 -3.084181 46.624044 147 147 147 0
6.736954 -3.083013 46.606391 150 150 150 0
6.858130 -3.086158 46.653943 148 148 148 0
6.958631 -3.080050 46.561598 148 148 148 0
7.070122 -3.078924 46.544581 147 147 147 0
7.171947 -3.073692 46.465483 144 144 144 0
7.283841 -3.072870 46.453066 149 149 149 0
7.376679 -3.064159 46.321375 147 147 147 0
7.486981 -3.062856 46.301676 146 146 146 0
7.579005 -3.054226 46.171213 139 139 139 0
7.692808 -3.054497 46.175316 126 126 126 0
7.867830 -3.078716 46.541434 141 141 141 0
8.015417 -3.091661 46.737125 124 124 124 0
8.051887 -3.061985 46.288513 122 122 122 0
8.094461 -3.035423 45.886965 120 120 120 0
8.149278 -3.014116 45.564875 123 123 123 0
8.252212 -3.010942 45.516890 121 121 121 0
8.342445 -3.003280 45.401064 121 121 121 0
8.446575 -3.000757 45.362918 117 117 117 0
8.529248 -2.990775 45.212024 119 119 119 0
8.630071 -2.987332 45.159972 118 118 118 0
8.717170 -2.979286 45.038334 118 118 118 0
-9.705082 -3.154152 49.515726 120 120 120 0
-9.557983 -3.145665 49.382501 120 120 120 0
-9.426514 -3.142171 49.327650 119 119 119 0
-9.288027 -3.136217 49.234176 120 120 120 0
-9.151758 -3.130865 49.150150 119 119 119 0
-9.022453 -3.127784 49.101786 119 119 119 0
-8.887657 -3.122690 49.021825 121 121 121 0
-8.750342 -3.116560 48.925593 121 121 121 0
-8.627788 -3.115590 48.910361 122 122 122 0
-8.499443 -3.112472 48.861416 121 121 121 0
-8.365426 -3.107158 48.777992 122 122 122 0
-8.245801 -3.107114 48.777293 121 121 121 0
-8.118199 -3.104017 48.728684 121 121 121 0
-7.991180 -3.101055 48.682181 121 121 121 0
-7.878421 -3.103621 48.722458 120 120 120 0
-7.750482 -3.100193 48.668648 122 122 122 0
-7.635154 -3.101781 48.693581 122 122 122 0
-7.519574 -3.103316 48.717681 123 123 123 0
-7.394038 -3.100726 48.677010 124 124 124 0
-7.268542 -3.098067 48.635276 124 124 124 0
-7.151602 -3.099028 48.650356 123 123 123 0
-7.023602 -3.095147 48.589428 123 123 123 0
-6.901418 -3.093739 48.567331 124 124 124 0
-6.777287 -3.091394 48.530520 124 124 124 0
-6.643185 -3.084336 48.419716 123 123 123 0
-6.526536 -3.085272 48.434407 122 122 122 0
-6.397150 -3.080109 48.353364 124 124 124 0
-6.265950 -3.073862 48.255295 124 124 124 0
-6.145817 -3.072909 48.240324 124 124 124 0
-6.017283 -3.067634 48.157524 125 125 125 0
-5.889887 -3.062741 48.080708 126 126 126 0
-5.768482 -3.060827 48.050664 126 126 126 0
-5.641268 -3.055687 47.969966 127 127 127 0
-5.518021 -3.052522 47.920286 127 127 127 0
-5.389120 -3.046024 47.818280 130 130 130 0
-5.272258 -3.046193 47.820930 130 130 130 0
-5.140581 -3.037616 47.686280 133 133 133 0
-5.020117 -3.035420 47.651799 137 137 137 0
-4.903771 -3.035668 47.655694 140 140 140 0
-4.776991 -3.029311 47.555908 143 143 143 0
-4.659162 -3.028456 47.542473 145 145 145 0
-4.542554 -3.028369 47.541119 146 146 146 0
-4.419665 -3.023981 47.472231 147 147 147 0
-4.302695 -3.023515 47.464920 144 144 144 0
-4.184859 -3.022398 47.447386 143 143 143 0
-4.060152 -3.016113 47.348707 144 144 144 0
-3.943334 -3.015490 47.338940 141 141 141 0
-3.825675 -3.014168 47.318178 140 140 140 0
-3.702501 -3.008282 47.225779 138 138 138 0
-3.586071 -3.007672 47.216202 136 136 136 0
-3.466153 -3.003999 47.158544 135 135 135 0
-3.350661 -3.004041 47.159195 130 130 130 0
-3.237007 -3.005792 47.186690 128 128 128 0
-3.120810 -3.005225 47.177782 129 129 129 0
-3.004661 -3.004661 47.168925 129 129 129 0
-2.890163 -3.005770 47.186335 131 131 131 0
-2.777146 -3.008575 47.230379 132 132 132 0
-2.659384 -3.006260 47.194039 131 131 131 0
-2.545120 -3.007869 47.219288 131 131 131 0
-2.429774 -3.008292 47.225937 134 134 134 0
-2.312630 -3.006418 47.196521 137 137 137 0
-2.197741 -3.007435 47.212475 138 138 138 0
-2.080605 -3.005319 47.179261 139 139 139 0
-1.962140 -3.000920 47.110208 138 138 138 0
-1.847740 -3.002578 47.136233 136 136 136 0
-1.731062 -3.000507 47.103715 132 132 132 0
-1.614644 -2.998625 47.074178 134 134 134 0
-1.498092 -2.996184 47.035863 138 138 138 0
-1.382684 -2.995815 47.030063 141 141 141 0
-1.266897 -2.994484 47.009174 141 141 141 0
-1.149218 -2.987967 46.906855 141 141 141 0
-1.033156 -2.984672 46.855136 142 142 142 0
-0.917746 -2.982676 46.823793 143 143 143 0
-0.801134 -2.975639 46.713331 141 141 141 0
-0.686682 -2.975623 46.713082 138 138 138 0
-0.573850 -2.984021 46.844913 137 137 137 0
-0.459679 -2.987910 46.905972 133 133 133 0
-0.341512 -2.959770 46.464205 123 123 123 0
-0.225153 -2.926990 45.949613 120 120 120 0
-0.111995 -2.911859 45.712079 120 120 120 0
0.000000 -2.898925 45.509022 120 120 120 0
0.111448 -2.897646 45.488948 119 119 119 0
0.222387 -2.891027 45.385041 118 118 118 0
0.332774 -2.884038 45.275321 117 117 117 0
0.443297 -2.881429 45.234357 119 119 119 0
0.553564 -2.878533 45.188902 118 118 118 0
0.663544 -2.875355 45.139018 116 116 116 0
0.773838 -2.874256 45.121751 116 116 116 0
0.884835 -2.875713 45.144624 116 116 116 0
0.994319 -2.872478 45.093840 115 115 115 0
1.104182 -2.870873 45.068649 114 114 114 0
1.214871 -2.871514 45.078715 113 113 113 0
1.325112 -2.871076 45.071842 113 113 113 0
1.434796 -2.869591 45.048530 112 112 112 0
1.546714 -2.872468 45.093697 113 113 113 0
1.656328 -2.870969 45.070157 115 115 115 0
1.768687 -2.874116 45.119554 115 115 115 0
1.880649 -2.876287 45.153641 114 114 114 0
1.992659 -2.878285 45.185008 115 115 115 0
2.103504 -2.878479 45.188050 117 117 117 0
2.216173 -2.881025 45.228020 116 116 116 0
2.328949 -2.883460 45.266250 116 116 116 0
2.439725 -2.883312 45.263919 115 115 115 0
2.551121 -2.883876 45.272776 114 114 114 0
2.662808 -2.884709 45.285856 113 113 113 0
2.772187 -2.883074 45.260189 114 114 114 0
2.884426 -2.884426 45.281416 113 113 113 0
2.996004 -2.885041 45.291067 111 111 111 0
3.108244 -2.886226 45.309677 112 112 112 0
3.220651 -2.887481 45.329366 110 110 110 0
3.334088 -2.889543 45.361744 107 107 107 0
3.001453 -2.517348 39.518808 110 110 110 0
3.557885 -2.890781 45.381184 107 107 107 0
3.676774 -2.896853 45.476492 106 106 106 0
3.785672 -2.894926 45.446244 106 106 106 0
3.903383 -2.899656 45.520498 106 106 106 0
4.018355 -2.902145 45.559578 107 107 107 0
4.135997 -2.906376 45.626004 106 106 106 0
3.681154 -2.518684 39.539782 106 106 106 0
4.375611 -2.917074 45.793937 103 103 103 0
3.876840 -2.519946 39.559594 104 104 104 0
3.968161 -2.516395 39.503838 101 101 101 0
4.071394 -2.520386 39.566507 101 101 101 0
4.164583 -2.518120 39.530923 104 104 104 0
4.963485 -2.932969 46.043464 103 103 103 0
4.379520 -2.530389 39.723540 111 111 111 0
5.243882 -2.963933 46.529565 131 131 131 0
5.376927 -2.974470 46.694982 146 146 146 0
5.496202 -2.977109 46.736407 144 144 144 0
5.600520 -2.971705 46.651566 145 145 145 0
5.716905 -2.972791 46.668616 142 142 142 0
5.830692 -2.972510 46.664200 145 145 145 0
5.940892 -2.970446 46.631806 141 141 141 0
6.052990 -2.969391 46.615251 139 139 139 0
6.169727 -2.970609 46.634369 139 139 139 0
6.278873 -2.968194 46.596460 137 137 137 0
6.386377 -2.965103 46.547934 139 139 139 0
6.514103 -2.971345 46.645920 139 139 139 0
6.628565 -2.971426 46.647186 148 148 148 0
6.728284 -2.965006 46.546412 149 149 149 0
6.850008 -2.968337 46.598691 149 149 149 0
6.960338 -2.966701 46.573019 151 151 151 0
7.057792 -2.959719 46.463407 144 144 144 0
7.173831 -2.960629 46.477689 144 144 144 0
7.283783 -2.959037 46.452696 149 149 149 0
7.381635 -2.952654 46.352498 151 151 151 0
7.493045 -2.951806 46.339178 143 143 143 0
7.578364 -2.940858 46.167312 138 138 138 0
7.676006 -2.934943 46.074466 130 130 130 0
7.828290 -2.949790 46.307540 139 139 139 0
8.014533 -2.976826 46.731968 129 129 129 0
8.116149 -2.972111 46.657942 126 126 126 0
8.141470 -2.939975 46.153459 121 121 121 0
8.191097 -2.917377 45.798698 120 120 120 0
8.280253 -2.909278 45.671553 120 120 120 0
8.368763 -2.901171 45.544289 119 119 119 0
8.454954 -2.892484 45.407918 118 118 118 0
8.548653 -2.886558 45.314886 120 120 120 0
8.645029 -2.881676 45.238248 118 118 118 0
8.748155 -2.879140 45.198426 117 117 117 0
-9.739046 -3.043452 49.689008 117 117 117 0
-9.589525 -3.034660 49.545468 117 117 117 0
-9.458630 -3.031612 49.495708 118 118 118 0
-9.320731 -3.026211 49.407531 118 118 118 0
-9.179662 -3.019626 49.300012 119 119 119 0
-9.045397 -3.015132 49.226648 120 120 120 0
-8.910220 -3.010209 49.146277 119 119 119 0
-8.774971 -3.005127 49.063301 120 120 120 0
-8.647347 -3.002551 49.021244 121 121 121 0
-8.515819 -2.998528 48.955554 121 121 121 0
-8.386551 -2.995197 48.901170 122 122 122 0
-8.267394 -2.995433 48.905021 120 120 120 0
-8.140689 -2.992900 48.863677 119 119 119 0
-8.014186 -2.990368 48.822335 119 119 119 0
-7.895548 -2.990738 48.828372 118 118 118 0
-7.772229 -2.989319 48.805208 116 116 116 0
-7.649323 -2.988017 48.783947 118 118 118 0
-7.534911 -2.990044 48.817047 119 119 119 0
-7.414831 -2.989851 48.813898 120 120 120 0
-7.288109 -2.986930 48.766205 121 121 121 0
-7.170425 -2.987677 48.778402 121 121 121 0
-7.039460 -2.982822 48.699138 121 121 121 0
-6.914411 -2.980350 48.658771 121 121 121 0
-6.796568 -2.980951 48.668583 123 123 123 0
-6.661134 -2.973720 48.550537 122 122 122 0
-6.538492 -2.972042 48.523131 124 124 124 0
-6.413212 -2.969080 48.474771 124 124 124 0
-6.280429 -2.962466 48.366797 124 124 124 0
-6.159526 -2.961311 48.347930 123 123 123 0
-6.031358 -2.956548 48.270171 124 124 124 0
-5.902197 -2.951099 48.181203 125 125 125 0
-5.782048 -2.950025 48.163666 126 126 126 0
-5.653945 -2.944763 48.077767 127 127 127 0
-5.528329 -2.940601 48.009805 126 126 126 0
-5.402743 -2.936273 47.939153 128 128 128 0
-5.280552 -2.933640 47.896161 128 128 128 0
-5.150001 -2.926137 47.773665 130 130 130 0
-5.026059 -2.922127 47.708197 133 133 133 0
-4.907918 -2.921380 47.695998 134 134 134 0
-4.781266 -2.915406 47.598464 135 135 135 0
-4.661751 -2.913594 47.568887 136 136 136 0
-4.545891 -2.914033 47.576049 138 138 138 0
-4.419950 -2.907862 47.475290 142 142 142 0
-4.304875 -2.908700 47.488974 142 142 142 0
-4.185874 -2.906857 47.458892 139 139 139 0
-4.062076 -2.901483 47.371148 139 139 139 0
-3.946980 -2.902191 47.382716 138 138 138 0
-3.828406 -2.900308 47.351959 138 138 138 0
-3.705049 -2.894569 47.258273 136 136 136 0
-3.589650 -2.894879 47.263337 134 134 134 0
-3.470227 -2.891856 47.213972 131 131 131 0
-3.353449 -2.890904 47.198439 131 131 131 0
-3.240805 -2.893576 47.242055 128 128 128 0
-3.124944 -2.893467 47.240279 129 129 129 0
-3.008253 -2.892551 47.225326 130 130 130 0
-2.893754 -2.893754 47.244967 130 130 130 0
-2.780572 -2.896429 47.288642 130 130 130 0
-2.661674 -2.893124 47.234670 130 130 130 0
-2.548580 -2.896113 47.283479 131 131 131 0
-2.432675 -2.896042 47.282319 131 131 131 0
-2.314714 -2.893393 47.239069 132 132 132 0
-2.199318 -2.893839 47.246355 132 132 132 0
-2.083508 -2.893761 47.245081 131 131 131 0
-1.965609 -2.890602 47.193495 127 127 127 0
-1.848716 -2.888619 47.161131 130 130 130 0
-1.733661 -2.889435 47.174445 127 127 127 0
-1.616579 -2.886749 47.130589 130 130 130 0
-1.500901 -2.886348 47.124044 133 133 133 0
-1.384005 -2.883343 47.074990 138 138 138 0
-1.266873 -2.879258 47.008286 138 138 138 0
-1.150640 -2.876600 46.964903 140 140 140 0
-1.034075 -2.872431 46.896830 138 138 138 0
-0.918132 -2.869161 46.843447 141 141 141 0
-0.801902 -2.863936 46.758132 144 144 144 0
-0.686782 -2.861594 46.719896 140 140 140 0
-0.573354 -2.866769 46.804392 137 137 137 0
-0.459678 -2.872989 46.905942 140 140 140 0
-0.344342 -2.869515 46.849219 129 129 129 0
-0.227188 -2.839845 46.364812 119 119 119 0
-0.112382 -2.809539 45.870031 116 116 116 0
0.000000 -2.799270 45.702369 117 117 117 0
0.111822 -2.795538 45.641444 118 118 118 0
0.223175 -2.789691 45.545978 120 120 120 0
0.333840 -2.782003 45.420454 118 118 118 0
0.444835 -2.780222 45.391376 116 116 116 0
0.554991 -2.774953 45.305358 117 117 117 0
0.665801 -2.774173 45.292617 116 116 116 0
0.776408 -2.772887 45.271625 117 117 117 0
0.886391 -2.769973 45.224053 117 117 117 0
0.997141 -2.769836 45.221809 115 115 115 0
1.107311 -2.768278 45.196371 115 115 115 0
1.219379 -2.771315 45.245958 115 115 115 0
1.328105 -2.766885 45.173640 115 115 115 0
1.440180 -2.769577 45.217588 115 115 115 0
1.551287 -2.770156 45.227040 115 115 115 0
1.662642 -2.771071 45.241968 116 116 116 0
1.774255 -2.772274 45.261616 114 114 114 0
1.664689 -2.448072 39.968527 113 113 113 0
1.997619 -2.774471 45.297492 115 115 115 0
2.108586 -2.774455 45.297228 112 112 112 0
2.226202 -2.782753 45.432702 112 112 112 0
2.335044 -2.779814 45.384717 111 111 111 0
2.444904 -2.778300 45.360006 109 109 109 0
2.559482 -2.782046 45.421153 112 112 112 0
2.671569 -2.782885 45.434853 108 108 108 0
2.781817 -2.781817 45.417418 109 109 109 0
2.893816 -2.782515 45.428818 108 108 108 0
3.009051 -2.786158 45.488295 109 109 109 0
3.123647 -2.788970 45.534206 109 109 109 0
3.232142 -2.786329 45.491093 109 109 109 0
3.351839 -2.793199 45.603245 106 106 106 0
3.456802 -2.787743 45.514176 106 106 106 0
3.575468 -2.793335 45.605464 108 108 108 0
3.684360 -2.791182 45.570320 107 107 107 0
3.801588 -2.795286 45.637316 109 109 109 0
3.911964 -2.794260 45.620575 106 106 106 0
4.032244 -2.800169 45.717047 107 107 107 0
4.142430 -2.798939 45.696970 106 106 106 0
4.260523 -2.802976 45.762867 106 106 106 0
3.792992 -2.431405 39.696409 106 106 106 0
3.896706 -2.435441 39.762310 102 102 102 0
3.995670 -2.436384 39.777703 100 100 100 0
4.109564 -2.446169 39.937454 101 101 101 0
4.183318 -2.432162 39.708761 102 102 102 0
5.016062 -2.850035 46.531187 115 115 115 0
5.137958 -2.854421 46.602797 133 133 133 0
5.257827 -2.857514 46.653297 144 144 144 0
5.375217 -2.859158 46.680132 141 141 141 0
5.497881 -2.863480 46.750688 144 144 144 0
5.599864 -2.857073 46.646095 143 143 143 0
5.714493 -2.857247 46.648926 144 144 144 0
5.835448 -2.860514 46.702267 142 142 142 0
5.935502 -2.853607 46.589498 138 138 138 0
6.057679 -2.857396 46.651357 136 136 136 0
6.170434 -2.856683 46.639716 137 137 137 0
6.277249 -2.853295 46.584411 137 137 137 0
6.387687 -2.851646 46.557483 138 138 138 0
6.514103 -2.857063 46.645920 144 144 144 0
6.627320 -2.856603 46.638424 148 148 148 0
6.733195 -2.853049 46.580386 146 146 146 0
6.857894 -2.857456 46.652340 149 149 149 0
6.961597 -2.853113 46.581443 148 148 148 0
7.066897 -2.849555 46.523349 142 142 142 0
7.182673 -2.850267 46.534971 144 144 144 0
7.282330 -2.844660 46.443428 147 147 147 0
7.383869 -2.839949 46.366521 147 147 147 0
7.499962 -2.840895 46.381953 146 146 146 0
7.575717 -2.826760 46.151184 144 144 144 0
7.684969 -2.825356 46.128267 133 133 133 0
7.807571 -2.828830 46.184980 129 129 129 0
7.972520 -2.847328 46.486995 137 137 137 0
8.124831 -2.860856 46.707853 127 127 127 0
8.193741 -2.845049 46.449776 120 120 120 0
8.246419 -2.824116 46.108015 122 122 122 0
8.309848 -2.807381 45.834792 119 119 119 0
8.378383 -2.792794 45.596641 120 120 120 0
8.474265 -2.787587 45.511625 120 120 120 0
8.575371 -2.784211 45.456513 117 117 117 0
8.688683 -2.784834 45.466680 119 119 119 0
8.888460 -2.812804 45.923327 116 116 116 0
-9.773826 -2.932148 49.866458 117 117 117 0
-9.625104 -2.924082 49.729291 116 116 116 0
-9.483355 -2.917955 49.625090 116 116 116 0
-9.351178 -2.914653 49.568925 119 119 119 0
-9.204049 -2.906542 49.430985 118 118 118 0
-9.078917 -2.905253 49.409071 119 119 119 0
-8.937215 -2.898556 49.295171 118 118 118 0
-8.804298 -2.894564 49.227273 117 117 117 0
-8.674522 -2.891507 49.175296 119 119 119 0
-8.544517 -2.888288 49.120537 118 118 118 0
-8.414347 -2.884919 49.063246 116 116 116 0
-8.286346 -2.882207 49.017132 116 116 116 0
-8.162098 -2.880741 48.992188 116 116 116 0
-8.036989 -2.878922 48.961251 115 115 115 0
-7.918072 -2.879299 48.967666 113 113 113 0
-7.796140 -2.878575 48.955353 119 119 119 0
-7.670291 -2.876359 48.917674 117 117 117 0
-7.554178 -2.877782 48.941869 116 116 116 0
-7.430973 -2.876506 48.920167 116 116 116 0
-7.308721 -2.875562 48.904120 119 119 119 0
-7.187782 -2.875113 48.896480 120 120 120 0
-7.058818 -2.871384 48.833057 119 119 119 0
-6.931938 -2.868388 48.782111 120 120 120 0
-6.812994 -2.868629 48.786210 120 120 120 0
-6.678152 -2.862065 48.674576 122 122 122 0
-6.554926 -2.860331 48.645087 121 121 121 0
-6.428978 -2.857324 48.593938 121 121 121 0
-6.296924 -2.851437 48.493834 123 123 123 0
-6.172994 -2.849074 48.453638 123 123 123 0
-6.045831 -2.845097 48.386000 122 122 122 0
-5.913521 -2.838490 48.273643 125 125 125 0
-5.793072 -2.837423 48.255491 126 126 126 0
-5.665219 -2.832610 48.173635 126 126 126 0
-5.539048 -2.828450 48.102895 126 126 126 0
-5.415533 -2.825496 48.052648 126 126 126 0
-5.287960 -2.820246 47.963359 127 127 127 0
-5.159933 -2.814509 47.865797 129 129 129 0
-5.033871 -2.809603 47.782356 129 129 129 0
-4.914846 -2.808483 47.763320 129 129 129 0
-4.788819 -2.803211 47.673657 132 132 132 0
-4.668411 -2.801047 47.636849 133 133 133 0
-4.551773 -2.801091 47.637599 134 134 134 0
-4.423244 -2.793628 47.510675 135 135 135 0
-4.306378 -2.793326 47.505552 136 136 136 0
-4.190930 -2.793953 47.516213 137 137 137 0
-4.064023 -2.786758 47.393852 134 134 134 0
-3.950123 -2.788322 47.420442 133 133 133 0
-3.831172 -2.786307 47.386178 134 134 134 0
-3.708135 -2.781101 47.297643 134 134 134 0
-3.593116 -2.781768 47.308971 134 134 134 0
-3.475501 -2.780401 47.285734 132 132 132 0
-3.358602 -2.779533 47.270965 130 130 130 0
-3.243756 -2.780362 47.285072 129 129 129 0
-3.130887 -2.783011 47.330121 129 129 129 0
-3.010157 -2.778607 47.255217 128 128 128 0
-2.898445 -2.782507 47.321553 130 130 130 0
-2.784893 -2.784893 47.362118 132 132 132 0
-2.665107 -2.780981 47.295601 133 133 133 0
-2.551928 -2.783921 47.345599 131 131 131 0
-2.436609 -2.784696 47.358775 131 131 131 0
-2.317486 -2.780983 47.295625 129 129 129 0
-2.203614 -2.783512 47.338645 129 129 129 0
-2.086134 -2.781512 47.304626 126 126 126 0
-1.967154 -2.777158 47.230579 126 126 126 0
-1.853197 -2.779795 47.275422 124 124 124 0
-1.735661 -2.777058 47.228875 130 130 130 0
-1.618953 -2.775348 47.199794 133 133 133 0
-1.501800 -2.772554 47.152275 133 133 133 0
-1.386476 -2.772951 47.159037 135 135 135 0
-1.267970 -2.766479 47.048966 134 134 134 0
-1.151711 -2.764106 47.008609 137 137 137 0
-1.034487 -2.758631 46.915498 138 138 138 0
-0.919279 -2.757837 46.901985 139 139 139 0
-0.802884 -2.752745 46.815399 144 144 144 0
-0.687345 -2.749380 46.758161 140 140 140 0
-0.572992 -2.750364 46.774895 134 134 134 0
-0.458978 -2.753870 46.834527 137 137 137 0
-0.345181 -2.761445 46.963347 135 135 135 0
-0.229784 -2.757404 46.894624 127 127 127 0
-0.113266 -2.718374 46.230854 119 119 119 0
0.000000 -2.700200 45.921775 118 118 118 0
0.112279 -2.694704 45.828298 118 118 118 0
0.223739 -2.684870 45.661060 115 115 115 0
0.334587 -2.676694 45.522011 115 115 115 0
0.446223 -2.677340 45.532998 116 116 116 0
0.556869 -2.672969 45.458654 116 116 116 0
0.667528 -2.670113 45.410086 116 116 116 0
0.778689 -2.669792 45.404626 115 115 115 0
0.889822 -2.669467 45.399091 115 115 115 0
0.999701 -2.665871 45.337934 116 116 116 0
1.110598 -2.665436 45.330544 116 116 116 0
1.222413 -2.667084 45.358569 113 113 113 0
1.331909 -2.663818 45.303030 116 116 116 0
1.443751 -2.665387 45.329704 114 114 114 0
1.557121 -2.669351 45.397121 115 115 115 0
1.667225 -2.667559 45.366654 115 115 115 0
1.778081 -2.667121 45.359199 112 112 112 0
1.891164 -2.669878 45.406087 112 112 112 0
2.001029 -2.668039 45.374812 112 112 112 0
2.114711 -2.671214 45.428813 109 109 109 0
2.229886 -2.675863 45.507882 109 109 109 0
2.340058 -2.674352 45.482182 112 112 112 0
2.452981 -2.675979 45.509845 110 110 110 0
2.569117 -2.680817 45.592133 110 110 110 0
2.681061 -2.681061 45.596273 112 112 112 0
2.790653 -2.679027 45.561675 109 109 109 0
2.908999 -2.685230 45.667176 109 109 109 0
3.022258 -2.686452 45.687954 110 110 110 0
3.128572 -2.681633 45.606006 106 106 106 0
3.245031 -2.685543 45.672496 108 108 108 0
3.358470 -2.686776 45.693470 107 107 107 0
3.468319 -2.685150 45.665823 109 109 109 0
3.589338 -2.692003 45.782370 108 108 108 0
3.700236 -2.691081 45.766680 110 110 110 0
3.820712 -2.696973 45.866896 106 106 106 0
3.928704 -2.693968 45.815787 108 108 108 0
4.046881 -2.697921 45.883003 105 105 105 0
3.610557 -2.341983 39.829645 106 106 106 0
4.286294 -2.707133 46.039677 104 104 104 0
3.810917 -2.345180 39.884010 104 104 104 0
3.913671 -2.348202 39.935415 102 102 102 0
4.007995 -2.346143 39.900399 105 105 105 0
4.777187 -2.729821 46.425528 107 107 107 0
4.899191 -2.734432 46.503948 124 124 124 0
5.034864 -2.746289 46.705600 136 136 136 0
5.149436 -2.746366 46.706901 146 146 146 0
5.256066 -2.742295 46.637672 145 145 145 0
5.380260 -2.747367 46.723929 145 145 145 0
5.490115 -2.745058 46.684652 141 141 141 0
5.598797 -2.742268 46.637211 143 143 143 0
5.707472 -2.739586 46.591607 143 143 143 0
5.836537 -2.746606 46.710981 134 134 134 0
5.940636 -2.741832 46.629793 135 135 135 0
6.054264 -2.741553 46.625058 134 134 134 0
6.177823 -2.745699 46.695564 136 136 136 0
6.283003 -2.741674 46.627110 134 134 134 0
6.393069 -2.739887 46.596714 139 139 139 0
6.516598 -2.743831 46.663787 143 143 143 0
6.622879 -2.740502 46.607170 147 147 147 0
6.734301 -2.739377 46.588040 147 147 147 0
6.853699 -2.741480 46.623803 151 151 151 0
6.967680 -2.741382 46.622145 144 144 144 0
7.068089 -2.736035 46.531200 143 143 143 0
7.181587 -2.735843 46.527936 139 139 139 0
7.282013 -2.730755 46.441407 140 140 140 0
7.385362 -2.726903 46.375897 142 142 142 0
7.506787 -2.729741 46.424165 147 147 147 0
7.597740 -2.721579 46.285349 145 145 145 0
7.695350 -2.716006 46.190574 138 138 138 0
7.797745 -2.712259 46.126856 132 132 132 0
7.934464 -2.720388 46.265099 130 130 130 0
8.111377 -2.741874 46.630510 140 140 140 0
8.252225 -2.750742 46.781322 127 127 127 0
8.297213 -2.727851 46.392023 121 121 121 0
8.346327 -2.706917 46.036003 118 118 118 0
8.444611 -2.702276 45.957069 117 117 117 0
8.514191 -2.688692 45.726050 117 117 117 0
8.617415 -2.685947 45.679378 120 120 120 0
8.706194 -2.678829 45.558313 119 119 119 0
8.795138 -2.671941 45.441167 117 117 117 0
-9.812184 -2.821003 50.062162 116 116 116 0
-9.657557 -2.811694 49.896961 115 115 115 0
-9.513785 -2.805347 49.784330 118 118 118 0
-9.383117 -2.802749 49.738229 118 118 118 0
-9.233551 -2.794364 49.589427 118 118 118 0
-9.102994 -2.791585 49.540102 117 117 117 0
-8.968717 -2.787574 49.468931 114 114 114 0
-8.834592 -2.783502 49.396655 114 114 114 0
-8.704044 -2.780458 49.342651 114 114 114 0
-8.572942 -2.777150 49.283946 113 113 113 0
-8.445078 -2.774811 49.242439 116 116 116 0
-8.320138 -2.773379 49.217024 113 113 113 0
-8.183499 -2.767948 49.120642 113 113 113 0
-8.061307 -2.767314 49.109394 116 116 116 0
-7.947002 -2.769410 49.146581 114 114 114 0
-7.817862 -2.766320 49.091754 114 114 114 0
-7.699866 -2.767140 49.106291 114 114 114 0
-7.576487 -2.766019 49.086410 114 114 114 0
-7.452901 -2.764786 49.064524 116 116 116 0
-7.332725 -2.764798 49.064740 118 118 118 0
-7.202098 -2.760804 48.993863 117 117 117 0
-7.078366 -2.759363 48.968291 118 118 118 0
-6.952683 -2.757099 48.928103 119 119 119 0
-6.830019 -2.755973 48.908121 118 118 118 0
-6.698187 -2.751041 48.820608 119 119 119 0
-6.572099 -2.748332 48.772536 119 119 119 0
-6.446960 -2.745927 48.729855 121 121 121 0
-6.314504 -2.740256 48.629219 120 120 120 0
-6.186946 -2.736534 48.563155 120 120 120 0
-6.063801 -2.734655 48.529817 122 122 122 0
-5.928272 -2.727005 48.394053 123 123 123 0
-5.807953 -2.726182 48.379453 122 122 122 0
-5.678926 -2.721152 48.290184 123 123 123 0
-5.549239 -2.715585 48.191390 125 125 125 0
-5.424093 -2.712047 48.128602 125 125 125 0
-5.295982 -2.706835 48.036118 125 125 125 0
-5.170458 -2.702739 47.963429 126 126 126 0
-5.042141 -2.696959 47.860852 127 127 127 0
-4.923509 -2.696207 47.847511 128 128 128 0
-4.796139 -2.690517 47.746532 129 129 129 0
-4.674113 -2.687615 47.695027 131 131 131 0
-4.556277 -2.687035 47.684745 131 131 131 0
-4.428478 -2.680394 47.566894 131 131 131 0
-4.312663 -2.680844 47.574877 133 133 133 0
-4.196065 -2.680819 47.574429 133 133 133 0
-4.071131 -2.675315 47.476745 133 133 133 0
-3.954860 -2.675346 47.477308 133 133 133 0
-3.838201 -2.675110 47.473106 131 131 131 0
-3.715600 -2.670587 47.392857 131 131 131 0
-3.597340 -2.668994 47.364581 131 131 131 0
-3.480748 -2.668573 47.357114 130 130 130 0
-3.361678 -2.666158 47.314259 129 129 129 0
-3.247905 -2.667922 47.345551 128 128 128 0
-3.133730 -2.669474 47.373092 128 128 128 0
-3.014604 -2.666765 47.325016 125 125 125 0
-2.902511 -2.670310 47.387936 129 129 129 0
-2.789127 -2.672914 47.434135 129 129 129 0
-2.668587 -2.668587 47.357349 132 132 132 0
-2.554220 -2.670321 47.388128 130 130 130 0
-2.438866 -2.671139 47.402639 131 131 131 0
-2.321918 -2.670206 47.386089 130 130 130 0
-2.205990 -2.670409 47.389689 131 131 131 0
-2.090114 -2.670701 47.394866 132 132 132 0
-1.970255 -2.665639 47.305039 133 133 133 0
-1.856677 -2.668974 47.364215 133 133 133 0
-1.740457 -2.668701 47.359374 130 130 130 0
-1.621491 -2.663878 47.273790 129 129 129 0
-1.505046 -2.662773 47.254178 129 129 129 0
-1.387369 -2.659124 47.189424 133 133 133 0
-1.269048 -2.653464 47.088985 134 134 134 0
-1.152668 -2.651136 47.047673 136 136 136 0
-1.035422 -2.646078 46.957914 135 135 135 0
-0.919833 -2.644521 46.930277 135 135 135 0
-0.803879 -2.641318 46.873433 138 138 138 0
-0.688162 -2.637955 46.813751 141 141 141 0
-0.573326 -2.637300 46.802128 137 137 137 0
-0.458698 -2.637516 46.805969 135 135 135 0
-0.344651 -2.642326 46.891321 138 138 138 0
-0.230494 -2.650679 47.039551 137 137 137 0
-0.114446 -2.632266 46.712794 121 121 121 0
0.000000 -2.609479 46.308411 119 119 119 0
0.112792 -2.594224 46.037698 116 116 116 0
0.224535 -2.582151 45.823435 117 117 117 0
0.336239 -2.577833 45.746817 116 116 116 0
0.447731 -2.574456 45.686878 114 114 114 0
0.559058 -2.571666 45.637366 116 116 116 0
0.669071 -2.564771 45.515019 116 116 116 0
0.781274 -2.567044 45.555343 113 113 113 0
0.892728 -2.566593 45.547350 116 116 116 0
1.002313 -2.561466 45.456371 113 113 113 0
1.115247 -2.565069 45.520298 114 114 114 0
1.226154 -2.563777 45.497375 114 114 114 0
1.335799 -2.560282 45.435346 114 114 114 0
1.448236 -2.562263 45.470509 112 112 112 0
1.562459 -2.566896 45.552726 112 112 112 0
