ply
format ascii 1.0
element vertex 1116
property float x
property float y
property float z
property uchar red
property uchar green
property uchar blue
property uchar alpha
end_header
7.690277 -0.591560 40.242163 124 124 124 0
7.965019 -0.604938 41.152257 122 122 122 0
-7.771212 -0.485701 39.649038 90 90 90 0
-7.115542 -0.450351 36.763325 92 92 92 0
-7.619000 -0.488397 39.869179 86 86 86 0
-6.975020 -0.452923 36.973336 91 91 91 0
-7.464254 -0.491069 40.087292 85 85 85 0
-6.841352 -0.456090 37.231848 87 87 87 0
-6.761836 -0.456881 37.296392 93 93 93 0
-7.249350 -0.496531 40.533131 95 95 95 0
-7.163668 -0.497477 40.610361 86 86 86 0
-6.527348 -0.459672 37.524275 87 87 87 0
-7.016190 -0.501156 40.910726 86 86 86 0
-6.936791 -0.502666 41.033958 88 88 88 0
-6.846209 -0.503398 41.093691 91 91 91 0
-6.762942 -0.504697 41.199769 89 89 89 0
-6.680036 -0.506063 41.311291 86 86 86 0
-6.596550 -0.507427 41.422606 81 81 81 0
-6.532420 -0.510345 41.660843 85 85 85 0
-6.442930 -0.511344 41.742336 89 89 89 0
-6.381053 -0.514601 42.008248 82 82 82 0
-5.230884 -0.502970 41.058743 116 116 116 0
-5.170937 -0.506955 41.384048 140 140 140 0
-5.066462 -0.506646 41.358870 146 146 146 0
-4.954826 -0.505595 41.273022 149 149 149 0
-4.844161 -0.504600 41.191848 153 153 153 0
-4.743843 -0.504664 41.197077 150 150 150 0
-4.641343 -0.504494 41.183170 147 147 147 0
-4.530389 -0.503377 41.091962 140 140 140 0
-4.411373 -0.501292 40.921824 135 135 135 0
-4.288609 -0.498675 40.708200 140 140 140 0
-4.175561 -0.497091 40.578826 140 140 140 0
-4.064226 -0.495637 40.460189 139 139 139 0
-3.961066 -0.495133 40.419043 137 137 137 0
-3.854515 -0.494169 40.340289 135 135 135 0
-3.744841 -0.492742 40.223853 135 135 135 0
-3.637531 -0.491558 40.127198 139 139 139 0
-3.531814 -0.490530 40.043245 138 138 138 0
-3.426815 -0.489545 39.962855 140 140 140 0
-3.319991 -0.488234 39.855833 139 139 139 0
-3.218826 -0.487701 39.812321 140 140 140 0
-3.117285 -0.487076 39.761294 140 140 140 0
-3.012947 -0.485959 39.670143 141 141 141 0
-2.916664 -0.486111 39.682501 140 140 140 0
-2.820546 -0.486301 39.698040 137 137 137 0
-2.722450 -0.486152 39.685861 133 133 133 0
-2.627016 -0.486484 39.713019 127 127 127 0
-2.536183 -0.487728 39.814492 121 121 121 0
-2.435632 -0.487126 39.765425 120 120 120 0
-2.342521 -0.488025 39.838787 123 123 123 0
-2.249887 -0.489106 39.927006 127 127 127 0
-2.153573 -0.489448 39.954964 130 130 130 0
-2.057274 -0.489827 39.985896 129 129 129 0
-1.960851 -0.490213 40.017375 130 130 130 0
-1.865017 -0.490794 40.064807 126 126 126 0
-1.767465 -0.490963 40.078572 127 127 127 0
-1.670925 -0.491449 40.118257 126 126 126 0
-1.575124 -0.492226 40.181736 127 127 127 0
-1.477270 -0.492423 40.197827 127 127 127 0
-1.380030 -0.492868 40.234121 128 128 128 0
-1.284040 -0.493861 40.315215 129 129 129 0
-1.185922 -0.494134 40.337483 129 129 129 0
-1.086597 -0.493908 40.319011 130 130 130 0
-0.990326 -0.495163 40.421455 129 129 129 0
-0.893126 -0.496181 40.504577 126 126 126 0
-0.793790 -0.496119 40.499501 120 120 120 0
-0.695986 -0.497133 40.582302 116 116 116 0
-0.535138 -0.445948 36.403917 114 114 114 0
-0.447032 -0.447032 36.492376 114 114 114 0
-0.357813 -0.447266 36.511542 111 111 111 0
-0.267051 -0.445085 36.333438 101 101 101 0
-0.202332 -0.505831 41.292292 99 99 99 0
-0.101917 -0.509587 41.598943 140 140 140 0
0.000000 -0.509225 41.569382 141 141 141 0
0.101738 -0.508692 41.525839 141 141 141 0
0.203036 -0.507589 41.435816 142 142 142 0
0.304670 -0.507784 41.451745 142 142 142 0
0.406383 -0.507979 41.467671 137 137 137 0
0.506616 -0.506616 41.356443 138 138 138 0
0.607927 -0.506606 41.355608 137 137 137 0
0.709956 -0.507111 41.396842 137 137 137 0
0.809937 -0.506210 41.323295 138 138 138 0
0.910482 -0.505823 41.291703 142 142 142 0
1.012096 -0.506048 41.310058 141 141 141 0
1.111083 -0.505038 41.227583 142 142 142 0
1.212049 -0.505020 41.226156 144 144 144 0
1.314700 -0.505654 41.277858 142 142 142 0
1.414656 -0.505234 41.243624 139 139 139 0
1.515010 -0.505003 41.224768 139 139 139 0
1.616570 -0.505178 41.239018 139 139 139 0
1.718494 -0.505440 41.260368 138 138 138 0
1.811020 -0.503061 41.066216 137 137 137 0
1.902656 -0.500699 40.873377 132 132 132 0
2.000407 -0.500102 40.824639 134 134 134 0
2.101871 -0.500446 40.852696 134 134 134 0
2.201004 -0.500228 40.834961 134 134 134 0
2.297948 -0.499554 40.779912 126 126 126 0
2.404047 -0.500843 40.885157 123 123 123 0
2.505220 -0.501044 40.901559 120 120 120 0
2.609870 -0.501898 40.971269 112 112 112 0
2.367343 -0.438397 35.787504 114 114 114 0
2.464959 -0.440171 35.932345 109 109 109 0
2.540687 -0.438049 35.759136 115 115 115 0
3.059302 -0.509884 41.623159 128 128 128 0
3.183353 -0.513444 41.913792 146 146 146 0
3.296720 -0.515113 42.050003 147 147 147 0
3.392588 -0.514028 41.961503 135 135 135 0
3.487453 -0.512861 41.866185 135 135 135 0
3.582860 -0.511837 41.782623 137 137 137 0
3.690209 -0.512529 41.839099 136 136 136 0
3.803936 -0.514045 41.962888 154 154 154 0
3.916154 -0.515283 42.063957 153 153 153 0
4.024785 -0.515998 42.122296 153 153 153 0
4.110371 -0.513796 41.942559 151 151 151 0
4.212289 -0.513694 41.934183 157 157 157 0
4.310341 -0.513136 41.888639 153 153 153 0
4.411134 -0.512923 41.871224 148 148 148 0
4.514726 -0.513037 41.880571 140 140 140 0
4.616306 -0.512923 41.871260 135 135 135 0
4.718009 -0.512827 41.863432 138 138 138 0
4.815541 -0.512292 41.819724 122 122 122 0
4.937357 -0.514308 41.984327 136 136 136 0
5.061420 -0.516471 42.160929 149 149 149 0
5.159474 -0.515947 42.118152 144 144 144 0
5.253162 -0.515016 42.042115 146 146 146 0
5.339399 -0.513404 41.910511 140 140 140 0
5.441273 -0.513328 41.904298 136 136 136 0
5.537840 -0.512763 41.858205 134 134 134 0
5.647748 -0.513432 41.912789 134 134 134 0
5.743880 -0.512846 41.865014 134 134 134 0
5.852873 -0.513410 41.911010 137 137 137 0
5.956857 -0.513522 41.920173 135 135 135 0
6.052406 -0.512916 41.870672 137 137 137 0
6.155855 -0.512988 41.876563 139 139 139 0
6.268340 -0.513798 41.942722 137 137 137 0
6.361851 -0.513053 41.881840 140 140 140 0
6.459635 -0.512669 41.850567 141 141 141 0
6.553716 -0.512009 41.796659 142 142 142 0
6.666618 -0.512817 41.862596 141 141 141 0
6.751180 -0.511453 41.751266 141 141 141 0
6.852966 -0.511415 41.748194 140 140 140 0
6.957213 -0.511560 41.759982 138 138 138 0
7.049262 -0.510816 41.699274 136 136 136 0
6.741773 -0.481555 39.310628 128 128 128 0
6.838176 -0.481562 39.311158 122 122 122 0
6.935402 -0.481625 39.316339 119 119 119 0
7.349845 -0.503414 41.095022 119 119 119 0
7.128120 -0.481630 39.316713 122 122 122 0
7.388886 -0.492592 40.211623 122 122 122 0
7.326058 -0.481977 39.345101 116 116 116 0
7.588970 -0.492790 40.227777 116 116 116 0
7.858916 -0.503777 41.124628 120 120 120 0
7.964712 -0.504096 41.150669 128 128 128 0
-7.799498 -0.389975 39.793359 92 92 92 0
-7.721713 -0.390973 39.895185 91 91 91 0
-7.062382 -0.362173 36.956475 88 88 88 0
-7.004594 -0.363875 37.130104 88 88 88 0
-7.505239 -0.395013 40.307407 86 86 86 0
-6.866577 -0.366217 37.369125 88 88 88 0
-6.789423 -0.366996 37.448555 90 90 90 0
-6.716624 -0.368034 37.554510 85 85 85 0
-7.208801 -0.400489 40.866219 84 84 84 0
-6.583894 -0.370924 37.849349 83 83 83 0
-7.044915 -0.402567 41.078220 86 86 86 0
-6.982373 -0.404775 41.303596 87 87 87 0
-6.902502 -0.406030 41.431583 89 89 89 0
-6.807709 -0.406430 41.472491 89 89 89 0
-6.739886 -0.408478 41.681421 85 85 85 0
-6.664840 -0.410144 41.851428 83 83 83 0
-6.570835 -0.410677 41.905836 85 85 85 0
-6.469506 -0.410762 41.914521 83 83 83 0
-5.892200 -0.436459 44.536657 93 93 93 0
-5.785595 -0.436649 44.555990 125 125 125 0
-5.699038 -0.438388 44.733422 128 128 128 0
-5.168037 -0.405336 41.360837 139 139 139 0
-5.066599 -0.405328 41.359989 144 144 144 0
-4.951574 -0.404210 41.245928 147 147 147 0
-4.849124 -0.404094 41.234047 145 145 145 0
-4.742455 -0.403613 41.185023 137 137 137 0
-4.631178 -0.402711 41.092971 137 137 137 0
-4.511814 -0.401050 40.923484 135 135 135 0
-4.385957 -0.398723 40.686061 135 135 135 0
-4.281082 -0.398240 40.636757 137 137 137 0
-4.164338 -0.396604 40.469758 135 135 135 0
-4.051971 -0.395314 40.338184 139 139 139 0
-3.954835 -0.395483 40.355457 141 141 141 0
-3.850258 -0.394898 40.295736 139 139 139 0
-3.737345 -0.393405 40.143346 138 138 138 0
-3.630630 -0.392501 40.051073 137 137 137 0
-3.527208 -0.391912 39.991021 139 139 139 0
-3.421970 -0.391082 39.906359 140 140 140 0
-3.315277 -0.390033 39.799243 141 141 141 0
-3.216678 -0.389900 39.785746 141 141 141 0
-3.112883 -0.389110 39.705134 142 142 142 0
-3.008922 -0.388248 39.617140 142 142 142 0
-2.915280 -0.388704 39.663669 139 139 139 0
-2.818016 -0.388692 39.662430 136 136 136 0
-2.719188 -0.388455 39.638302 134 134 134 0
-2.623246 -0.388629 39.656022 129 129 129 0
-2.532827 -0.389666 39.761802 124 124 124 0
-2.436049 -0.389768 39.772231 118 118 118 0
-2.340452 -0.390075 39.803605 119 119 119 0
-2.246041 -0.390616 39.858765 122 122 122 0
-2.152103 -0.391291 39.927695 129 129 129 0
-2.054544 -0.391342 39.932827 128 128 128 0
-1.959312 -0.391862 39.985958 128 128 128 0
-1.863217 -0.392256 40.026136 125 125 125 0
-1.765598 -0.392355 40.036231 127 127 127 0
-1.668939 -0.392691 40.070560 124 124 124 0
-1.573406 -0.393351 40.137907 125 125 125 0
-1.475830 -0.393555 40.158640 127 127 127 0
-1.379345 -0.394099 40.214146 126 126 126 0
-1.282648 -0.394661 40.271530 128 128 128 0
-1.184622 -0.394874 40.293258 129 129 129 0
-1.085674 -0.394790 40.284742 132 132 132 0
-0.989382 -0.395753 40.382957 129 129 129 0
-0.891764 -0.396339 40.442796 128 128 128 0
-0.792884 -0.396442 40.453243 119 119 119 0
-0.621001 -0.354857 36.209942 118 118 118 0
-0.533925 -0.355950 36.321460 116 116 116 0
-0.446267 -0.357013 36.429927 112 112 112 0
-0.356273 -0.356273 36.354381 109 109 109 0
-0.266962 -0.355949 36.321334 96 96 96 0
-0.202240 -0.404480 41.273460 84 84 84 0
-0.101730 -0.406921 41.522506 131 131 131 0
0.000000 -0.407046 41.535275 142 142 142 0
0.101557 -0.406226 41.451666 139 139 139 0
0.202704 -0.405408 41.368208 136 136 136 0
0.304293 -0.405724 41.400366 138 138 138 0
0.405554 -0.405554 41.383076 140 140 140 0
0.505900 -0.404720 41.297930 135 135 135 0
0.607522 -0.405014 41.328006 137 137 137 0
0.708067 -0.404609 41.286683 137 137 137 0
0.808698 -0.404349 41.260102 139 139 139 0
0.908459 -0.403759 41.199945 142 142 142 0
1.011166 -0.404467 41.272096 147 147 147 0
1.109978 -0.403628 41.186562 151 151 151 0
1.210900 -0.403633 41.187091 150 150 150 0
1.313056 -0.404017 41.226235 150 150 150 0
1.415027 -0.404293 41.254421 143 143 143 0
1.514048 -0.403746 41.198595 142 142 142 0
1.612886 -0.403221 41.145047 138 138 138 0
1.705925 -0.401394 40.958581 139 139 139 0
1.805708 -0.401269 40.945766 136 136 136 0
1.899868 -0.399972 40.813500 138 138 138 0
1.997552 -0.399510 40.766358 135 135 135 0
2.098444 -0.399704 40.786087 136 136 136 0
2.196136 -0.399297 40.744641 131 131 131 0
2.294088 -0.398972 40.711415 130 130 130 0
2.394160 -0.399027 40.717004 121 121 121 0
2.504260 -0.400682 40.885885 121 121 121 0
2.271524 -0.349465 35.659719 119 119 119 0
2.369255 -0.351001 35.816405 108 108 108 0
2.454747 -0.350678 35.783479 111 111 111 0
2.543371 -0.350810 35.796922 113 113 113 0
2.642352 -0.352314 35.950368 107 107 107 0
3.180965 -0.410447 41.882351 134 134 134 0
3.292057 -0.411507 41.990528 147 147 147 0
3.388970 -0.410784 41.916756 144 144 144 0
3.490406 -0.410636 41.901632 133 133 133 0
3.565984 -0.407541 41.585824 130 130 130 0
3.678847 -0.408761 41.710285 129 129 129 0
3.783654 -0.409044 41.739149 139 139 139 0
3.912228 -0.411813 42.021785 153 153 153 0
4.021617 -0.412474 42.089135 152 152 152 0
4.123611 -0.412361 42.077661 157 157 157 0
4.208253 -0.410561 41.894005 157 157 157 0
4.309617 -0.410440 41.881608 152 152 152 0
4.408644 -0.410106 41.847590 149 149 149 0
4.512548 -0.410232 41.860370 144 144 144 0
4.614190 -0.410150 41.852060 136 136 136 0
4.712629 -0.409794 41.815700 135 135 135 0
4.811012 -0.409448 41.780390 125 125 125 0
4.936081 -0.411340 41.973476 134 134 134 0
5.060254 -0.413082 42.151221 149 149 149 0
5.159924 -0.412794 42.121827 146 146 146 0
5.251344 -0.411870 42.027564 142 142 142 0
5.346605 -0.411277 41.967074 140 140 140 0
5.445190 -0.410958 41.934462 138 138 138 0
5.545037 -0.410743 41.912598 136 136 136 0
5.643152 -0.410411 41.878681 135 135 135 0
5.752754 -0.410911 41.929690 135 135 135 0
5.862886 -0.411431 41.982712 137 137 137 0
5.966037 -0.411451 41.984780 137 137 137 0
6.064746 -0.411169 41.956042 140 140 140 0
6.172586 -0.411506 41.990380 139 139 139 0
6.263874 -0.410746 41.912837 140 140 140 0
6.367392 -0.410799 41.918316 139 139 139 0
6.466196 -0.410552 41.893076 141 141 141 0
6.569678 -0.410605 41.898460 142 142 142 0
6.667253 -0.410293 41.866582 141 141 141 0
6.762925 -0.409874 41.823905 139 139 139 0
6.857300 -0.409391 41.774597 141 141 141 0
6.957180 -0.409246 41.759785 138 138 138 0
7.051035 -0.408756 41.709758 135 135 135 0
7.165812 -0.409475 41.783163 126 126 126 0
6.840244 -0.385366 39.323048 121 121 121 0
7.092548 -0.394030 40.207187 125 125 125 0
7.350922 -0.402790 41.101043 125 125 125 0
7.290471 -0.394080 40.212195 126 126 126 0
7.553608 -0.402859 41.108072 123 123 123 0
7.651904 -0.402732 41.095081 117 117 117 0
7.855244 -0.408065 41.639245 111 111 111 0
7.856712 -0.402908 41.113092 119 119 119 0
8.140196 -0.412162 42.057328 126 126 126 0
-7.828642 -0.293574 39.942049 89 89 89 0
-7.759185 -0.294653 40.088790 89 89 89 0
-7.082929 -0.272420 37.063990 87 87 87 0
-7.043694 -0.274430 37.337368 91 91 91 0
-7.549750 -0.298016 40.546457 87 87 87 0
-6.890406 -0.275616 37.498806 85 85 85 0
-7.395480 -0.299817 40.791397 81 81 81 0
-6.704387 -0.279349 38.006727 81 81 81 0
-7.201174 -0.304275 41.397951 85 85 85 0
-7.116494 -0.304993 41.495593 84 84 84 0
-7.037513 -0.305979 41.629775 83 83 83 0
-6.955542 -0.306862 41.749955 86 86 86 0
-6.881123 -0.308110 41.919726 86 86 86 0
-6.787710 -0.308532 41.977179 91 91 91 0
-6.701824 -0.309315 42.083667 84 84 84 0
-6.019793 -0.328352 44.673788 100 100 100 0
-5.908385 -0.328244 44.658995 129 129 129 0
-5.796581 -0.328108 44.640596 127 127 127 0
-5.697577 -0.328706 44.721956 128 128 128 0
-5.166920 -0.303936 41.351899 132 132 132 0
-5.063815 -0.303829 41.337267 140 140 140 0
-4.951897 -0.303177 41.248618 142 142 142 0
-4.841209 -0.302576 41.166743 137 137 137 0
-4.726396 -0.301685 41.045561 134 134 134 0
-4.611119 -0.300725 40.914988 135 135 135 0
-4.495191 -0.299679 40.772710 136 136 136 0
-4.379852 -0.298626 40.629424 135 135 135 0
-4.271033 -0.297979 40.541370 139 139 139 0
-4.152886 -0.296635 40.358463 138 138 138 0
-4.047969 -0.296193 40.298351 141 141 141 0
-3.950584 -0.296294 40.312083 142 142 142 0
-3.843832 -0.295679 40.228487 140 140 140 0
-3.733920 -0.294783 40.106557 138 138 138 0
-3.626551 -0.294045 40.006079 137 137 137 0
-3.521877 -0.293490 39.930583 140 140 140 0
-3.415763 -0.292780 39.833966 139 139 139 0
-3.310672 -0.292118 39.743963 140 140 140 0
-3.211323 -0.291938 39.719522 142 142 142 0
-3.109840 -0.291547 39.666323 143 143 143 0
-3.005177 -0.290824 39.567840 144 144 144 0
-2.911587 -0.291159 39.613433 140 140 140 0
-2.814670 -0.291173 39.615339 136 136 136 0
-2.716451 -0.291048 39.598405 135 135 135 0
-2.620364 -0.291152 39.612454 134 134 134 0
-2.527579 -0.291644 39.679414 128 128 128 0
-2.429984 -0.291598 39.673205 124 124 124 0
-2.337445 -0.292181 39.752464 121 121 121 0
-2.243868 -0.292678 39.820204 122 122 122 0
-2.147919 -0.292898 39.850081 125 125 125 0
-2.050410 -0.292916 39.852487 126 126 126 0
-1.954090 -0.293113 39.879378 126 126 126 0
-1.859994 -0.293683 39.956916 126 126 126 0
-1.763017 -0.293836 39.977711 126 126 126 0
-1.667445 -0.294255 40.034687 126 126 126 0
-1.570742 -0.294514 40.069952 125 125 125 0
-1.475191 -0.295038 40.141261 126 126 126 0
-1.377540 -0.295187 40.161508 127 127 127 0
-1.281263 -0.295676 40.228051 127 127 127 0
-1.183744 -0.295936 40.263392 129 129 129 0
-1.085428 -0.296026 40.275618 130 130 130 0
-0.988207 -0.296462 40.334982 129 129 129 0
-0.889987 -0.296662 40.362203 124 124 124 0
-0.792190 -0.297071 40.417864 123 123 123 0
-0.620454 -0.265909 36.178071 118 118 118 0
-0.533103 -0.266552 36.265541 116 116 116 0
-0.446022 -0.267613 36.409993 113 113 113 0
-0.352088 -0.264066 35.927375 104 104 104 0
-0.266444 -0.266444 36.250911 74 74 74 0
-0.201893 -0.302839 41.202621 91 91 91 0
-0.101574 -0.304723 41.458976 135 135 135 0
0.000000 -0.304871 41.479031 138 138 138 0
0.101330 -0.303990 41.359174 138 138 138 0
0.202378 -0.303567 41.301682 135 135 135 0
0.303479 -0.303479 41.289638 138 138 138 0
0.404785 -0.303589 41.304621 139 139 139 0
0.504561 -0.302737 41.188659 135 135 135 0
0.605969 -0.302984 41.222372 137 137 137 0
0.706910 -0.302961 41.219234 138 138 138 0
0.807328 -0.302748 41.190211 142 142 142 0
0.908026 -0.302675 41.180327 142 142 142 0
1.009688 -0.302906 41.211739 147 147 147 0
1.109807 -0.302675 41.180240 151 151 151 0
1.211095 -0.302774 41.193706 150 150 150 0
1.313702 -0.303162 41.246522 146 146 146 0
1.414076 -0.303016 41.226696 142 142 142 0
1.512832 -0.302566 41.165489 138 138 138 0
1.604728 -0.300887 40.936942 136 136 136 0
1.703722 -0.300657 40.905698 136 136 136 0
1.797920 -0.299653 40.769167 135 135 135 0
1.896513 -0.299449 40.741411 134 134 134 0
1.994190 -0.299128 40.697754 135 135 135 0
2.093431 -0.299062 40.688659 134 134 134 0
2.195673 -0.299410 40.736041 135 135 135 0
2.288615 -0.298515 40.614291 127 127 127 0
2.392911 -0.299114 40.695771 124 124 124 0
2.497328 -0.299679 40.772700 125 125 125 0
2.598159 -0.299788 40.787425 119 119 119 0
2.354237 -0.261582 35.589378 111 111 111 0
2.446920 -0.262170 35.669383 110 110 110 0
2.543371 -0.263107 35.796922 110 110 110 0
2.624488 -0.262449 35.707315 103 103 103 0
3.174446 -0.307204 41.796518 120 120 120 0
3.284053 -0.307880 41.888430 144 144 144 0
3.381545 -0.307413 41.824919 146 146 146 0
3.479253 -0.306993 41.767741 141 141 141 0
3.558968 -0.305054 41.503996 133 133 133 0
3.654969 -0.304581 41.439558 123 123 123 0
3.765575 -0.305317 41.539713 131 131 131 0
3.909052 -0.308609 41.987669 143 143 143 0
4.016579 -0.308968 42.036406 154 154 154 0
4.115480 -0.308661 41.994693 145 145 145 0
4.213186 -0.308282 41.943117 154 154 154 0
4.309127 -0.307795 41.876844 151 151 151 0
4.408932 -0.307600 41.850327 149 149 149 0
4.513588 -0.307745 41.870023 146 146 146 0
4.615525 -0.307702 41.864173 139 139 139 0
4.715478 -0.307531 41.840975 132 132 132 0
4.803261 -0.306591 41.713074 120 120 120 0
4.940105 -0.308757 42.007699 137 137 137 0
5.060916 -0.309852 42.156735 149 149 149 0
5.158928 -0.309536 42.113700 142 142 142 0
5.248134 -0.308714 42.001874 141 141 141 0
5.350284 -0.308670 41.995951 139 139 139 0
5.450067 -0.308494 41.972025 136 136 136 0
5.556762 -0.308709 42.001226 138 138 138 0
5.649303 -0.308144 41.924330 138 138 138 0
5.757758 -0.308451 41.966166 137 137 137 0
5.863139 -0.308586 41.984523 137 137 137 0
5.967920 -0.308686 41.998033 137 137 137 0
6.071100 -0.308700 42.000000 138 138 138 0
6.175811 -0.308791 42.012319 140 140 140 0
6.273426 -0.308529 41.976757 141 141 141 0
6.374357 -0.308437 41.964167 139 139 139 0
6.478641 -0.308507 41.973701 142 142 142 0
6.567329 -0.307844 41.883475 142 142 142 0
6.667996 -0.307754 41.871248 141 141 141 0
6.766835 -0.307583 41.848084 141 141 141 0
6.860002 -0.307164 41.791059 140 140 140 0
6.967966 -0.307410 41.824527 137 137 137 0
7.060234 -0.306967 41.764174 133 133 133 0
6.441602 -0.276069 37.560360 127 127 127 0
6.838298 -0.288942 39.311857 123 123 123 0
7.094443 -0.295602 40.217934 129 129 129 0
7.191841 -0.295555 40.211579 128 128 128 0
7.291229 -0.295590 40.216376 121 121 121 0
7.717933 -0.308717 42.002355 120 120 120 0
7.821205 -0.308732 42.004325 111 111 111 0
7.585683 -0.295546 40.210352 116 116 116 0
8.036921 -0.309112 42.056103 119 119 119 0
7.967967 -0.302581 41.167489 135 135 135 0
-7.259747 -0.181494 37.039524 89 89 89 0
-7.192192 -0.182081 37.159352 86 86 86 0
-7.123136 -0.182645 37.274388 88 88 88 0
-7.056297 -0.183280 37.404173 86 86 86 0
-6.992427 -0.184011 37.553314 85 85 85 0
-6.918973 -0.184506 37.654274 82 82 82 0
-6.740532 -0.187237 38.211632 79 79 79 0
-6.686688 -0.188357 38.440287 84 84 84 0
-7.151301 -0.204323 41.698547 83 83 83 0
-7.089387 -0.205489 41.936629 84 84 84 0
-7.011192 -0.206212 42.083985 86 86 86 0
-6.924143 -0.206691 42.181805 86 86 86 0
-6.814042 -0.206486 42.140025 81 81 81 0
-6.159427 -0.219980 44.893785 90 90 90 0
-6.033751 -0.219409 44.777374 125 125 125 0
-5.918152 -0.219191 44.732820 124 124 124 0
-5.806407 -0.219110 44.716265 122 122 122 0
-5.703811 -0.219377 44.770884 122 122 122 0
-5.158308 -0.202287 41.282979 128 128 128 0
-5.059240 -0.202370 41.299917 134 134 134 0
-4.942198 -0.201722 41.167833 133 133 133 0
-4.824589 -0.201025 41.025418 137 137 137 0
-4.710023 -0.200427 40.903368 132 132 132 0
-4.600692 -0.200030 40.822467 134 134 134 0
-4.485931 -0.199375 40.688712 135 135 135 0
-4.373140 -0.198779 40.567165 135 135 135 0
-4.266737 -0.198453 40.500588 135 135 135 0
-4.146999 -0.197476 40.301252 138 138 138 0
-4.042545 -0.197197 40.244352 140 140 140 0
-3.939341 -0.196967 40.197359 139 139 139 0
-3.837835 -0.196812 40.165729 142 142 142 0
-3.728791 -0.196252 40.051459 139 139 139 0
-3.622297 -0.195800 39.959146 140 140 140 0
-3.518695 -0.195483 39.894507 140 140 140 0
-3.410111 -0.194863 39.768053 140 140 140 0
-3.305832 -0.194461 39.685862 141 141 141 0
-3.208789 -0.194472 39.688171 141 141 141 0
-3.105703 -0.194106 39.613559 141 141 141 0
-3.002662 -0.193720 39.534716 143 143 143 0
-2.909448 -0.193963 39.584323 141 141 141 0
-2.812326 -0.193954 39.582352 137 137 137 0
-2.713145 -0.193796 39.550224 135 135 135 0
-2.620011 -0.194075 39.607114 133 133 133 0
-2.525749 -0.194288 39.650690 133 133 133 0
-2.427961 -0.194237 39.640178 131 131 131 0
-2.332462 -0.194372 39.667714 125 125 125 0
-2.239615 -0.194749 39.744713 123 123 123 0
-2.144260 -0.194933 39.782189 125 125 125 0
-2.047626 -0.195012 39.798366 126 126 126 0
-1.952417 -0.195242 39.845235 125 125 125 0
-1.858043 -0.195583 39.914986 123 123 123 0
-1.760800 -0.195644 39.927440 125 125 125 0
-1.665798 -0.195976 39.995147 124 124 124 0
-1.571159 -0.196395 40.080599 126 126 126 0
-1.473424 -0.196457 40.093174 125 125 125 0
-1.375571 -0.196510 40.104114 127 127 127 0
-1.279823 -0.196896 40.182827 128 128 128 0
-1.182159 -0.197027 40.209502 129 129 129 0
-1.083360 -0.196974 40.198871 131 131 131 0
-0.987481 -0.197496 40.305327 128 128 128 0
-0.889396 -0.197643 40.335404 125 125 125 0
-0.791508 -0.197877 40.383077 124 124 124 0
-0.619924 -0.177121 36.147151 119 119 119 0
-0.532926 -0.177642 36.253467 115 115 115 0
-0.443910 -0.177564 36.237512 108 108 108 0
-0.352890 -0.176445 36.009178 92 92 92 0
-0.299074 -0.199382 40.690281 72 72 72 0
-0.202302 -0.202302 41.286196 92 92 92 0
-0.101555 -0.203111 41.451177 137 137 137 0
0.000000 -0.202763 41.380103 134 134 134 0
0.101178 -0.202356 41.297114 137 137 137 0
0.201991 -0.201991 41.222719 135 135 135 0
0.303042 -0.202028 41.230272 138 138 138 0
0.403054 -0.201527 41.127989 137 137 137 0
0.503776 -0.201510 41.124576 135 135 135 0
0.604825 -0.201608 41.144571 136 136 136 0
0.706427 -0.201836 41.191099 138 138 138 0
0.806445 -0.201611 41.145155 141 141 141 0
0.907790 -0.201731 41.169620 146 146 146 0
1.009692 -0.201938 41.211933 148 148 148 0
1.110756 -0.201956 41.215423 149 149 149 0
1.211831 -0.201972 41.218740 149 149 149 0
1.312975 -0.201996 41.223710 141 141 141 0
1.410742 -0.201535 41.129498 141 141 141 0
1.506604 -0.200881 40.996026 135 135 135 0
1.598793 -0.199849 40.785546 136 136 136 0
1.696397 -0.199576 40.729815 138 138 138 0
1.795967 -0.199552 40.724871 138 138 138 0
1.890705 -0.199022 40.616649 137 137 137 0
1.987917 -0.198792 40.569730 136 136 136 0
2.089734 -0.199022 40.616803 133 133 133 0
2.189665 -0.199060 40.624590 132 132 132 0
2.285373 -0.198728 40.556754 123 123 123 0
2.389408 -0.199117 40.636192 123 123 123 0
2.487765 -0.199021 40.616576 124 124 124 0
2.594322 -0.199563 40.727189 121 121 121 0
2.355447 -0.174478 35.607666 114 114 114 0
2.445337 -0.174667 35.646312 108 108 108 0
2.537682 -0.175013 35.716851 108 108 108 0
2.632091 -0.175473 35.810765 110 110 110 0
2.735634 -0.176493 36.018880 114 114 114 0
3.273295 -0.204581 41.751212 136 136 136 0
3.373810 -0.204473 41.729254 143 143 143 0
3.476216 -0.204483 41.731290 138 138 138 0
3.565029 -0.203716 41.574682 134 134 134 0
3.659317 -0.203295 41.488859 123 123 123 0
3.754333 -0.202937 41.415702 123 123 123 0
3.898604 -0.205190 41.875445 139 139 139 0
4.006022 -0.205437 41.925919 139 139 139 0
4.094975 -0.204749 41.785459 144 144 144 0
4.206490 -0.205195 41.876460 144 144 144 0
4.304094 -0.204957 41.827932 145 145 145 0
4.404162 -0.204845 41.805049 146 146 146 0
4.513588 -0.205163 41.870023 146 146 146 0
4.617388 -0.205217 41.881075 138 138 138 0
4.716698 -0.205074 41.851797 130 130 130 0
4.796275 -0.204097 41.652411 115 115 115 0
4.940535 -0.205856 42.011351 139 139 139 0
5.065138 -0.206740 42.191903 146 146 146 0
5.163552 -0.206542 42.151443 144 144 144 0
5.257983 -0.206195 42.080693 142 142 142 0
5.351629 -0.205832 42.006504 140 140 140 0
5.448484 -0.205603 41.959831 143 143 143 0
5.555997 -0.205778 41.995443 139 139 139 0
5.660273 -0.205828 42.005733 140 140 140 0
5.765309 -0.205904 42.021199 138 138 138 0
5.868220 -0.205902 42.020911 139 139 139 0
5.968110 -0.205797 41.999370 138 138 138 0
6.080544 -0.206120 42.065335 141 141 141 0
6.182806 -0.206094 42.059906 140 140 140 0
6.281402 -0.205948 42.030127 139 139 139 0
6.370811 -0.205510 41.940821 141 141 141 0
6.479266 -0.205691 41.977751 144 144 144 0
6.580888 -0.205653 41.969947 143 143 143 0
6.675562 -0.205402 41.918758 142 142 142 0
6.774116 -0.205276 41.893109 143 143 143 0
6.873726 -0.205186 41.874662 143 143 143 0
6.974221 -0.205124 41.862071 141 141 141 0
7.070515 -0.204942 41.824993 133 133 133 0
7.175398 -0.205011 41.839054 128 128 128 0
6.840415 -0.192688 39.324032 129 129 129 0
6.782251 -0.188396 38.448133 128 128 128 0
7.352703 -0.201444 41.111005 124 124 124 0
7.450595 -0.201367 41.095395 123 123 123 0
7.555920 -0.201491 41.120656 117 117 117 0
7.652896 -0.201392 41.100405 115 115 115 0
7.414821 -0.192593 39.304643 116 116 116 0
8.091215 -0.207467 42.340213 130 130 130 0
7.968793 -0.201742 41.171754 134 134 134 0
-7.289462 -0.091118 37.191132 85 85 85 0
-7.219729 -0.091389 37.301622 87 87 87 0
-7.731279 -0.099119 40.456718 82 82 82 0
-7.086258 -0.092029 37.562988 82 82 82 0
-6.872237 -0.094140 38.424582 81 81 81 0
-6.773526 -0.094077 38.398675 81 81 81 0
-7.262652 -0.102291 41.751379 81 81 81 0
-6.645128 -0.094930 38.747099 83 83 83 0
-7.131023 -0.103348 42.182920 83 83 83 0
-7.043749 -0.103585 42.279408 79 79 79 0
-6.313999 -0.110772 45.213028 90 90 90 0
-6.172298 -0.110220 44.987595 118 118 118 0
-6.041295 -0.109842 44.833360 124 124 124 0
-5.931537 -0.109843 44.833994 116 116 116 0
-5.819289 -0.109798 44.815475 115 115 115 0
-5.716863 -0.109940 44.873334 118 118 118 0
-5.156130 -0.101101 41.265542 122 122 122 0
-5.048993 -0.100980 41.216267 133 133 133 0
-4.930042 -0.100613 41.066574 134 134 134 0
-4.814198 -0.100296 40.937057 137 137 137 0
-4.699791 -0.099996 40.814508 138 138 138 0
-4.589527 -0.099772 40.723395 136 136 136 0
-4.477617 -0.099503 40.613307 138 138 138 0
-4.363307 -0.099166 40.475950 137 137 137 0
-4.254532 -0.098943 40.384739 135 135 135 0
-4.138245 -0.098530 40.216183 139 139 139 0
-4.036541 -0.098452 40.184577 139 139 139 0
-3.934316 -0.098358 40.146082 138 138 138 0
-3.827198 -0.098133 40.054406 137 137 137 0
-3.722960 -0.097973 39.988832 136 136 136 0
-3.616410 -0.097741 39.894214 139 139 139 0
-3.514003 -0.097611 39.841301 138 138 138 0
-3.409256 -0.097407 39.758083 141 141 141 0
-3.302644 -0.097137 39.647583 140 140 140 0
-3.206404 -0.097164 39.658675 143 143 143 0
-3.102556 -0.096955 39.573418 145 145 145 0
-3.000879 -0.096803 39.511249 142 142 142 0
-2.907660 -0.096922 39.559995 142 142 142 0
-2.809657 -0.096885 39.544792 138 138 138 0
-2.709233 -0.096758 39.493190 133 133 133 0
-2.617010 -0.096926 39.561747 132 132 132 0
-2.523871 -0.097072 39.621208 133 133 133 0
-2.426142 -0.097046 39.610485 134 134 134 0
-2.329600 -0.097067 39.619055 130 130 130 0
-2.237808 -0.097296 39.712661 129 129 129 0
-2.141618 -0.097346 39.733181 124 124 124 0
-2.044196 -0.097343 39.731693 124 124 124 0
-1.949587 -0.097479 39.787496 124 124 124 0
-1.855724 -0.097670 39.865172 121 121 121 0
-1.759172 -0.097732 39.890522 124 124 124 0
-1.664618 -0.097919 39.966829 123 123 123 0
-1.568311 -0.098019 40.007939 126 126 126 0
-1.471182 -0.098079 40.032161 126 126 126 0
-1.374564 -0.098183 40.074761 127 127 127 0
-1.278915 -0.098378 40.154302 130 130 130 0
-1.181232 -0.098436 40.177960 129 129 129 0
-1.082041 -0.098367 40.149929 128 128 128 0
-0.986649 -0.098665 40.271384 129 129 129 0
-0.888514 -0.098724 40.295398 128 128 128 0
-0.790546 -0.098818 40.333983 123 123 123 0
-0.619572 -0.088510 36.126662 118 118 118 0
-0.533222 -0.088870 36.273624 117 117 117 0
-0.441614 -0.088323 36.050118 106 106 106 0
-0.352078 -0.088019 35.926307 86 86 86 0
-0.202728 -0.101364 41.372963 105 105 105 0
-0.101301 -0.101301 41.347243 135 135 135 0
0.000000 -0.101164 41.291475 137 137 137 0
0.101044 -0.101044 41.242375 137 137 137 0
0.201416 -0.100708 41.105271 134 134 134 0
0.302452 -0.100817 41.149997 140 140 140 0
0.402593 -0.100648 41.080944 138 138 138 0
0.503225 -0.100645 41.079577 136 136 136 0
0.603886 -0.100648 41.080686 138 138 138 0
0.705044 -0.100721 41.110437 139 139 139 0
0.805913 -0.100739 41.118016 143 143 143 0
0.906809 -0.100757 41.125131 146 146 146 0
1.009270 -0.100927 41.194706 147 147 147 0
1.110528 -0.100957 41.206961 144 144 144 0
1.211254 -0.100938 41.199131 143 143 143 0
1.310368 -0.100798 41.141851 141 141 141 0
1.405317 -0.100380 40.971340 139 139 139 0
1.502060 -0.100137 40.872376 135 135 135 0
1.594103 -0.099631 40.665892 137 137 137 0
1.693530 -0.099619 40.660985 141 141 141 0
1.792921 -0.099607 40.655807 137 137 137 0
1.888825 -0.099412 40.576269 136 136 136 0
1.985208 -0.099260 40.514457 134 134 134 0
2.086541 -0.099359 40.554731 136 136 136 0
2.185584 -0.099345 40.548870 131 131 131 0
2.282692 -0.099247 40.509169 125 125 125 0
2.383366 -0.099307 40.533429 123 123 123 0
2.488868 -0.099555 40.634584 127 127 127 0
2.592740 -0.099721 40.702349 119 119 119 0
2.696679 -0.099877 40.766115 111 111 111 0
2.443193 -0.087257 35.615054 113 113 113 0
2.539065 -0.087554 35.736306 112 112 112 0
2.636571 -0.087886 35.871713 106 106 106 0
2.709142 -0.087392 35.670068 108 108 108 0
3.250704 -0.101584 41.463058 132 132 132 0
3.360531 -0.101834 41.565005 140 140 140 0
3.465726 -0.101933 41.605357 140 140 140 0
3.557835 -0.101652 41.490790 137 137 137 0
3.656879 -0.101580 41.461210 129 129 129 0
3.747982 -0.101297 41.345632 113 113 113 0
3.874864 -0.101970 41.620447 129 129 129 0
3.989671 -0.102299 41.754800 138 138 138 0
4.091797 -0.102295 41.753035 139 139 139 0
4.204641 -0.102552 41.858049 139 139 139 0
4.304916 -0.102498 41.835923 141 141 141 0
4.401980 -0.102372 41.784335 143 143 143 0
4.513732 -0.102585 41.871356 144 144 144 0
4.617184 -0.102604 41.879222 139 139 139 0
4.711976 -0.102434 41.809903 122 122 122 0
4.798805 -0.102102 41.674379 112 112 112 0
4.948386 -0.103091 42.078114 137 137 137 0
5.064864 -0.103365 42.189618 142 142 142 0
5.167484 -0.103350 42.183545 142 142 142 0
5.256806 -0.103075 42.071278 142 142 142 0
5.360042 -0.103078 42.072547 142 142 142 0
5.464125 -0.103097 42.080282 145 145 145 0
5.558552 -0.102936 42.014754 139 139 139 0
5.663162 -0.102967 42.027173 139 139 139 0
5.759811 -0.102854 41.981127 140 140 140 0
5.872738 -0.103030 42.053260 140 140 140 0
5.975994 -0.103034 42.054850 140 140 140 0
6.086031 -0.103153 42.103291 141 141 141 0
6.186478 -0.103108 42.084887 142 142 142 0
6.281437 -0.102974 42.030356 142 142 142 0
6.387393 -0.103022 42.049985 144 144 144 0
6.492588 -0.103057 42.064060 143 143 143 0
6.588595 -0.102947 42.019102 145 145 145 0
6.684240 -0.102834 41.973248 143 143 143 0
6.783237 -0.102776 41.949519 145 145 145 0
6.879981 -0.102686 41.912770 146 146 146 0
6.977965 -0.102617 41.884546 140 140 140 0
7.077619 -0.102574 41.867014 137 137 137 0
7.176202 -0.102517 41.843744 132 132 132 0
7.282302 -0.102568 41.864339 128 128 128 0
6.937978 -0.096361 39.330944 126 126 126 0
7.193381 -0.098539 40.220190 118 118 118 0
7.292231 -0.098544 40.221901 117 117 117 0
7.555467 -0.100740 41.118186 114 114 114 0
7.821517 -0.102915 42.005998 117 117 117 0
7.593095 -0.098612 40.249643 125 125 125 0
8.040400 -0.103082 42.074308 129 129 129 0
7.971478 -0.100905 41.185626 137 137 137 0
-7.321546 0.000000 37.354824 85 85 85 0
-7.262330 0.000000 37.521727 84 84 84 0
-7.201967 0.000000 37.686902 79 79 79 0
-6.999694 0.000000 38.093573 78 78 78 0
-6.880454 0.000000 38.470526 82 82 82 0
-7.371342 0.000000 41.787652 80 80 80 0
-7.316721 0.000000 42.062205 81 81 81 0
-7.250118 0.000000 42.274741 84 84 84 0
-6.331676 0.000000 45.339605 116 116 116 0
-6.188187 0.000000 45.103406 122 122 122 0
-6.057101 0.000000 44.950656 114 114 114 0
-5.947685 0.000000 44.956049 111 111 111 0
-5.835625 0.000000 44.941276 116 116 116 0
-5.732965 0.000000 44.999724 116 116 116 0
-5.622781 0.000000 45.000251 120 120 120 0
-5.050412 0.000000 41.227851 125 125 125 0
-4.920927 0.000000 40.990649 135 135 135 0
-4.805106 0.000000 40.859745 139 139 139 0
-4.690238 0.000000 40.731550 138 138 138 0
-4.586440 0.000000 40.696005 137 137 137 0
-4.472329 0.000000 40.565345 141 141 141 0
-4.360698 0.000000 40.451741 136 136 136 0
-4.251494 0.000000 40.355903 139 139 139 0
-4.133644 0.000000 40.171468 138 138 138 0
-4.032228 0.000000 40.141643 141 141 141 0
-3.928027 0.000000 40.081908 139 139 139 0
-3.821915 0.000000 39.999116 141 141 141 0
-3.718349 0.000000 39.939302 139 139 139 0
-3.611625 0.000000 39.841425 139 139 139 0
-3.509619 0.000000 39.791597 139 139 139 0
-3.403378 0.000000 39.689543 139 139 139 0
-3.299065 0.000000 39.604618 140 140 140 0
-3.202027 0.000000 39.604539 143 143 143 0
-3.098092 0.000000 39.516475 142 142 142 0
-2.996727 0.000000 39.456578 143 143 143 0
-2.904515 0.000000 39.517211 141 141 141 0
-2.807359 0.000000 39.512444 140 140 140 0
-2.707540 0.000000 39.468518 135 135 135 0
-2.615461 0.000000 39.538342 134 134 134 0
-2.521756 0.000000 39.588008 132 132 132 0
-2.423886 0.000000 39.573641 133 133 133 0
-2.326931 0.000000 39.573659 132 132 132 0
-2.234316 0.000000 39.650688 129 129 129 0
-2.139541 0.000000 39.694643 128 128 128 0
-2.042723 0.000000 39.703062 128 128 128 0
-1.947514 0.000000 39.745188 124 124 124 0
-1.855010 0.000000 39.849848 122 122 122 0
-1.757106 0.000000 39.843674 122 122 122 0
-1.662151 0.000000 39.907578 123 123 123 0
-1.566817 0.000000 39.969828 125 125 125 0
-1.470556 0.000000 40.015141 126 126 126 0
-1.372938 0.000000 40.027345 127 127 127 0
-1.277626 0.000000 40.113836 126 126 126 0
-1.180489 0.000000 40.152691 129 129 129 0
-1.081768 0.000000 40.139821 129 129 129 0
-0.985731 0.000000 40.233935 129 129 129 0
-0.887951 0.000000 40.269900 126 126 126 0
-0.789881 0.000000 40.300029 121 121 121 0
-0.618905 0.000000 36.087761 117 117 117 0
-0.531660 0.000000 36.167318 107 107 107 0
-0.438493 0.000000 35.795352 96 96 96 0
-0.202476 0.000000 41.321679 117 117 117 0
-0.101077 0.000000 41.255736 133 133 133 0
0.000000 0.000000 41.203786 137 137 137 0
0.100644 0.000000 41.079039 139 139 139 0
0.201001 0.000000 41.020621 139 139 139 0
0.301775 0.000000 41.057851 140 140 140 0
0.402456 0.000000 41.066955 139 139 139 0
0.502720 0.000000 41.038385 139 139 139 0
0.604041 0.000000 41.091244 135 135 135 0
0.704524 0.000000 41.080144 138 138 138 0
0.805999 0.000000 41.122417 143 143 143 0
0.906595 0.000000 41.115419 145 145 145 0
1.008587 0.000000 41.166816 140 140 140 0
1.109737 0.000000 41.177626 139 139 139 0
1.209495 0.000000 41.139285 137 137 137 0
1.307341 0.000000 41.046800 141 141 141 0
1.401334 0.000000 40.855221 136 136 136 0
1.498538 0.000000 40.776555 138 138 138 0
1.592442 0.000000 40.623513 136 136 136 0
1.689828 0.000000 40.572106 139 139 139 0
1.788987 0.000000 40.566608 138 138 138 0
1.885780 0.000000 40.510849 136 136 136 0
1.982556 0.000000 40.460335 138 138 138 0
2.081210 0.000000 40.451126 137 137 137 0
2.184380 0.000000 40.526537 132 132 132 0
2.277470 0.000000 40.416506 126 126 126 0
2.378691 0.000000 40.453922 120 120 120 0
2.485820 0.000000 40.584810 121 121 121 0
2.253834 0.000000 35.382016 119 119 119 0
2.341045 0.000000 35.389952 113 113 113 0
2.438416 0.000000 35.545421 112 112 112 0
2.532424 0.000000 35.642843 111 111 111 0
2.622641 0.000000 35.682190 110 110 110 0
2.705494 0.000000 35.622038 108 108 108 0
3.231237 0.000000 41.214753 116 116 116 0
3.357223 0.000000 41.524089 138 138 138 0
3.458017 0.000000 41.512808 139 139 139 0
3.550975 0.000000 41.410787 137 137 137 0
3.645124 0.000000 41.327938 126 126 126 0
3.241447 0.000000 35.757831 116 116 116 0
3.863528 0.000000 41.498691 114 114 114 0
3.975338 0.000000 41.604796 130 130 130 0
4.085936 0.000000 41.693227 135 135 135 0
4.199927 0.000000 41.811119 138 138 138 0
4.295131 0.000000 41.740824 137 137 137 0
4.400505 0.000000 41.770339 140 140 140 0
4.507302 0.000000 41.811710 140 140 140 0
4.614245 0.000000 41.852566 136 136 136 0
4.714245 0.000000 41.830033 118 118 118 0
4.773054 0.000000 41.450751 115 115 115 0
4.948211 0.000000 42.076624 138 138 138 0
5.075867 0.000000 42.281278 143 143 143 0
5.170419 0.000000 42.207505 143 143 143 0
5.260382 0.000000 42.099896 143 143 143 0
5.363338 0.000000 42.098415 147 147 147 0
5.463806 0.000000 42.077825 148 148 148 0
5.561048 0.000000 42.033624 145 145 145 0
5.667567 0.000000 42.059864 140 140 140 0
5.768929 0.000000 42.047587 139 139 139 0
5.867707 0.000000 42.017237 140 140 140 0
5.977758 0.000000 42.067265 140 140 140 0
6.084827 0.000000 42.094961 144 144 144 0
6.186295 0.000000 42.083642 142 142 142 0
6.285812 0.000000 42.059631 144 144 144 0
6.388469 0.000000 42.057073 145 145 145 0
6.486005 0.000000 42.021410 147 147 147 0
6.587061 0.000000 42.009320 149 149 149 0
6.688500 0.000000 42.000000 149 149 149 0
6.782854 0.000000 41.947151 147 147 147 0
6.878377 0.000000 41.902998 151 151 151 0
6.980779 0.000000 41.901435 146 146 146 0
7.082568 0.000000 41.896288 139 139 139 0
7.176131 0.000000 41.843331 134 134 134 0
6.840705 0.000000 39.325699 127 127 127 0
6.938503 0.000000 39.333917 121 121 121 0
7.193582 0.000000 40.221313 117 117 117 0
7.451897 0.000000 41.102573 110 110 110 0
6.901648 0.000000 37.559991 120 120 120 0
7.498499 0.000000 40.271208 119 119 119 0
7.937266 0.000000 42.074033 130 130 130 0
7.869648 0.000000 41.180784 132 132 132 0
7.795249 0.000000 40.275117 135 135 135 0
-7.372357 0.092154 37.614064 80 80 80 0
-7.296687 0.092363 37.699235 81 81 81 0
-7.167094 0.093079 37.991485 78 78 78 0
-6.921171 0.094811 38.698187 81 81 81 0
-6.855209 0.095211 38.861728 84 84 84 0
-6.809549 0.095909 39.146587 80 80 80 0
-6.728516 0.096122 39.233330 82 82 82 0
-6.705039 0.108146 44.141142 77 77 77 0
-6.479037 0.111708 45.594912 96 96 96 0
-6.331862 0.111085 45.340938 124 124 124 0
-6.203611 0.110779 45.215823 129 129 129 0
-6.082793 0.110596 45.141322 116 116 116 0
-5.963283 0.110431 45.073947 112 112 112 0
-5.854950 0.110471 45.090105 114 114 114 0
-5.749519 0.110568 45.129665 114 114 114 0
-5.635305 0.110496 45.100476 116 116 116 0
-5.063426 0.101269 41.334091 121 121 121 0
-4.924364 0.100497 41.019276 127 127 127 0
-4.801472 0.100031 40.828841 135 135 135 0
-4.686017 0.099702 40.694896 137 137 137 0
-4.583535 0.099642 40.670227 139 139 139 0
-4.465556 0.099235 40.503909 140 140 140 0
-4.358379 0.099054 40.430236 136 136 136 0
-4.244930 0.098719 40.293594 135 135 135 0
-4.130858 0.098354 40.144394 137 137 137 0
-4.024749 0.098165 40.067191 139 139 139 0
-3.922956 0.098074 40.030167 141 141 141 0
-3.816684 0.097864 39.944361 140 140 140 0
-3.711162 0.097662 39.862107 139 139 139 0
-3.610096 0.097570 39.824553 140 140 140 0
-3.506645 0.097407 39.757883 141 141 141 0
-3.398496 0.097100 39.632609 140 140 140 0
-3.296577 0.096958 39.574759 141 141 141 0
-3.199005 0.096940 39.567160 143 143 143 0
-3.096379 0.096762 39.494626 144 144 144 0
-2.995547 0.096631 39.441041 144 144 144 0
-2.902757 0.096759 39.493289 143 143 143 0
-2.805498 0.096741 39.486252 138 138 138 0
-2.705851 0.096638 39.443886 135 135 135 0
-2.613113 0.096782 39.502842 133 133 133 0
-2.520918 0.096958 39.574858 132 132 132 0
-2.422682 0.096907 39.553992 133 133 133 0
-2.325114 0.096880 39.542748 133 133 133 0
-2.232920 0.097083 39.625911 133 133 133 0
-2.136785 0.097127 39.643499 128 128 128 0
-2.040107 0.097148 39.652220 128 128 128 0
-1.945672 0.097284 39.707583 124 124 124 0
-1.852616 0.097506 39.798414 123 123 123 0
-1.755220 0.097512 39.800908 120 120 120 0
-1.659817 0.097636 39.851541 121 121 121 0
-1.565018 0.097814 39.923936 126 126 126 0
-1.469166 0.097944 39.977301 126 126 126 0
-1.372753 0.098054 40.021943 126 126 126 0
-1.275993 0.098153 40.062559 127 127 127 0
-1.179225 0.098269 40.109692 125 125 125 0
-1.080794 0.098254 40.103669 127 127 127 0
-0.985242 0.098524 40.213970 126 126 126 0
-0.887418 0.098602 40.245713 122 122 122 0
-0.707151 0.088394 36.079120 119 119 119 0
-0.619756 0.088537 36.137397 111 111 111 0
-0.527848 0.087975 35.908000 101 101 101 0
-0.202755 0.101377 41.378551 121 121 121 0
-0.101008 0.101008 41.227732 136 136 136 0
0.000000 0.100764 41.128116 141 141 141 0
0.100511 0.100511 41.024778 139 139 139 0
0.200946 0.100473 41.009318 139 139 139 0
0.301332 0.100444 40.997536 138 138 138 0
0.401623 0.100406 40.981934 138 138 138 0
0.502463 0.100493 41.017427 138 138 138 0
0.602947 0.100491 41.016798 135 135 135 0
0.703714 0.100531 41.032882 131 131 131 0
0.805542 0.100693 41.099085 140 140 140 0
0.907237 0.100804 41.144550 137 137 137 0
1.006680 0.100668 41.088996 135 135 135 0
1.107109 0.100646 41.080106 136 136 136 0
1.203436 0.100286 40.933188 139 139 139 0
1.298548 0.099888 40.770739 137 137 137 0
1.396497 0.099750 40.714185 137 137 137 0
1.494424 0.099628 40.664592 135 135 135 0
1.590291 0.099393 40.568649 139 139 139 0
1.688298 0.099312 40.535356 138 138 138 0
1.786804 0.099267 40.517090 139 139 139 0
1.881538 0.099028 40.419712 137 137 137 0
1.977876 0.098894 40.364826 138 138 138 0
2.079011 0.099001 40.408381 135 135 135 0
2.179692 0.099077 40.439555 133 133 133 0
2.274177 0.098877 40.358058 128 128 128 0
2.378708 0.099113 40.454222 120 120 120 0
2.479743 0.099190 40.485606 120 120 120 0
2.579958 0.099229 40.501696 118 118 118 0
2.338835 0.086624 35.356532 115 115 115 0
2.431856 0.086852 35.449796 114 114 114 0
2.522098 0.086969 35.497503 110 110 110 0
2.615233 0.087174 35.581401 107 107 107 0
2.705856 0.087286 35.626801 107 107 107 0
3.228043 0.100876 41.174016 116 116 116 0
3.341339 0.101253 41.327634 128 128 128 0
3.449556 0.101458 41.411239 137 137 137 0
3.545037 0.101287 41.341544 139 139 139 0
3.641982 0.101166 41.292308 130 130 130 0
3.230253 0.087304 35.634346 117 117 117 0
3.304266 0.086954 35.491576 111 111 111 0
3.956057 0.101437 41.403008 124 124 124 0
4.075282 0.101882 41.584515 131 131 131 0
4.193050 0.102270 41.742660 137 137 137 0
4.291056 0.102168 41.701224 135 135 135 0
4.396547 0.102245 41.732768 136 136 136 0
4.507010 0.102432 41.808995 137 137 137 0
4.608072 0.102402 41.796575 131 131 131 0
4.715952 0.102521 41.845180 118 118 118 0
4.779611 0.101694 41.507695 119 119 119 0
4.951003 0.103146 42.100364 141 141 141 0
5.074797 0.103567 42.272364 146 146 146 0
5.173316 0.103466 42.231153 141 141 141 0
5.266809 0.103271 42.151330 144 144 144 0
5.372529 0.103318 42.170556 149 149 149 0
5.473218 0.103268 42.150313 150 150 150 0
5.561839 0.102997 42.039596 144 144 144 0
5.672813 0.103142 42.098796 141 141 141 0
5.775024 0.103125 42.092010 140 140 140 0
5.873745 0.103048 42.060470 141 141 141 0
5.981221 0.103125 42.091633 142 142 142 0
6.083352 0.103108 42.084758 145 145 145 0
6.178063 0.102968 42.027637 143 143 143 0
6.286453 0.103057 42.063918 147 147 147 0
6.387774 0.103029 42.052497 148 148 148 0
6.501960 0.103206 42.124780 149 149 149 0
6.592674 0.103011 42.045114 150 150 150 0
6.689191 0.102911 42.004341 152 152 152 0
6.789048 0.102864 41.985457 151 151 151 0
6.883237 0.102735 41.932606 151 151 151 0
6.983410 0.102697 41.917224 147 147 147 0
7.083819 0.102664 41.903693 137 137 137 0
6.745053 0.096358 39.329756 129 129 129 0
6.841323 0.096357 39.329249 126 126 126 0
7.094808 0.098539 40.220000 120 120 120 0
7.188985 0.098479 40.195610 116 116 116 0
7.459457 0.100803 41.144273 118 118 118 0
7.724451 0.102993 42.037831 129 129 129 0
7.830202 0.103029 42.052640 131 131 131 0
8.031503 0.104305 42.573562 129 129 129 0
8.037484 0.103045 42.059045 132 132 132 0
7.970112 0.100887 41.178568 135 135 135 0
-8.029633 0.200741 40.967518 80 80 80 0
-7.310177 0.187440 38.253152 79 79 79 0
-7.712177 0.205658 41.971031 79 79 79 0
-7.057382 0.190740 38.926544 79 79 79 0
-7.546173 0.206744 42.192749 79 79 79 0
-6.932452 0.192568 39.299613 81 81 81 0
-6.837664 0.192610 39.308213 80 80 80 0
-6.785374 0.193868 39.564865 80 80 80 0
-6.612948 0.224168 45.748516 73 73 73 0
-6.489204 0.223766 45.666460 113 113 113 0
-6.335503 0.222298 45.367008 121 121 121 0
-6.211637 0.221844 45.274323 121 121 121 0
-6.102640 0.221914 45.288612 114 114 114 0
-5.983622 0.221616 45.227676 111 111 111 0
-5.874990 0.221698 45.244436 113 113 113 0
-5.767101 0.221812 45.267669 113 113 113 0
-5.653864 0.221720 45.249015 114 114 114 0
-5.538180 0.221527 45.209632 115 115 115 0
-4.946860 0.201913 41.206664 120 120 120 0
-4.807633 0.200318 40.881231 128 128 128 0
-4.686309 0.199417 40.697426 135 135 135 0
-4.580332 0.199145 40.641807 139 139 139 0
-4.464446 0.198420 40.493841 138 138 138 0
-4.354970 0.197953 40.398609 134 134 134 0
-4.245280 0.197455 40.296911 135 135 135 0
-4.127105 0.196529 40.107925 137 137 137 0
-4.022319 0.196211 40.043000 140 140 140 0
-3.916306 0.195815 39.962311 143 143 143 0
-3.812154 0.195495 39.896949 141 141 141 0
-3.707593 0.195136 39.823765 140 140 140 0
-3.603734 0.194796 39.754377 138 138 138 0
-3.503474 0.194637 39.721930 141 141 141 0
-3.394583 0.193976 39.586977 143 143 143 0
-3.293657 0.193745 39.539696 144 144 144 0
-3.197161 0.193767 39.544355 143 143 143 0
-3.094099 0.193381 39.465552 144 144 144 0
-2.993399 0.193123 39.412763 145 145 145 0
-2.901051 0.193403 39.470083 143 143 143 0
-2.801696 0.193220 39.432732 138 138 138 0
-2.703140 0.193081 39.404378 134 134 134 0
-2.610567 0.193375 39.464359 130 130 130 0
-2.517794 0.193676 39.525803 131 131 131 0
-2.419382 0.193551 39.500121 133 133 133 0
-2.323878 0.193656 39.521728 134 134 134 0
-2.231504 0.194044 39.600776 133 133 133 0
-2.134402 0.194037 39.599299 134 134 134 0
-2.038635 0.194156 39.623612 133 133 133 0
-1.942867 0.194287 39.650347 126 126 126 0
-1.850252 0.194763 39.747617 121 121 121 0
-1.753218 0.194802 39.755513 120 120 120 0
-1.657906 0.195048 39.805675 123 123 123 0
-1.563501 0.195438 39.885228 125 125 125 0
-1.467669 0.195689 39.936569 123 123 123 0
-1.370712 0.195816 39.962435 125 125 125 0
-1.273908 0.195986 39.997115 124 124 124 0
-1.178616 0.196436 40.088993 125 125 125 0
-1.080332 0.196424 40.086525 125 125 125 0
-0.985269 0.197054 40.215066 124 124 124 0
-0.887659 0.197258 40.256633 118 118 118 0
-0.708417 0.177104 36.143703 108 108 108 0
-0.620637 0.177325 36.188727 102 102 102 0
-0.522631 0.174210 35.553127 76 76 76 0
-0.304414 0.202942 41.416804 79 79 79 0
-0.202504 0.202504 41.327387 123 123 123 0
-0.100935 0.201869 41.197845 138 138 138 0
0.000000 0.201177 41.056446 140 140 140 0
0.100460 0.200920 41.004167 140 140 140 0
0.200761 0.200761 40.971691 138 138 138 0
0.301052 0.200701 40.959431 136 136 136 0
0.401699 0.200849 40.989662 136 136 136 0
0.502106 0.200842 40.988260 137 137 137 0
0.602282 0.200761 40.971537 135 135 135 0
0.703926 0.201122 41.045242 137 137 137 0
0.803992 0.200998 41.020020 138 138 138 0
0.903841 0.200854 40.990533 133 133 133 0
1.004048 0.200810 40.981563 137 137 137 0
1.102196 0.200399 40.897826 136 136 136 0
1.200326 0.200054 40.827424 136 136 136 0
1.295422 0.199296 40.672586 137 137 137 0
1.394322 0.199189 40.650777 138 138 138 0
