ply
format ascii 1.0
element vertex 1124
property float x
property float y
property float z
property uchar red
property uchar green
property uchar blue
property uchar alpha
end_header
4.677192 -0.173229 35.352927 138 138 138 0
4.789843 -0.174176 35.546147 139 139 139 0
4.867994 -0.173857 35.481007 137 137 137 0
4.947813 -0.173607 35.430094 139 139 139 0
5.032625 -0.173539 35.416081 139 139 139 0
5.130479 -0.173915 35.492761 140 140 140 0
5.409246 -0.180308 36.797591 140 140 140 0
5.498673 -0.180284 36.792729 142 142 142 0
5.722395 -0.184593 37.672121 146 146 146 0
5.411636 -0.171798 35.060809 147 147 147 0
5.771326 -0.180354 36.806924 149 149 149 0
5.998982 -0.184584 37.670217 149 149 149 0
6.234582 -0.188927 38.556476 152 152 152 0
6.185625 -0.184646 37.682760 151 151 151 0
5.896841 -0.173437 35.395205 152 152 152 0
5.923587 -0.171698 35.040441 151 151 151 0
6.010519 -0.171729 35.046758 143 143 143 0
6.161893 -0.173574 35.423359 129 129 129 0
6.269366 -0.174149 35.540622 116 116 116 0
5.928210 -0.162417 33.146266 113 113 113 0
6.197646 -0.167504 34.184479 121 121 121 0
6.620529 -0.176547 36.030092 154 154 154 0
6.712046 -0.176633 36.047507 157 157 157 0
6.625084 -0.172080 35.118388 160 160 160 0
6.884888 -0.176536 36.027673 164 164 164 0
6.992023 -0.177013 36.125154 156 156 156 0
-6.885259 -0.086066 35.128872 123 122 123 0
-6.796306 -0.086029 35.113955 125 125 125 0
-6.713326 -0.086068 35.129909 123 123 123 0
-6.629504 -0.086097 35.141819 123 123 123 0
-6.549690 -0.086180 35.175561 122 121 121 0
-6.464938 -0.086199 35.183335 120 119 120 0
-6.381268 -0.086233 35.197287 118 117 118 0
-6.299230 -0.086291 35.220746 120 119 120 0
-6.222930 -0.086430 35.277382 115 115 115 0
-6.144335 -0.086540 35.322418 115 114 114 0
-6.072782 -0.086754 35.409805 110 109 110 0
-6.002836 -0.086998 35.509235 105 104 105 0
-5.933495 -0.087257 35.615218 106 105 106 0
-5.809735 -0.086712 35.392840 101 100 101 0
-5.701099 -0.086380 35.257260 96 95 96 0
-5.640277 -0.086773 35.417752 91 90 91 0
-5.576805 -0.087138 35.566360 91 91 91 0
-5.542174 -0.087971 35.906536 98 97 97 0
-5.544701 -0.089431 36.502309 88 87 88 0
-5.465048 -0.089591 36.567736 88 88 88 0
-5.239232 -0.087321 35.641033 122 122 122 0
-5.127006 -0.086898 35.468738 139 139 139 0
-5.020636 -0.086563 35.331712 149 149 149 0
-4.929357 -0.086480 35.297936 152 152 152 0
-4.837181 -0.086378 35.256422 152 152 152 0
-4.743067 -0.086238 35.199012 153 153 153 0
-4.659767 -0.086292 35.221218 149 149 149 0
-4.569481 -0.086217 35.190456 150 150 150 0
-4.479253 -0.086139 35.158970 144 144 144 0
-4.388604 -0.086051 35.122879 144 144 144 0
-4.293673 -0.085873 35.050392 140 140 140 0
-4.202046 -0.085756 35.002464 137 137 137 0
-4.115215 -0.085734 34.993324 138 138 138 0
-4.029275 -0.085729 34.991533 139 139 139 0
-3.949343 -0.085855 35.042975 135 135 135 0
-3.861003 -0.085800 35.020437 136 136 136 0
-3.777057 -0.085842 35.037638 133 133 133 0
-3.669877 -0.085346 34.835091 135 135 135 0
-3.572125 -0.085051 34.714531 130 130 130 0
-3.471847 -0.084679 34.562935 131 131 131 0
-3.368268 -0.084207 34.370079 127 127 127 0
-3.281890 -0.084151 34.347357 126 126 126 0
-3.192687 -0.084018 34.293090 129 129 129 0
-3.104967 -0.083918 34.252254 124 124 124 0
-3.024001 -0.084000 34.285726 125 125 125 0
-2.939934 -0.083998 34.284939 124 124 124 0
-2.859206 -0.084094 34.324198 124 124 124 0
-2.772603 -0.084018 34.293167 124 124 124 0
-2.695060 -0.084221 34.375764 121 121 121 0
-2.617515 -0.084436 34.463658 121 121 121 0
-2.534206 -0.084474 34.478999 125 125 125 0
-2.450855 -0.084512 34.494795 124 124 124 0
-2.372260 -0.084724 34.581051 122 122 122 0
-2.289964 -0.084813 34.617749 124 124 124 0
-2.208465 -0.084941 34.669775 126 126 126 0
-2.123384 -0.084935 34.667492 128 128 128 0
-2.045022 -0.085209 34.779286 141 141 141 0
-1.962026 -0.085305 34.818565 146 146 146 0
-1.876752 -0.085307 34.819146 151 151 151 0
-1.786055 -0.085050 34.714375 149 149 149 0
-1.701707 -0.085085 34.728721 150 150 150 0
-1.613709 -0.084932 34.666146 143 143 143 0
-1.529927 -0.084996 34.692228 125 125 125 0
-1.438261 -0.084604 34.532081 110 110 110 0
-1.365714 -0.085357 34.839652 131 131 131 0
-1.284553 -0.085637 34.953831 144 144 144 0
-1.197867 -0.085562 34.923242 148 148 148 0
-1.111192 -0.085476 34.888274 147 147 147 0
-1.026197 -0.085516 34.904666 146 146 146 0
-0.940138 -0.085467 34.884543 142 142 142 0
-0.852806 -0.085281 34.808390 138 138 138 0
-0.767728 -0.085303 34.817598 134 134 134 0
-0.683032 -0.085379 34.848587 129 129 129 0
-0.598380 -0.085483 34.890937 129 129 129 0
-0.513224 -0.085537 34.913215 123 123 123 0
-0.428593 -0.085719 34.987199 118 118 118 0
-0.343642 -0.085911 35.065561 117 117 117 0
-0.258057 -0.086019 35.109737 115 115 115 0
-0.172727 -0.086363 35.250343 110 110 110 0
-0.076241 -0.076241 31.118870 103 103 103 0
0.000000 -0.084334 34.422136 86 86 86 0
0.085982 -0.085982 35.094554 74 74 74 0
0.173334 -0.086667 35.374240 61 61 61 0
0.259919 -0.086640 35.363125 59 59 59 0
0.521650 -0.086942 35.486407 91 91 91 0
0.606016 -0.086574 35.336226 132 132 132 0
0.689320 -0.086165 35.169390 143 143 143 0
0.775728 -0.086192 35.180403 145 145 145 0
0.862153 -0.086215 35.189931 150 150 150 0
0.947505 -0.086137 35.157895 150 150 150 0
1.032890 -0.086074 35.132329 151 151 151 0
1.120524 -0.086194 35.181272 146 146 146 0
1.207312 -0.086237 35.198598 146 146 146 0
1.293362 -0.086224 35.193512 145 145 145 0
1.379017 -0.086189 35.179001 147 147 147 0
1.466969 -0.086292 35.221351 148 148 148 0
1.554202 -0.086345 35.242671 146 146 146 0
1.639265 -0.086277 35.215153 152 152 152 0
1.726685 -0.086334 35.238468 148 148 148 0
1.815853 -0.086469 35.293549 150 150 150 0
1.899798 -0.086354 35.246708 147 147 147 0
1.984357 -0.086276 35.214856 146 146 146 0
2.067968 -0.086165 35.169518 148 148 148 0
2.159868 -0.086395 35.263155 148 148 148 0
2.242246 -0.086240 35.200093 144 144 144 0
2.330111 -0.086300 35.224651 140 140 140 0
2.419269 -0.086402 35.266311 143 143 143 0
2.509853 -0.086547 35.325166 135 135 135 0
2.592942 -0.086431 35.278117 135 135 135 0
2.682492 -0.086532 35.319189 134 134 134 0
2.770440 -0.086576 35.337240 136 136 136 0
2.862017 -0.086728 35.399095 135 135 135 0
2.947887 -0.086703 35.388799 138 138 138 0
3.040060 -0.086859 35.452597 146 146 146 0
3.139334 -0.087204 35.593358 147 147 147 0
3.229359 -0.087280 35.624478 146 146 146 0
3.312449 -0.087170 35.579470 151 151 151 0
3.397553 -0.087117 35.557852 155 155 155 0
3.486411 -0.087160 35.575625 150 150 150 0
3.562649 -0.086894 35.466889 147 147 147 0
3.645780 -0.086804 35.430325 149 149 149 0
3.724341 -0.086613 35.352071 145 145 145 0
3.811297 -0.086620 35.355257 145 145 145 0
3.895274 -0.086562 35.331281 148 148 148 0
3.974240 -0.086397 35.263887 145 145 145 0
4.066179 -0.086514 35.312018 143 143 143 0
4.149090 -0.086439 35.281374 143 143 143 0
4.233049 -0.086389 35.260718 139 139 139 0
4.320585 -0.086412 35.270080 140 140 140 0
4.413190 -0.086533 35.319649 138 138 138 0
4.502074 -0.086578 35.338102 136 136 136 0
4.584516 -0.086500 35.306245 137 137 137 0
4.672577 -0.086529 35.318043 136 136 136 0
4.772700 -0.086776 35.418922 139 139 139 0
4.862650 -0.086833 35.442056 135 135 135 0
4.938410 -0.086639 35.362766 137 137 137 0
5.032249 -0.086763 35.413434 138 138 138 0
4.819626 -0.081689 33.342273 140 140 140 0
5.210270 -0.086838 35.444011 140 140 140 0
5.280560 -0.086567 35.333290 143 143 143 0
5.386019 -0.086871 35.457661 144 144 144 0
5.545991 -0.088032 35.931269 146 146 146 0
5.770988 -0.090172 36.804771 148 148 148 0
5.859788 -0.090151 36.796156 149 149 149 0
6.093116 -0.092320 37.681611 149 149 149 0
6.186284 -0.092333 37.686776 153 153 153 0
6.276037 -0.092295 37.671289 153 153 153 0
6.517505 -0.094457 38.553715 150 150 150 0
6.010924 -0.085870 35.049121 142 142 142 0
6.097670 -0.085883 35.054152 130 130 130 0
6.240947 -0.086680 35.379516 121 121 121 0
6.216800 -0.085162 34.759856 107 107 107 0
5.147164 -0.069556 28.390316 129 129 129 0
6.615319 -0.088204 36.001737 150 150 150 0
6.711700 -0.088312 36.045648 161 161 161 0
6.796190 -0.088262 36.025389 156 156 156 0
6.895410 -0.088403 36.082733 159 159 159 0
5.574230 -0.070560 28.799947 158 158 158 0
-6.854878 0.000000 34.973866 124 124 124 0
-6.779879 0.000000 35.029081 124 123 124 0
-6.693335 0.000000 35.025300 123 123 123 0
-6.611505 0.000000 35.046410 121 121 121 0
-6.527911 0.000000 35.058596 122 122 122 0
-6.444944 0.000000 35.074524 121 120 120 0
-6.361683 0.000000 35.089260 120 120 120 0
-6.279745 0.000000 35.111796 117 117 117 0
-6.206321 0.000000 35.183228 119 119 119 0
-6.118981 0.000000 35.176665 117 117 117 0
-6.040429 0.000000 35.221158 112 112 112 0
-5.975050 0.000000 35.344870 112 112 112 0
-5.880861 0.000000 35.299288 108 108 108 0
-5.809256 0.000000 35.389922 98 98 98 0
-5.665712 0.000000 35.038417 101 101 101 0
-5.601052 0.000000 35.171441 103 103 103 0
-5.545339 0.000000 35.365684 94 94 94 0
-5.524403 0.000000 35.791403 93 93 93 0
-5.488204 0.000000 36.130377 91 91 91 0
-5.429381 0.000000 36.329080 95 95 95 0
-5.266697 0.000000 35.827871 123 123 123 0
-5.136632 0.000000 35.535330 142 142 142 0
-5.025604 0.000000 35.366672 147 147 147 0
-4.934528 0.000000 35.334964 152 152 152 0
-4.837498 0.000000 35.258729 154 154 154 0
-4.747626 0.000000 35.232848 154 154 154 0
-4.661850 0.000000 35.236961 152 152 152 0
-4.576748 0.000000 35.246422 148 148 148 0
-4.488471 0.000000 35.231327 144 144 144 0
-4.395805 0.000000 35.180516 142 142 142 0
-4.308625 0.000000 35.172446 138 138 138 0
-4.211373 0.000000 35.080155 138 138 138 0
-4.122889 0.000000 35.058580 141 141 141 0
-4.036964 0.000000 35.058306 139 139 139 0
-3.954517 0.000000 35.088885 142 142 142 0
-3.868412 0.000000 35.087636 133 133 133 0
-3.784339 0.000000 35.105186 129 129 129 0
-3.694261 0.000000 35.066552 136 136 136 0
-3.595145 0.000000 34.938239 133 133 133 0
-3.499649 0.000000 34.839714 135 135 135 0
-3.391966 0.000000 34.611898 132 132 132 0
-3.302893 0.000000 34.567173 133 133 133 0
-3.213573 0.000000 34.517436 129 129 129 0
-3.122531 0.000000 34.446010 123 123 123 0
-3.037323 0.000000 34.436772 126 126 126 0
-2.952838 0.000000 34.435424 128 128 128 0
-2.869750 0.000000 34.450785 125 125 125 0
-2.782038 0.000000 34.409865 128 128 128 0
-2.700895 0.000000 34.450188 125 125 125 0
-2.623991 0.000000 34.548924 121 121 121 0
-2.538847 0.000000 34.542133 124 124 124 0
-2.455981 0.000000 34.566945 122 122 122 0
-2.376552 0.000000 34.643620 123 123 123 0
-2.294647 0.000000 34.688548 124 124 124 0
-2.215247 0.000000 34.776250 125 125 125 0
-2.127510 0.000000 34.734851 129 129 129 0
-2.047424 0.000000 34.820129 136 136 136 0
-1.964399 0.000000 34.860672 145 145 145 0
-1.877516 0.000000 34.833314 145 145 145 0
-1.788636 0.000000 34.764539 147 147 147 0
-1.703296 0.000000 34.761147 145 145 145 0
-1.617158 0.000000 34.740230 138 138 138 0
-1.532187 0.000000 34.743479 122 122 122 0
-1.444716 0.000000 34.687061 109 109 109 0
-1.369447 0.000000 34.934868 131 131 131 0
-1.285710 0.000000 34.985295 141 141 141 0
-1.199048 0.000000 34.957661 145 145 145 0
-1.113770 0.000000 34.969245 145 145 145 0
-1.027035 0.000000 34.933162 145 145 145 0
-0.941208 0.000000 34.924234 138 138 138 0
-0.854168 0.000000 34.863983 136 136 136 0
-0.769239 0.000000 34.886128 131 131 131 0
-0.684570 0.000000 34.927033 128 128 128 0
-0.598909 0.000000 34.921810 127 127 127 0
-0.514053 0.000000 34.969610 121 121 121 0
-0.428991 0.000000 35.019702 120 120 120 0
-0.344063 0.000000 35.108495 119 119 119 0
-0.258543 0.000000 35.175869 116 116 116 0
-0.153091 0.000000 31.242989 110 110 110 0
-0.076596 0.000000 31.263477 102 102 102 0
0.000000 0.000000 34.582962 80 80 80 0
0.085953 0.000000 35.083016 77 77 77 0
0.172165 0.000000 35.135648 68 68 68 0
0.260893 0.000000 35.495670 59 59 59 0
0.352158 0.000000 35.934471 58 58 58 0
0.524926 0.000000 35.709225 64 64 64 0
0.607542 0.000000 35.425174 122 122 122 0
0.690060 0.000000 35.207125 139 139 139 0
0.776140 0.000000 35.199112 145 145 145 0
0.862832 0.000000 35.217644 148 148 148 0
0.947610 0.000000 35.161795 152 152 152 0
1.032768 0.000000 35.128174 153 153 153 0
1.119629 0.000000 35.153188 148 148 148 0
1.207400 0.000000 35.201170 146 146 146 0
1.292294 0.000000 35.164456 145 145 145 0
1.377785 0.000000 35.147570 144 144 144 0
1.466138 0.000000 35.201395 147 147 147 0
1.553534 0.000000 35.227524 147 147 147 0
1.638614 0.000000 35.201154 152 152 152 0
1.725731 0.000000 35.218991 154 154 154 0
1.811593 0.000000 35.210742 154 154 154 0
1.898853 0.000000 35.229180 151 151 151 0
1.981444 0.000000 35.163151 149 149 149 0
2.068090 0.000000 35.171592 144 144 144 0
2.158663 0.000000 35.243474 143 143 143 0
2.241099 0.000000 35.182081 140 140 140 0
2.328702 0.000000 35.203361 133 133 133 0
2.416001 0.000000 35.218673 133 133 133 0
2.508061 0.000000 35.299937 132 132 132 0
2.592521 0.000000 35.272392 131 131 131 0
2.679207 0.000000 35.275932 135 135 135 0
2.772397 0.000000 35.362203 133 133 133 0
2.864643 0.000000 35.431575 139 139 139 0
2.957811 0.000000 35.507941 156 156 156 0
3.043232 0.000000 35.489584 152 152 152 0
3.136457 0.000000 35.560735 146 146 146 0
3.222875 0.000000 35.552948 148 148 148 0
3.305569 0.000000 35.505575 150 150 150 0
3.386106 0.000000 35.438052 153 153 153 0
3.478541 0.000000 35.495313 152 152 152 0
3.555620 0.000000 35.396913 151 151 151 0
3.638867 0.000000 35.363137 150 150 150 0
3.725331 0.000000 35.361467 151 151 151 0
3.808587 0.000000 35.330124 149 149 149 0
3.887582 0.000000 35.261517 149 149 149 0
3.966231 0.000000 35.192823 145 145 145 0
4.055807 0.000000 35.221942 146 146 146 0
4.145745 0.000000 35.252931 144 144 144 0
4.229776 0.000000 35.233452 142 142 142 0
4.317656 0.000000 35.246170 137 137 137 0
4.409446 0.000000 35.289686 138 138 138 0
4.493146 0.000000 35.268019 137 137 137 0
4.576595 0.000000 35.245241 136 136 136 0
4.671559 0.000000 35.310345 137 137 137 0
4.768441 0.000000 35.387315 136 136 136 0
4.858458 0.000000 35.411504 136 136 136 0
4.938284 0.000000 35.361865 138 138 138 0
5.034888 0.000000 35.432004 138 138 138 0
5.117680 0.000000 35.404217 138 138 138 0
5.212041 0.000000 35.456062 143 143 143 0
5.366813 0.000000 35.910427 142 142 142 0
5.589078 0.000000 36.794456 143 143 143 0
5.545136 0.000000 35.925725 145 145 145 0
5.632639 0.000000 35.922442 146 146 146 0
5.860177 0.000000 36.798602 148 148 148 0
6.234330 0.000000 38.554914 148 148 148 0
5.753780 0.000000 35.051965 149 149 149 0
5.888843 0.000000 35.347194 150 150 150 0
6.516942 0.000000 38.550383 150 150 150 0
6.070950 0.000000 35.399126 141 141 141 0
6.157254 0.000000 35.396691 130 130 130 0
6.249229 0.000000 35.426467 116 116 116 0
6.226169 0.000000 34.812239 110 110 110 0
6.030991 0.000000 33.265255 123 123 123 0
6.582007 0.000000 35.820447 144 144 144 0
6.712149 0.000000 36.048059 160 160 160 0
6.624196 0.000000 35.113683 156 156 156 0
5.499784 0.000000 28.779615 156 156 156 0
6.969611 0.000000 36.009355 153 153 153 0
-6.841554 0.085519 34.905886 119 119 119 0
-6.761066 0.085583 34.931881 122 122 122 0
-6.674907 0.085576 34.928867 122 122 122 0
-6.591420 0.085603 34.939941 120 120 120 0
-6.509454 0.085651 34.959472 121 121 121 0
-6.424638 0.085662 34.964017 120 119 120 0
-6.341044 0.085690 34.975424 120 120 120 0
-6.259396 0.085745 34.998023 120 120 120 0
-6.182499 0.085868 35.048180 120 119 120 0
-6.097812 0.085885 35.054967 117 117 117 0
-6.020849 0.086012 35.106990 117 117 117 0
-5.452660 0.079024 32.254720 120 120 120 0
-5.868939 0.086308 35.227724 113 113 113 0
-5.301165 0.079122 32.294641 108 108 108 0
-5.707162 0.086472 35.294755 106 105 106 0
-5.601787 0.086181 35.176057 97 97 97 0
-5.512880 0.086139 35.158674 96 96 96 0
-5.469104 0.086811 35.433131 97 96 96 0
-5.454534 0.087976 35.908718 111 111 111 0
-5.386351 0.088301 36.041160 126 126 126 0
-5.279206 0.087987 35.912963 144 143 144 0
-5.160578 0.087467 35.700986 141 141 141 0
-5.036066 0.086829 35.440295 148 148 148 0
-4.940102 0.086668 35.374882 149 149 149 0
-4.840200 0.086432 35.278425 153 153 153 0
-4.750082 0.086365 35.251076 151 151 151 0
-4.669001 0.086463 35.291015 151 151 151 0
-4.581697 0.086447 35.284537 145 145 145 0
-4.490437 0.086355 35.246757 142 142 142 0
-4.404634 0.086365 35.251170 138 138 138 0
-4.320656 0.086413 35.270665 136 136 136 0
-4.225270 0.086230 35.195921 137 137 137 0
-4.135484 0.086156 35.165677 137 137 137 0
-4.045091 0.086066 35.128881 139 139 139 0
-3.961396 0.086117 35.149923 137 137 137 0
-3.876770 0.086150 35.163445 134 134 134 0
-3.795136 0.086253 35.205343 129 129 129 0
-3.712464 0.086336 35.239331 129 129 129 0
-3.635148 0.086551 35.326995 133 133 133 0
-3.523031 0.085928 35.072481 129 129 129 0
-3.415802 0.085395 34.855122 127 127 127 0
-3.324452 0.085242 34.792796 128 128 128 0
-3.233646 0.085096 34.733041 131 131 131 0
-3.133236 0.084682 34.564103 127 127 127 0
-3.050293 0.084730 34.583817 128 128 128 0
-2.967078 0.084774 34.601498 128 128 128 0
-2.880787 0.084729 34.583274 130 130 130 0
-2.791278 0.084584 34.524155 124 124 124 0
-2.710434 0.084701 34.571863 125 125 125 0
-2.630714 0.084862 34.637442 123 123 123 0
-2.544886 0.084830 34.624293 124 124 124 0
-2.461717 0.084887 34.647678 124 124 124 0
-2.381859 0.085066 34.720980 124 124 124 0
-2.300524 0.085205 34.777378 122 122 122 0
-2.219487 0.085365 34.842807 124 124 124 0
-2.135138 0.085406 34.859393 127 127 127 0
-2.052120 0.085505 34.900001 135 135 135 0
-1.968402 0.085583 34.931707 140 140 140 0
-1.880776 0.085490 34.893800 145 145 145 0
-1.791071 0.085289 34.811877 145 145 145 0
-1.705497 0.085275 34.806055 142 142 142 0
-1.619434 0.085233 34.789124 136 136 136 0
-1.532619 0.085145 34.753265 115 115 115 0
-1.446513 0.085089 34.730194 115 115 115 0
-1.370724 0.085670 34.967446 125 125 125 0
-1.287785 0.085852 35.041780 144 144 144 0
-1.202256 0.085875 35.051192 144 144 144 0
-1.114473 0.085729 34.991312 144 144 144 0
-1.028344 0.085695 34.977680 138 138 138 0
-0.942040 0.085640 34.955111 136 136 136 0
-0.856331 0.085633 34.952300 133 133 133 0
-0.771662 0.085740 34.996004 132 132 132 0
-0.685842 0.085730 34.991933 131 131 131 0
-0.600399 0.085771 35.008687 130 130 130 0
-0.514717 0.085786 35.014751 125 125 125 0
-0.429747 0.085949 35.081366 124 124 124 0
-0.305544 0.076386 31.177937 120 120 120 0
-0.258720 0.086240 35.200041 117 117 117 0
-0.172967 0.086483 35.299359 111 111 111 0
-0.076856 0.076856 31.369609 98 98 98 0
0.000000 0.076883 31.380875 82 82 82 0
0.086503 0.086503 35.307524 82 82 82 0
0.174513 0.087256 35.614873 69 69 69 0
0.609928 0.087133 35.564325 101 101 101 0
0.692800 0.086600 35.346933 134 134 134 0
0.777622 0.086402 35.266287 142 142 142 0
0.864183 0.086418 35.272785 145 145 145 0
0.948988 0.086272 35.212928 149 149 149 0
1.033464 0.086122 35.151852 152 152 152 0
1.119671 0.086129 35.154502 152 152 152 0
1.206456 0.086175 35.173650 146 146 146 0
1.291658 0.086111 35.147147 140 140 140 0
1.377735 0.086108 35.146308 145 145 145 0
1.467396 0.086317 35.231593 146 146 146 0
1.552897 0.086272 35.213077 147 147 147 0
1.638455 0.086234 35.197744 153 153 153 0
1.723376 0.086169 35.170942 158 158 158 0
1.812856 0.086326 35.235301 153 153 153 0
1.895626 0.086165 35.169307 152 152 152 0
1.977818 0.085992 35.098815 152 152 152 0
2.065718 0.086072 35.131257 146 146 146 0
2.154757 0.086190 35.179709 140 140 140 0
2.238758 0.086106 35.145338 135 135 135 0
2.325391 0.086126 35.153302 131 131 131 0
2.414353 0.086227 35.194643 132 132 132 0
2.505896 0.086410 35.269475 129 129 129 0
2.594763 0.086492 35.302902 129 129 129 0
2.686039 0.086646 35.365881 135 135 135 0
2.776038 0.086751 35.408651 134 134 134 0
2.872133 0.087034 35.524218 146 146 146 0
2.958493 0.087015 35.516126 152 152 152 0
3.041660 0.086905 35.471258 152 152 152 0
3.133978 0.087055 35.532628 152 152 152 0
3.222370 0.087091 35.547382 147 147 147 0
3.301174 0.086873 35.458372 148 148 148 0
3.383482 0.086756 35.410591 150 150 150 0
3.474689 0.086867 35.456014 150 150 150 0
3.549839 0.086581 35.339361 149 149 149 0
3.630307 0.086436 35.279948 151 151 151 0
3.719785 0.086507 35.308826 150 150 150 0
3.803396 0.086441 35.281966 148 148 148 0
3.880948 0.086243 35.201339 150 150 150 0
3.963180 0.086156 35.165749 148 148 148 0
4.057114 0.086322 35.233294 146 146 146 0
4.140545 0.086261 35.208713 144 144 144 0
4.226542 0.086256 35.206515 142 142 142 0
4.310927 0.086219 35.191239 142 142 142 0
3.950788 0.077466 31.618950 142 142 142 0
4.495860 0.086459 35.289325 136 136 136 0
4.575231 0.086325 35.234742 135 135 135 0
4.661786 0.086329 35.236477 137 137 137 0
4.761852 0.086579 35.338423 137 137 137 0
4.858245 0.086754 35.409947 138 138 138 0
4.924666 0.086398 35.264346 138 138 138 0
5.015170 0.086468 35.293245 136 136 136 0
5.115251 0.086699 35.387420 140 140 140 0
5.407436 0.090124 36.785281 138 138 138 0
5.277044 0.086509 35.309763 139 139 139 0
5.375790 0.086706 35.390320 142 142 142 0
5.678472 0.090134 36.789583 143 143 143 0
5.631917 0.087999 35.917840 145 145 145 0
5.580385 0.085852 35.041662 145 145 145 0
5.722267 0.086701 35.388171 146 146 146 0
5.753410 0.085872 35.049712 147 147 147 0
5.888559 0.086596 35.345490 148 148 148 0
6.516414 0.094441 38.547257 147 147 147 0
6.068713 0.086696 35.386083 140 140 140 0
6.155033 0.086691 35.383922 129 129 129 0
6.272749 0.087122 35.559804 118 118 118 0
6.222437 0.085239 34.791373 106 106 106 0
5.122046 0.069217 28.251772 123 123 123 0
6.448768 0.085984 35.095338 138 138 138 0
6.374988 0.083881 34.237317 152 152 152 0
6.623077 0.086014 35.107751 154 154 154 0
6.891304 0.088350 36.061247 148 148 148 0
8.523012 0.107886 44.035196 151 151 151 0
-6.814758 0.170369 34.769172 120 119 120 0
-6.737381 0.170567 34.809513 121 121 121 0
-6.650979 0.170538 34.803659 123 123 123 0
-6.567872 0.170594 34.815120 122 122 122 0
-6.486239 0.170690 34.834795 123 123 123 0
-6.408040 0.170881 34.873688 124 123 124 0
-6.323624 0.170909 34.879337 122 122 122 0
-6.241022 0.170987 34.895286 122 121 122 0
-6.159118 0.171087 34.915636 122 122 122 0
-6.080892 0.171293 34.957702 122 122 122 0
-6.003463 0.171528 35.005618 120 119 119 0
-5.926358 0.171778 35.056836 121 121 121 0
-5.862560 0.172428 35.189434 120 119 120 0
-5.790248 0.172843 35.274128 115 115 115 0
-5.692320 0.172495 35.202968 112 111 112 0
-5.603588 0.172418 35.187368 113 113 113 0
-5.514283 0.172321 35.167623 105 105 105 0
-5.437618 0.172623 35.229139 102 102 102 0
-5.416078 0.174712 35.655551 115 115 115 0
-5.373537 0.176182 35.955417 145 145 145 0
-5.285926 0.176198 35.958682 151 151 151 0
-5.183099 0.175698 35.856791 146 146 146 0
-5.053714 0.174266 35.564490 146 146 146 0
-4.947024 0.173580 35.424446 148 148 148 0
-4.848174 0.173149 35.336546 148 148 148 0
-4.756495 0.172963 35.298663 148 148 148 0
-4.673625 0.173097 35.325964 147 147 147 0
-4.588029 0.173133 35.333302 146 146 146 0
-4.497634 0.172986 35.303246 140 140 140 0
-4.410475 0.172960 35.297920 137 137 137 0
-4.333224 0.173329 35.373260 134 134 134 0
-4.242922 0.173181 35.342960 133 133 133 0
-4.151541 0.172981 35.302221 133 133 133 0
-4.056009 0.172596 35.223696 137 137 137 0
-3.976709 0.172900 35.285794 134 134 134 0
-3.887833 0.172793 35.263792 134 134 134 0
-3.798490 0.172659 35.236455 131 131 131 0
-3.720838 0.173062 35.318824 134 134 134 0
-3.644710 0.173558 35.419920 133 133 133 0
-3.558168 0.173569 35.422280 135 135 135 0
-3.443206 0.172160 35.134757 131 131 131 0
-3.350474 0.171819 35.065143 137 137 137 0
-3.251721 0.171143 34.927190 135 135 135 0
-3.154360 0.170506 34.797137 131 131 131 0
-3.063320 0.170184 34.731520 132 132 132 0
-2.982345 0.170420 34.779534 129 129 129 0
-2.898970 0.170528 34.801561 129 129 129 0
-2.807829 0.170171 34.728872 129 129 129 0
-2.718656 0.169916 34.676733 127 127 127 0
-2.640781 0.170373 34.769991 125 125 125 0
-2.552094 0.170140 34.722362 125 125 125 0
-2.466165 0.170080 34.710278 122 122 122 0
-2.385421 0.170387 34.772907 123 123 123 0
-2.305315 0.170764 34.849817 125 125 125 0
-2.221024 0.170848 34.866932 118 118 118 0
-2.140667 0.171253 34.949664 124 124 124 0
-2.061683 0.171807 35.062631 143 143 143 0
-1.972334 0.171507 35.001496 138 138 138 0
-1.884567 0.171324 34.964140 139 139 139 0
-1.797703 0.171210 34.940777 143 143 143 0
-1.709248 0.170925 34.882621 138 138 138 0
-1.623471 0.170892 34.875854 129 129 129 0
-1.532304 0.170256 34.746132 113 113 113 0
-1.452831 0.170921 34.881885 116 116 116 0
-1.374581 0.171823 35.065830 132 132 132 0
-1.292529 0.172337 35.170851 148 148 148 0
-1.203988 0.171998 35.101700 143 143 143 0
-1.116767 0.171810 35.063318 141 141 141 0
-1.030109 0.171685 35.037721 134 134 134 0
-0.944414 0.171712 35.043190 134 134 134 0
-0.858203 0.171641 35.028703 133 133 133 0
-0.772864 0.171747 35.050503 134 134 134 0
-0.687328 0.171832 35.067751 133 133 133 0
-0.601168 0.171762 35.053552 133 133 133 0
-0.515827 0.171942 35.090294 128 128 128 0
-0.430642 0.172257 35.154467 122 122 122 0
-0.345159 0.172580 35.220338 119 119 119 0
-0.259343 0.172895 35.284783 115 115 115 0
-0.153206 0.153206 31.266560 109 109 109 0
-0.077013 0.154025 31.433741 100 100 100 0
0.000000 0.154494 31.529386 89 89 89 0
0.086944 0.173887 35.487212 82 82 82 0
0.172665 0.172665 35.237847 80 80 80 0
0.261949 0.174633 35.639372 61 61 61 0
0.349303 0.174652 35.643183 61 61 61 0
0.612381 0.174966 35.707319 66 66 66 0
0.694407 0.173602 35.428928 121 121 121 0
0.778678 0.173040 35.314213 139 139 139 0
0.864992 0.172998 35.305810 143 143 143 0
0.949849 0.172700 35.244853 144 144 144 0
1.034341 0.172390 35.181662 147 147 147 0
1.120596 0.172399 35.183536 150 150 150 0
1.206456 0.172351 35.173650 149 149 149 0
1.292066 0.172276 35.158267 145 145 145 0
1.377061 0.172133 35.129099 146 146 146 0
1.465942 0.172464 35.196696 147 147 147 0
1.550705 0.172301 35.163377 149 149 149 0
1.637848 0.172405 35.184703 149 149 149 0
1.724415 0.172441 35.192133 153 153 153 0
1.809686 0.172351 35.173686 152 152 152 0
1.892459 0.172042 35.110564 153 153 153 0
1.978143 0.172012 35.104584 150 150 150 0
2.065891 0.172158 35.134206 144 144 144 0
2.153968 0.172317 35.166818 140 140 140 0
2.240028 0.172310 35.165274 130 130 130 0
2.329213 0.172534 35.211079 130 130 130 0
2.416209 0.172586 35.221711 130 130 130 0
2.508614 0.173008 35.307730 130 130 130 0
2.594913 0.172994 35.304934 134 134 134 0
2.683548 0.173132 35.333094 135 135 135 0
2.775412 0.173463 35.400667 138 138 138 0
2.872915 0.174116 35.533885 144 144 144 0
2.956914 0.173936 35.497161 148 148 148 0
3.041833 0.173819 35.473268 151 151 151 0
3.133389 0.174077 35.525956 151 151 151 0
3.220379 0.174075 35.525415 150 150 150 0
3.293829 0.173359 35.379475 147 147 147 0
3.380790 0.173374 35.382417 149 149 149 0
3.467627 0.173381 35.383952 150 150 150 0
3.549311 0.173137 35.334110 151 151 151 0
3.626763 0.172703 35.245508 149 149 149 0
3.717017 0.172885 35.282557 150 150 150 0
3.798236 0.172647 35.234101 152 152 152 0
3.882735 0.172566 35.217552 151 151 151 0
3.959417 0.172149 35.132357 151 151 151 0
4.052918 0.172465 35.196859 147 147 147 0
4.136357 0.172348 35.173105 146 146 146 0
4.220525 0.172266 35.156394 143 143 143 0
4.304263 0.172171 35.136841 142 142 142 0
4.398958 0.172508 35.205742 140 140 140 0
4.483742 0.172452 35.194207 137 137 137 0
4.570834 0.172484 35.200878 136 136 136 0
4.661861 0.172662 35.237042 138 138 138 0
4.758386 0.173032 35.312697 138 138 138 0
4.838153 0.172791 35.263509 135 135 135 0
4.924102 0.172776 35.260308 134 134 134 0
5.013345 0.172874 35.280402 137 137 137 0
5.066327 0.171740 35.048956 137 137 137 0
5.406640 0.180221 36.779863 139 139 139 0
5.497222 0.180237 36.783021 141 141 141 0
5.587294 0.180235 36.782713 144 144 144 0
5.677864 0.180250 36.785646 141 141 141 0
5.631827 0.175995 35.917265 143 143 143 0
5.857874 0.180242 36.784141 145 145 145 0
5.949078 0.180275 36.790837 146 146 146 0
6.184158 0.184602 37.673824 147 147 147 0
5.692730 0.167433 34.170051 148 148 148 0
5.776030 0.167421 34.167583 145 145 145 0
5.861019 0.167458 34.175039 138 138 138 0
6.144484 0.173084 35.323279 128 128 128 0
6.186114 0.171837 35.068674 114 114 114 0
6.206929 0.170053 34.704661 99 99 99 0
7.474563 0.202015 41.227597 121 121 121 0
6.574151 0.175311 35.777692 138 138 138 0
6.689815 0.176048 35.928113 147 147 147 0
5.426056 0.140937 28.762557 146 146 146 0
6.875935 0.176306 35.980823 149 149 149 0
8.523092 0.215774 44.035611 148 148 148 0
-6.798460 0.254942 34.686018 121 120 121 0
-6.716947 0.255074 34.703939 121 121 121 0
-6.639450 0.255363 34.743326 121 121 121 0
-6.545462 0.255018 34.696324 123 123 123 0
-6.472026 0.255475 34.758463 122 122 122 0
-6.390871 0.255635 34.780253 122 121 122 0
-6.306636 0.255674 34.785635 124 124 124 0
-6.223484 0.255760 34.797225 126 126 126 0
-6.146058 0.256086 34.841599 126 126 126 0
-6.069740 0.256468 34.893588 125 125 125 0
-5.994482 0.256906 34.953250 127 127 127 0
-5.919075 0.257351 35.013756 122 122 122 0
-5.357597 0.236365 32.158447 123 123 123 0
-5.278540 0.236353 32.156805 118 118 118 0
-5.197496 0.236250 32.142832 123 123 123 0
-5.612422 0.259035 35.242837 119 119 119 0
-5.507965 0.258186 35.127331 118 118 118 0
-5.439329 0.259016 35.240224 107 107 107 0
-5.382807 0.260458 35.436519 118 118 118 0
-5.348694 0.263051 35.789186 138 138 138 0
-5.277507 0.263875 35.901409 160 160 160 0
-5.191450 0.263972 35.914561 155 155 155 0
-5.082493 0.262888 35.767014 146 146 146 0
-4.963169 0.261219 35.540054 142 142 142 0
-4.862077 0.260468 35.437877 141 141 141 0
-4.764110 0.259861 35.355178 141 141 141 0
-4.678644 0.259925 35.363898 142 142 142 0
-4.593365 0.260002 35.374390 143 143 143 0
-4.505330 0.259923 35.363657 137 137 137 0
-4.420434 0.260026 35.377625 136 136 136 0
-4.335439 0.260126 35.391339 136 136 136 0
-4.257562 0.260667 35.464905 132 132 132 0
-4.170893 0.260681 35.466780 136 136 136 0
-4.072572 0.259951 35.367534 131 131 131 0
-3.988390 0.260112 35.389442 133 133 133 0
-3.901107 0.260074 35.384195 128 128 128 0
-3.815889 0.260174 35.397859 134 134 134 0
-3.725341 0.259908 35.361571 132 132 132 0
-3.650239 0.260731 35.473657 140 140 140 0
-3.569319 0.261170 35.533292 138 138 138 0
-3.477679 0.260826 35.486522 140 140 140 0
-3.382843 0.260219 35.403908 140 140 140 0
-3.276485 0.258670 35.193183 139 139 139 0
-3.170779 0.257090 34.978256 138 138 138 0
-3.077099 0.256425 34.887742 136 136 136 0
-2.993885 0.256619 34.914111 129 129 129 0
-2.908914 0.256669 34.920934 134 134 134 0
-2.819679 0.256334 34.875442 132 132 132 0
-2.733529 0.256268 34.866443 133 133 133 0
-2.651907 0.256636 34.916489 130 130 130 0
-2.560125 0.256012 34.831629 127 127 127 0
-2.478536 0.256400 34.884388 126 126 126 0
-2.390693 0.256146 34.849750 124 124 124 0
-2.312167 0.256907 34.953397 126 126 126 0
-2.225159 0.256749 34.931851 120 120 120 0
-2.148256 0.257791 35.073560 131 131 131 0
-2.073017 0.259127 35.255386 144 144 144 0
-1.981167 0.258413 35.158247 144 144 144 0
-1.891603 0.257946 35.094680 143 143 143 0
-1.802509 0.257501 35.034182 137 137 137 0
-1.712728 0.256909 34.953636 134 134 134 0
-1.629975 0.257365 35.015585 126 126 126 0
-1.536776 0.256129 34.847524 119 119 119 0
-1.458150 0.257321 35.009609 123 123 123 0
-1.378108 0.258395 35.155815 130 130 130 0
-1.294832 0.258966 35.233533 144 144 144 0
-1.206592 0.258556 35.177619 143 143 143 0
-1.120512 0.258580 35.180921 138 138 138 0
-1.032103 0.258026 35.105554 136 136 136 0
-0.946529 0.258144 35.121663 136 136 136 0
-0.860479 0.258144 35.121608 138 138 138 0
-0.774496 0.258165 35.124516 139 139 139 0
-0.688782 0.258293 35.141919 141 141 141 0
-0.602331 0.258142 35.121359 138 138 138 0
-0.516654 0.258327 35.146532 134 134 134 0
-0.431495 0.258897 35.224083 125 125 125 0
-0.345461 0.259096 35.251135 117 117 117 0
-0.259520 0.259520 35.308824 112 112 112 0
-0.153730 0.230595 31.373510 108 108 108 0
-0.077415 0.232246 31.598054 99 99 99 0
0.000000 0.232406 31.619806 91 91 91 0
0.077527 0.232581 31.643691 84 84 84 0
0.175694 0.263541 35.855940 75 75 75 0
0.260131 0.260131 35.391966 62 62 62 0
0.350892 0.263169 35.805280 58 58 58 0
0.694822 0.260558 35.450098 94 94 94 0
0.779115 0.259705 35.333998 132 132 132 0
0.866033 0.259810 35.348278 142 142 142 0
0.950945 0.259349 35.285513 143 143 143 0
1.035506 0.258876 35.221287 144 144 144 0
1.122077 0.258941 35.230061 146 146 146 0
1.207819 0.258818 35.213371 151 151 151 0
1.292085 0.258417 35.158767 147 147 147 0
1.377799 0.258337 35.147930 147 147 147 0
1.466167 0.258735 35.202092 149 149 149 0
1.552418 0.258736 35.202225 148 148 148 0
1.636804 0.258443 35.162278 151 151 151 0
1.724040 0.258606 35.184499 152 152 152 0
1.808512 0.258359 35.150861 151 151 151 0
1.890869 0.257846 35.081059 152 152 152 0
1.976982 0.257867 35.083969 149 149 149 0
2.062936 0.257867 35.083941 141 141 141 0
2.154820 0.258578 35.180730 135 135 135 0
2.239027 0.258349 35.149562 130 130 130 0
2.326729 0.258525 35.173530 131 131 131 0
2.415283 0.258780 35.208214 133 133 133 0
2.507313 0.259377 35.289413 133 133 133 0
2.594476 0.259448 35.298995 137 137 137 0
2.683726 0.259715 35.335425 140 140 140 0
2.776760 0.260321 35.417854 141 141 141 0
2.867918 0.260720 35.472079 146 146 146 0
2.948830 0.260191 35.400115 146 146 146 0
3.033791 0.260039 35.379481 148 148 148 0
3.124864 0.260405 35.429294 148 148 148 0
3.214160 0.260608 35.456807 146 146 146 0
3.288655 0.259631 35.323903 149 149 149 0
3.374316 0.259563 35.314662 150 150 150 0
3.463509 0.259763 35.341929 152 152 152 0
3.548678 0.259659 35.327806 152 152 152 0
3.619403 0.258529 35.173984 152 152 152 0
3.711052 0.258911 35.225935 149 149 149 0
3.795818 0.258806 35.211674 149 149 149 0
3.880299 0.258687 35.195453 151 151 151 0
3.956968 0.258063 35.110631 150 150 150 0
4.052918 0.258697 35.196859 147 147 147 0
4.134009 0.258376 35.153142 145 145 145 0
4.221821 0.258479 35.167192 143 143 143 0
4.304971 0.258298 35.142624 141 141 141 0
4.397435 0.258673 35.193554 143 143 143 0
4.481898 0.258571 35.179735 138 138 138 0
4.567893 0.258560 35.178228 141 141 141 0
4.653198 0.258511 35.171566 140 140 140 0
4.752248 0.259214 35.267143 136 136 136 0
4.833561 0.258941 35.230036 135 135 135 0
4.924102 0.259163 35.260308 137 137 137 0
5.012184 0.259251 35.272231 136 136 136 0
5.105171 0.259585 35.317683 140 140 140 0
5.192912 0.259646 35.325935 141 141 141 0
5.496269 0.270308 36.776638 142 142 142 0
5.322622 0.257546 35.040302 141 141 141 0
5.677123 0.270339 36.780842 141 141 141 0
5.630629 0.263936 35.909622 142 142 142 0
6.136605 0.283228 38.534409 143 143 143 0
6.232231 0.283283 38.541935 146 146 146 0
6.183603 0.276878 37.670440 146 146 146 0
6.129272 0.270409 36.790348 146 146 146 0
5.965221 0.259357 35.286725 146 146 146 0
6.763001 0.289843 39.434410 140 140 140 0
6.143835 0.259599 35.319545 129 129 129 0
6.257459 0.260727 35.473126 115 115 115 0
4.983166 0.204788 27.862262 101 101 101 0
6.419027 0.260231 35.405556 125 125 125 0
6.578835 0.263153 35.803183 141 141 141 0
6.694949 0.264274 35.955689 148 148 148 0
6.623649 0.258064 35.110780 152 152 152 0
6.710208 0.258085 35.113595 148 148 148 0
5.549327 0.210734 28.671284 145 145 145 0
-6.776039 0.338802 34.571628 120 120 120 0
-6.695960 0.339036 34.595506 120 120 120 0
-6.611521 0.339052 34.597180 121 121 121 0
-6.528701 0.339153 34.607482 125 125 125 0
-6.452463 0.339603 34.653397 124 124 124 0
-6.370381 0.339754 34.668738 126 126 126 0
-6.289048 0.339949 34.688625 128 128 128 0
-6.210039 0.340276 34.722051 127 127 127 0
-6.138615 0.341034 34.799405 127 126 127 0
-5.559673 0.313221 31.961331 126 126 126 0
-5.485522 0.313458 31.985553 122 122 122 0
-5.420165 0.314212 32.062496 122 122 122 0
-5.353086 0.314887 32.131371 117 117 117 0
-5.287496 0.315671 32.211369 121 121 121 0
-5.218845 0.316294 32.274862 120 120 120 0
-5.145909 0.316671 32.313399 125 125 125 0
-5.521303 0.345081 35.212389 122 122 122 0
-5.450762 0.346080 35.314301 119 119 119 0
-5.372185 0.346593 35.366592 118 118 118 0
-5.319676 0.348831 35.595019 131 131 131 0
-5.261178 0.350745 35.790325 153 153 153 0
-5.193912 0.352130 35.931597 154 154 154 0
-5.098573 0.351626 35.880178 146 146 146 0
-4.992363 0.350341 35.749107 136 136 136 0
-4.881948 0.348711 35.582709 133 133 133 0
-4.775202 0.347287 35.437491 139 139 139 0
-4.682799 0.346874 35.395303 138 138 138 0
-4.601843 0.347309 35.439685 136 136 136 0
-4.514613 0.347278 35.436525 138 138 138 0
-4.429523 0.347414 35.450362 129 129 129 0
-4.345414 0.347633 35.472765 134 134 134 0
-4.266310 0.348270 35.537780 131 131 131 0
-4.179415 0.348285 35.539242 130 130 130 0
-4.101690 0.349080 35.620404 146 146 146 0
-4.013362 0.348988 35.611018 135 135 135 0
-3.926860 0.349054 35.617780 137 137 137 0
-3.831188 0.348290 35.539774 136 136 136 0
-3.739638 0.347873 35.497272 137 137 137 0
-3.659909 0.348563 35.567632 138 138 138 0
-3.574450 0.348727 35.584375 136 136 136 0
-3.490258 0.349026 35.614879 136 136 136 0
-3.402647 0.348989 35.611170 141 141 141 0
-3.316408 0.349096 35.621996 142 142 142 0
-3.190644 0.344935 35.197400 141 141 141 0
-3.099615 0.344402 35.143029 140 140 140 0
-3.008990 0.343885 35.090267 135 135 135 0
-2.917106 0.343189 35.019281 135 135 135 0
-2.825948 0.342539 34.952978 135 135 135 0
-2.744107 0.343013 35.001370 136 136 136 0
-2.657904 0.342955 34.995449 134 134 134 0
-2.570410 0.342721 34.971569 129 129 129 0
-2.486248 0.342931 34.992929 124 124 124 0
-2.402543 0.343220 35.022491 125 125 125 0
-2.320339 0.343754 35.076939 126 126 126 0
-2.237425 0.344219 35.124409 117 117 117 0
-2.154063 0.344650 35.168374 128 128 128 0
-2.079351 0.346559 35.363116 144 144 144 0
-1.989914 0.346072 35.313466 142 142 142 0
-1.897143 0.344935 35.197455 142 142 142 0
-1.806711 0.344135 35.115861 136 136 136 0
-1.721807 0.344361 35.138919 134 134 134 0
-1.635486 0.344313 35.133971 126 126 126 0
-1.545931 0.343540 35.055121 121 121 121 0
-1.463886 0.344444 35.147326 126 126 126 0
-1.385161 0.346290 35.335748 137 137 137 0
-1.300307 0.346749 35.382501 150 150 150 0
-1.210031 0.345723 35.277874 144 144 144 0
-1.122337 0.345335 35.238221 141 141 141 0
-1.036293 0.345431 35.248051 141 141 141 0
-0.947710 0.344622 35.165495 139 139 139 0
-0.862717 0.345087 35.212935 143 143 143 0
-0.776366 0.345051 35.209320 143 143 143 0
-0.690157 0.345079 35.212108 144 144 144 0
-0.602934 0.344533 35.156473 141 141 141 0
-0.517373 0.344916 35.195476 134 134 134 0
-0.431715 0.345372 35.242006 125 125 125 0
-0.306558 0.306558 31.281389 117 117 117 0
-0.260308 0.347077 35.416025 109 109 109 0
-0.153950 0.307901 31.418459 104 104 104 0
-0.077430 0.309720 31.604046 97 97 97 0
0.000000 0.310081 31.640901 98 98 98 0
0.077907 0.311629 31.798874 89 89 89 0
0.176014 0.352028 35.921202 78 78 78 0
0.260283 0.347044 35.412673 65 65 65 0
0.349014 0.349014 35.613631 65 65 65 0
0.697979 0.348989 35.611156 60 60 60 0
0.781329 0.347257 35.434432 114 114 114 0
0.866992 0.346797 35.387431 137 137 137 0
0.952116 0.346224 35.328996 141 141 141 0
1.036807 0.345602 35.265545 143 143 143 0
1.123380 0.345655 35.270967 145 145 145 0
1.208662 0.345332 35.237969 147 147 147 0
1.292606 0.344695 35.172960 151 151 151 0
1.378218 0.344554 35.158617 152 152 152 0
1.465838 0.344903 35.194197 156 156 156 0
1.551950 0.344878 35.191606 152 152 152 0
1.636089 0.344440 35.146908 151 151 151 0
1.721912 0.344382 35.141057 151 151 151 0
1.807582 0.344301 35.132798 150 150 150 0
1.890976 0.343814 35.083049 151 151 151 0
1.975664 0.343594 35.060578 148 148 148 0
2.064687 0.344115 35.113732 139 139 139 0
2.151426 0.344228 35.125318 133 133 133 0
2.236402 0.344062 35.108352 131 131 131 0
2.324026 0.344300 35.132662 133 133 133 0
2.415635 0.345091 35.213337 131 131 131 0
2.509622 0.346155 35.321917 134 134 134 0
2.592761 0.345701 35.275655 139 139 139 0
2.682533 0.346133 35.319728 141 141 141 0
2.774436 0.346804 35.388214 142 142 142 0
2.865286 0.347307 35.439535 144 144 144 0
2.945157 0.346489 35.356025 145 145 145 0
3.030405 0.346332 35.340002 147 147 147 0
3.121448 0.346828 35.390569 148 148 148 0
3.206904 0.346692 35.376772 151 151 151 0
3.287860 0.346091 35.315358 149 149 149 0
3.370421 0.345684 35.273898 145 145 145 0
3.455175 0.345517 35.256885 152 152 152 0
3.544814 0.345836 35.289339 151 151 151 0
3.622384 0.344989 35.202954 150 150 150 0
3.709360 0.345057 35.209875 149 149 149 0
3.794202 0.344927 35.196676 150 150 150 0
3.876012 0.344534 35.156575 151 151 151 0
3.955837 0.343986 35.100593 150 150 150 0
4.049297 0.344621 35.165414 150 150 150 0
4.133391 0.344449 35.147879 147 147 147 0
4.216270 0.344185 35.120949 143 143 143 0
4.303412 0.344273 35.129895 142 142 142 0
4.395264 0.344727 35.176182 141 141 141 0
4.479995 0.344615 35.164794 138 138 138 0
4.564414 0.344484 35.151433 137 137 137 0
4.652223 0.344609 35.164194 138 138 138 0
4.744977 0.345089 35.213189 137 137 137 0
4.833429 0.345245 35.229072 140 140 140 0
4.916325 0.345005 35.204621 138 138 138 0
5.008426 0.345409 35.245783 138 138 138 0
5.064901 0.343383 35.039097 138 138 138 0
5.183450 0.345563 35.261567 137 137 137 0
5.263031 0.345117 35.215996 140 140 140 0
5.455130 0.351944 35.912638 141 141 141 0
5.676928 0.360440 36.779580 142 142 142 0
5.629272 0.351830 35.900970 142 142 142 0
5.856999 0.360431 36.778641 143 143 143 0
6.090091 0.369096 37.662899 145 145 145 0
6.182637 0.369113 37.664555 144 144 144 0
5.876945 0.345703 35.275781 145 145 145 0
6.515643 0.377718 38.542695 144 144 144 0
6.052771 0.345873 35.293122 136 136 136 0
6.144699 0.346180 35.324512 127 127 127 0
6.254929 0.347496 35.458780 108 108 108 0
6.155421 0.337283 34.416665 105 105 105 0
6.037794 0.326367 33.302779 123 123 123 0
6.585839 0.351245 35.841301 142 142 142 0
6.692337 0.352228 35.941658 156 156 156 0
6.622825 0.344043 35.106412 153 153 153 0
6.539935 0.335381 34.222577 147 147 147 0
5.552078 0.281118 28.685499 147 147 147 0
-6.756625 0.422289 34.472579 123 123 123 0
-6.677566 0.422631 34.500469 125 125 125 0
-6.590469 0.422466 34.487017 126 126 126 0
-6.512892 0.422915 34.523679 128 128 128 0
-6.439706 0.423665 34.584888 127 127 127 0
-6.357947 0.423863 34.601070 130 130 130 0
-6.275111 0.423994 34.611754 129 129 129 0
-6.198863 0.424580 34.659562 129 129 129 0
-5.621978 0.390415 31.870625 123 123 123 0
-5.552608 0.391029 31.920713 116 116 116 0
-5.485754 0.391840 31.986905 116 116 116 0
-5.420183 0.392767 32.062602 116 116 116 0
-5.352197 0.393544 32.126034 119 119 119 0
-5.293523 0.395039 32.248086 117 117 117 0
-5.704678 0.432173 35.279396 121 121 121 0
-5.622851 0.432527 35.308329 122 122 122 0
-5.541523 0.432931 35.341346 124 124 124 0
-5.463839 0.433638 35.399022 130 130 130 0
-5.376016 0.433550 35.391810 119 119 119 0
-5.293022 0.433854 35.416677 121 121 121 0
-5.245562 0.437130 35.684096 131 131 131 0
-5.184518 0.439366 35.866605 148 148 148 0
-5.110722 0.440579 35.965671 153 153 153 0
-5.020660 0.440409 35.951735 145 145 145 0
-4.916787 0.438999 35.836640 139 139 139 0
-4.809284 0.437208 35.690419 138 138 138 0
-4.695012 0.434723 35.487619 138 138 138 0
-4.608978 0.434809 35.494629 137 137 137 0
-4.525787 0.435172 35.524231 132 132 132 0
-4.437103 0.435010 35.511031 133 133 133 0
-4.356659 0.435666 35.564566 131 131 131 0
-4.274060 0.436129 35.602334 127 127 127 0
-4.195201 0.437000 35.673477 133 133 133 0
-4.112929 0.437546 35.718009 137 137 137 0
-4.031127 0.438166 35.768647 143 143 143 0
-3.952777 0.439197 35.852852 144 144 144 0
-3.853907 0.437944 35.750532 140 140 140 0
-3.763322 0.437596 35.722087 135 135 135 0
-3.673433 0.437313 35.699057 137 137 137 0
-3.577618 0.436295 35.615905 135 135 135 0
-3.490660 0.436332 35.618976 141 141 141 0
-3.412486 0.437498 35.714139 143 143 143 0
-3.335522 0.438885 35.827307 145 145 145 0
-3.248397 0.438973 35.834490 143 143 143 0
-3.120158 0.433355 35.375938 142 142 142 0
-3.021910 0.431701 35.240930 140 140 140 0
-2.926680 0.430394 35.134216 138 138 138 0
-2.837722 0.429958 35.098604 136 136 136 0
-2.754537 0.430396 35.134402 135 135 135 0
-2.663743 0.429636 35.072323 133 133 133 0
-2.579503 0.429917 35.095274 129 129 129 0
-2.494098 0.430017 35.103427 125 125 125 0
-2.412530 0.430809 35.168073 128 128 128 0
-2.328967 0.431290 35.207362 128 128 128 0
-2.241026 0.430967 35.180941 126 126 126 0
-2.159317 0.431863 35.254149 127 127 127 0
-2.082196 0.433791 35.411489 130 130 130 0
-2.001904 0.435196 35.526239 145 145 145 0
-1.908716 0.433799 35.412172 140 140 140 0
-1.817950 0.432845 35.334307 136 136 136 0
-1.728009 0.432002 35.265489 136 136 136 0
-1.644940 0.432879 35.337060 127 127 127 0
-1.559408 0.433169 35.360717 133 133 133 0
-1.471896 0.432911 35.339646 136 136 136 0
-1.390634 0.434573 35.475356 143 143 143 0
-1.303916 0.434639 35.480702 151 151 151 0
-1.213318 0.433328 35.373688 151 151 151 0
-1.125038 0.432707 35.323023 149 149 149 0
-1.038369 0.432654 35.318659 145 145 145 0
-0.951007 0.432276 35.287815 149 149 149 0
-0.863802 0.431901 35.257213 148 148 148 0
-0.777762 0.432090 35.272656 146 146 146 0
-0.691117 0.431948 35.261062 147 147 147 0
-0.603654 0.431182 35.198507 146 146 146 0
-0.518088 0.431740 35.244075 133 133 133 0
-0.432716 0.432716 35.323778 123 123 123 0
-0.307298 0.384122 31.356935 115 115 115 0
-0.230867 0.384778 31.410437 108 108 108 0
-0.154515 0.386288 31.533674 102 102 102 0
-0.077480 0.387402 31.624653 101 101 101 0
0.000000 0.388403 31.706370 104 104 104 0
0.087797 0.438986 35.835563 99 99 99 0
0.156005 0.390011 31.837662 81 81 81 0
0.260527 0.434212 35.445895 65 65 65 0
0.308790 0.385988 31.509216 69 69 69 0
0.783952 0.435529 35.553387 77 77 77 0
0.868550 0.434275 35.451023 124 124 124 0
0.953882 0.433583 35.394516 138 138 138 0
1.038002 0.432501 35.306193 143 143 143 0
1.124955 0.432675 35.320397 144 144 144 0
1.210680 0.432386 35.296796 144 144 144 0
1.293886 0.431295 35.207794 147 147 147 0
1.378947 0.430921 35.177218 156 156 156 0
1.465519 0.431035 35.186528 157 157 157 0
1.551019 0.430839 35.170496 154 154 154 0
1.634129 0.430034 35.104812 156 156 156 0
1.719102 0.429775 35.083711 153 153 153 0
1.805912 0.429979 35.100337 151 151 151 0
1.889692 0.429475 35.059221 150 150 150 0
1.975694 0.429499 35.061120 145 145 145 0
2.061737 0.429529 35.063555 134 134 134 0
2.149778 0.429956 35.098422 131 131 131 0
2.237110 0.430214 35.119474 131 131 131 0
2.325030 0.430561 35.147843 135 135 135 0
2.416388 0.431498 35.224320 138 138 138 0
2.507945 0.432404 35.298311 139 139 139 0
2.591884 0.431981 35.263732 143 143 143 0
2.680257 0.432300 35.289759 141 141 141 0
2.770145 0.432835 35.333482 146 146 146 0
2.860793 0.433453 35.383954 146 146 146 0
2.941252 0.432537 35.309148 144 144 144 0
3.028037 0.432577 35.312384 146 146 146 0
3.120456 0.433397 35.379324 148 148 148 0
3.204597 0.433054 35.351315 151 151 151 0
3.278593 0.431394 35.215820 148 148 148 0
3.372462 0.432367 35.295258 150 150 150 0
3.456664 0.432083 35.272077 150 150 150 0
3.535656 0.431178 35.198164 151 151 151 0
3.616921 0.430586 35.149865 151 151 151 0
3.705537 0.430876 35.173585 152 152 152 0
3.792091 0.430919 35.177099 153 153 153 0
3.874767 0.430530 35.145279 152 152 152 0
3.954870 0.429877 35.092010 152 152 152 0
4.048064 0.430645 35.154702 150 150 150 0
4.128857 0.430089 35.109327 148 148 148 0
4.215514 0.430154 35.114649 142 142 142 0
4.297402 0.429740 35.080837 141 141 141 0
4.392108 0.430599 35.150925 140 140 140 0
4.478000 0.430577 35.149138 139 139 139 0
4.559631 0.430154 35.114598 138 138 138 0
4.648658 0.430431 35.137245 138 138 138 0
4.738099 0.430736 35.162147 139 139 139 0
4.828064 0.431077 35.189969 138 138 138 0
4.915548 0.431188 35.199056 138 138 138 0
4.999573 0.430998 35.183486 138 138 138 0
5.064118 0.429163 35.033674 139 139 139 0
5.179736 0.431645 35.236297 138 138 138 0
5.495020 0.450412 36.768287 140 140 140 0
5.454290 0.439862 35.907112 140 140 140 0
5.811198 0.461206 37.649484 142 142 142 0
5.493125 0.429150 35.032683 144 144 144 0
5.606645 0.431280 35.206562 143 143 143 0
5.706058 0.432277 35.287925 143 143 143 0
6.181111 0.461277 37.655258 145 145 145 0
6.419193 0.472000 38.530571 143 143 143 0
6.515311 0.472124 38.540731 143 143 143 0
6.460924 0.461495 37.673026 135 135 135 0
6.145001 0.432747 35.326246 122 122 122 0
6.241389 0.433430 35.382023 108 108 108 0
5.936324 0.406598 33.191636 103 103 103 0
7.156146 0.483523 39.471296 125 125 125 0
6.597699 0.439847 35.905843 140 140 140 0
5.376336 0.353706 28.873984 155 155 155 0
