ply
format ascii 1.0
element vertex 1125
property float x
property float y
property float z
property uchar red
property uchar green
property uchar blue
property uchar alpha
end_header
7.276830 6.878100 40.686778 115 115 115 0
6.734278 6.279259 37.144390 115 115 115 0
7.641690 7.030355 41.587429 115 115 115 0
7.149924 6.491378 38.399160 119 119 119 0
7.679487 6.881618 40.707592 117 117 117 0
8.292660 7.335815 43.394349 116 116 116 0
8.575707 7.490174 44.307450 117 117 117 0
-6.458428 5.651125 32.951164 115 115 115 0
-6.397108 5.668324 33.051449 114 114 114 0
-6.326693 5.677802 33.106715 118 118 118 0
-6.253453 5.684957 33.148438 120 120 120 0
-6.184560 5.696305 33.214609 125 125 125 0
-6.112046 5.704576 33.262836 124 124 124 0
-6.041699 5.715121 33.324319 122 122 122 0
-5.971294 5.725898 33.387162 113 113 113 0
-5.896695 5.732898 33.427977 114 114 114 0
-5.829343 5.747239 33.511600 120 120 120 0
-5.756345 5.756345 33.564691 124 124 124 0
-5.680693 5.763022 33.603626 125 125 125 0
-5.603073 5.767869 33.631890 131 131 131 0
-5.526718 5.774183 33.668705 130 130 130 0
-5.453853 5.784390 33.728221 129 129 129 0
-5.379998 5.793844 33.783348 127 127 127 0
-5.299406 5.796225 33.797231 126 126 126 0
-5.223160 5.803511 33.839713 121 121 121 0
-5.149061 5.813456 33.897705 117 117 117 0
-5.079294 5.828698 33.986577 114 114 114 0
-5.003400 5.837300 34.036735 114 114 114 0
-4.935099 5.855202 34.141120 113 113 113 0
-4.862181 5.868149 34.216615 114 114 114 0
-4.778524 5.868362 34.217856 116 116 116 0
-4.709413 5.886767 34.325171 116 116 116 0
-4.633991 5.897806 34.389542 113 113 113 0
-4.562540 5.914404 34.486321 116 116 116 0
-4.489458 5.929473 34.574187 119 119 119 0
-4.406593 5.931952 34.588643 116 116 116 0
-4.326664 5.938558 34.627159 117 117 117 0
-4.253276 5.954587 34.720622 122 122 122 0
-4.172701 5.961001 34.758025 122 122 122 0
-4.095660 5.972837 34.827040 120 120 120 0
-4.012127 5.975509 34.842615 123 123 123 0
-3.931658 5.982958 34.886055 125 125 125 0
-3.854810 5.996371 34.964265 123 123 123 0
-3.773125 6.002698 35.001157 124 124 124 0
-3.689860 6.006750 35.024779 125 125 125 0
-3.609013 6.015021 35.073011 124 124 124 0
-3.526482 6.020822 35.106836 125 125 125 0
-3.444216 6.027377 35.145057 127 127 127 0
-3.362735 6.035679 35.193461 129 129 129 0
-3.280934 6.043826 35.240966 130 130 130 0
-3.192893 6.040608 35.222206 127 127 127 0
-3.111977 6.051067 35.283188 130 130 130 0
-3.029325 6.058651 35.327410 131 131 131 0
-2.943915 6.061002 35.341119 130 130 130 0
-2.856290 6.058798 35.328268 131 131 131 0
-2.775235 6.070826 35.398405 128 128 128 0
-2.692934 6.080819 35.456673 126 126 126 0
-2.606619 6.082112 35.464211 125 125 125 0
-2.520546 6.084078 35.475671 124 124 124 0
-2.436966 6.092414 35.524282 124 124 124 0
-2.354938 6.105394 35.599963 121 121 121 0
-2.269130 6.109197 35.622142 123 123 123 0
-2.180129 6.104361 35.593939 122 122 122 0
-2.098448 6.120472 35.687885 121 121 121 0
-2.014747 6.131840 35.754170 121 121 121 0
-1.928469 6.136038 35.778650 122 122 122 0
-1.840945 6.136482 35.781237 120 120 120 0
-1.757986 6.152952 35.877271 121 121 121 0
-1.673112 6.164098 35.942263 121 121 121 0
-1.585715 6.166669 35.957251 117 117 117 0
-1.498901 6.171945 35.988015 119 119 119 0
-1.414671 6.189187 36.088554 118 118 118 0
-1.326801 6.191738 36.103426 121 121 121 0
-1.239676 6.198382 36.142169 120 120 120 0
-1.152054 6.203367 36.171238 117 117 117 0
-1.067323 6.226051 36.303503 122 122 122 0
-0.978065 6.224048 36.291825 124 124 124 0
-0.890146 6.231022 36.332489 122 122 122 0
-0.803068 6.246086 36.420328 122 122 122 0
-0.714382 6.250840 36.448046 120 120 120 0
-0.625074 6.250739 36.447460 119 119 119 0
-0.536795 6.262608 36.516668 120 120 120 0
-0.447736 6.268298 36.549845 120 120 120 0
-0.358872 6.280269 36.619642 123 123 123 0
-0.269155 6.280281 36.619717 123 123 123 0
-0.179485 6.281988 36.629670 125 125 125 0
-0.089995 6.299637 36.732577 125 125 125 0
0.000000 6.298599 36.726523 127 127 127 0
0.089900 6.292988 36.693808 129 129 129 0
0.180126 6.304400 36.760351 128 128 128 0
0.270614 6.314335 36.818277 126 126 126 0
0.361002 6.317536 36.836943 127 127 127 0
0.450748 6.310475 36.795773 127 127 127 0
0.541982 6.323127 36.869543 124 124 124 0
0.632523 6.325231 36.881814 126 126 126 0
0.722360 6.320652 36.855116 127 127 127 0
0.813432 6.326692 36.890332 124 124 124 0
0.904510 6.331568 36.918765 126 126 126 0
0.994891 6.331122 36.916166 124 124 124 0
1.085269 6.330737 36.913918 125 125 125 0
1.177179 6.338658 36.960105 125 125 125 0
1.266816 6.334078 36.933401 124 124 124 0
1.356594 6.330772 36.914123 124 124 124 0
1.448688 6.338010 36.956326 124 124 124 0
1.538449 6.334789 36.937546 123 123 123 0
1.630508 6.340865 36.972976 122 122 122 0
1.720178 6.337497 36.953336 122 122 122 0
1.810051 6.335178 36.939815 123 123 123 0
1.902314 6.341048 36.974038 122 122 122 0
1.994546 6.346282 37.004559 125 125 125 0
2.086813 6.351168 37.033052 121 121 121 0
2.176465 6.348024 37.014718 122 122 122 0
2.265661 6.343849 36.990376 121 121 121 0
2.359514 6.352538 37.041038 118 118 118 0
2.449781 6.351285 37.033734 120 120 120 0
2.541333 6.353331 37.045665 121 121 121 0
2.633449 6.356600 37.064726 122 122 122 0
2.724106 6.356248 37.062670 121 121 121 0
2.812900 6.351710 37.036209 120 120 120 0
2.902021 6.348171 37.015572 122 122 122 0
2.996400 6.356000 37.061227 118 118 118 0
3.089220 6.360159 37.085476 119 119 119 0
3.181976 6.363952 37.107593 118 118 118 0
3.268685 6.355776 37.059919 119 119 119 0
3.362920 6.362280 37.097845 119 119 119 0
3.456885 6.367946 37.130880 115 115 115 0
3.545743 6.364155 37.108775 117 117 117 0
3.637366 6.365390 37.115975 118 118 118 0
3.731433 6.370739 37.147165 115 115 115 0
3.822710 6.371183 37.149757 114 114 114 0
3.926083 6.391297 37.267040 113 113 113 0
4.014005 6.385918 37.235671 113 113 113 0
4.107387 6.389269 37.255212 115 115 115 0
4.206003 6.400439 37.320342 113 113 113 0
4.301339 6.406249 37.354222 111 111 111 0
4.394873 6.409189 37.371367 114 114 114 0
4.504470 6.434957 37.521613 115 115 115 0
4.591823 6.428552 37.484271 118 118 118 0
4.685415 6.430961 37.498317 112 112 112 0
4.780011 6.434630 37.519708 115 115 115 0
4.892490 6.461779 37.678013 115 115 115 0
4.974797 6.448811 37.602394 113 113 113 0
5.072909 6.456430 37.646823 114 114 114 0
5.160600 6.450750 37.613705 113 113 113 0
5.266260 6.467337 37.710418 112 112 112 0
5.355513 6.463550 37.688338 113 113 113 0
5.454321 6.471228 37.733109 115 115 115 0
5.554849 6.480657 37.788088 113 113 113 0
5.664006 6.499679 37.899002 111 111 111 0
5.754467 6.496979 37.883261 111 111 111 0
5.863797 6.515330 37.990260 113 113 113 0
5.967752 6.527229 38.059642 113 113 113 0
6.053461 6.519111 38.012311 113 113 113 0
6.154290 6.527278 38.059927 114 114 114 0
6.261161 6.541512 38.142925 115 115 115 0
6.355474 6.542400 38.148103 116 116 116 0
6.577486 6.672812 38.908522 118 118 118 0
6.824178 6.824178 39.791126 112 112 112 0
6.655959 6.562213 38.263632 115 115 115 0
7.021964 6.826910 39.807055 117 117 117 0
7.279221 6.980075 40.700148 115 115 115 0
7.541795 7.134131 41.598430 117 117 117 0
7.153594 6.676688 38.931125 115 115 115 0
8.080435 7.442506 43.396536 118 118 118 0
8.187896 7.443542 43.402577 118 118 118 0
8.467612 7.599139 44.309847 116 116 116 0
8.056444 7.138621 41.624612 119 119 119 0
-6.469521 5.741700 33.007759 115 115 115 0
-6.405640 5.756968 33.095531 114 114 114 0
-6.333355 5.764977 33.141574 117 117 117 0
-6.259606 5.771844 33.181054 121 121 121 0
-6.190418 5.783154 33.246070 120 120 120 0
-6.120331 5.793913 33.307924 116 116 116 0
-6.048521 5.803311 33.361949 117 117 117 0
-5.977250 5.813490 33.420464 116 116 116 0
-5.903814 5.821817 33.468334 118 118 118 0
-5.828356 5.828356 33.505928 125 125 125 0
-5.761940 5.844253 33.597315 125 125 125 0
-5.686559 5.851387 33.638325 129 129 129 0
-5.608447 5.855878 33.664146 130 130 130 0
-5.532468 5.862764 33.703733 128 128 128 0
-5.458184 5.871682 33.755001 129 129 129 0
-5.386199 5.883387 33.822287 128 128 128 0
-5.306711 5.887133 33.843822 125 125 125 0
-5.226715 5.890425 33.862750 119 119 119 0
-5.157285 5.905923 33.951842 119 119 119 0
-5.086779 5.920678 34.036664 109 109 109 0
-5.007863 5.925971 34.067094 114 114 114 0
-4.943775 5.949288 34.201140 114 114 114 0
-4.867083 5.957981 34.251110 113 113 113 0
-4.788442 5.964550 34.288876 114 114 114 0
-4.712311 5.974537 34.346290 118 118 118 0
-4.642919 5.993586 34.455798 118 118 118 0
-4.569177 6.007622 34.536485 116 116 116 0
-4.493049 6.018990 34.601838 115 115 115 0
-4.413802 6.026537 34.645225 117 117 117 0
-4.332411 6.031395 34.673156 114 114 114 0
-4.260616 6.050075 34.780540 121 121 121 0
-4.180912 6.058056 34.826419 121 121 121 0
-4.100064 6.064678 34.864489 120 120 120 0
-4.018180 6.070016 34.895176 123 123 123 0
-3.943189 6.086227 34.988369 122 122 122 0
-3.859476 6.089396 35.006588 123 123 123 0
-3.777595 6.095665 35.042628 122 122 122 0
-3.696397 6.103353 35.086826 125 125 125 0
-3.617652 6.115554 35.156965 124 124 124 0
-3.529212 6.111562 35.134016 126 126 126 0
-3.447355 6.119056 35.177096 128 128 128 0
-3.368276 6.131990 35.251453 129 129 129 0
-3.285280 6.138286 35.287644 129 129 129 0
-3.199277 6.139153 35.292630 128 128 128 0
-3.114762 6.143004 35.314766 127 127 127 0
-3.033962 6.154609 35.381484 129 129 129 0
-2.949593 6.159444 35.409276 129 129 129 0
-2.861369 6.156279 35.391086 128 128 128 0
-2.778152 6.164025 35.435615 125 125 125 0
-2.695575 6.173736 35.491441 124 124 124 0
-2.611273 6.180013 35.527523 126 126 126 0
-2.523578 6.178414 35.518335 126 126 126 0
-2.440079 6.187343 35.569663 125 125 125 0
-2.356677 6.197189 35.626264 125 125 125 0
-2.274179 6.210258 35.701397 122 122 122 0
-2.185250 6.206111 35.677559 124 124 124 0
-2.101406 6.216660 35.738200 123 123 123 0
-2.018847 6.232093 35.826920 123 123 123 0
-1.932772 6.237582 35.858479 120 120 120 0
-1.846242 6.242056 35.884195 123 123 123 0
-1.759995 6.247981 35.918258 121 121 121 0
-1.674918 6.258905 35.981060 119 119 119 0
-1.587927 6.263490 36.007415 122 122 122 0
-1.502429 6.274853 36.072737 122 122 122 0
-1.417735 6.291199 36.166709 120 120 120 0
-1.328897 6.290114 36.160474 124 124 124 0
-1.242119 6.299318 36.213386 120 120 120 0
-1.155787 6.312377 36.288458 122 122 122 0
-1.069277 6.326555 36.369962 121 121 121 0
-0.979584 6.322770 36.348206 122 122 122 0
-0.891674 6.330885 36.394856 123 123 123 0
-0.804086 6.343342 36.466468 122 122 122 0
-0.715806 6.352782 36.520737 121 121 121 0
-0.626809 6.357634 36.548628 122 122 122 0
-0.537525 6.360712 36.566324 118 118 118 0
-0.449110 6.377366 36.662062 121 121 121 0
-0.359667 6.384081 36.700664 123 123 123 0
-0.269597 6.380453 36.679808 121 121 121 0
-0.179990 6.389637 36.732610 125 125 125 0
-0.090088 6.396272 36.770749 127 127 127 0
0.000000 6.400201 36.793339 125 125 125 0
0.090126 6.398976 36.786292 128 128 128 0
0.180511 6.408144 36.838999 127 127 127 0
0.270949 6.412463 36.863827 125 125 125 0
0.361291 6.412921 36.866463 127 127 127 0
0.452076 6.419483 36.904185 127 127 127 0
0.542873 6.423993 36.930110 125 125 125 0
0.633546 6.425968 36.941469 125 125 125 0
0.724148 6.426811 36.946311 125 125 125 0
0.814721 6.427243 36.948794 124 124 124 0
0.906446 6.435766 36.997791 124 124 124 0
0.997026 6.435351 36.995409 122 122 122 0
1.088941 6.442902 37.038818 126 126 126 0
1.179689 6.442915 37.038892 123 123 123 0
1.270453 6.443012 37.039451 123 123 123 0
1.361474 6.444311 37.046918 124 124 124 0
1.451492 6.440996 37.027857 125 125 125 0
1.545466 6.454592 37.106016 124 124 124 0
1.633900 6.444827 37.049884 121 121 121 0
1.727170 6.454161 37.103544 121 121 121 0
1.818463 6.455542 37.111480 122 121 122 0
1.908756 6.453414 37.099249 123 123 123 0
1.999428 6.452698 37.095134 124 124 124 0
2.092522 6.459525 37.134378 121 121 121 0
2.183379 6.459162 37.132290 122 122 122 0
2.273400 6.456457 37.116743 120 120 120 0
2.365666 6.460088 37.137616 120 120 120 0
2.458246 6.464276 37.161689 122 122 122 0
2.549119 6.463839 37.159176 121 121 121 0
2.638402 6.459536 37.134443 118 118 118 0
2.732338 6.466533 37.174663 121 121 121 0
2.822267 6.463901 37.159534 119 119 119 0
2.916782 6.471610 37.203853 118 118 118 0
3.002667 6.460284 37.138739 121 121 121 0
3.103953 6.481783 37.262336 118 118 118 0
3.194480 6.480231 37.253414 118 118 118 0
3.277514 6.463986 37.160021 117 117 117 0
3.375789 6.477866 37.239816 117 117 117 0
3.470918 6.485136 37.281611 117 117 117 0
3.563181 6.486816 37.291267 117 117 117 0
3.658033 6.493009 37.326867 114 114 114 0
3.752113 6.497562 37.353046 115 115 115 0
3.847801 6.504617 37.393600 112 112 112 0
3.931857 6.492136 37.321851 113 113 113 0
4.036576 6.513566 37.445049 113 113 113 0
4.133229 6.521317 37.489604 112 112 112 0
4.231989 6.531982 37.550919 115 115 115 0
4.310823 6.512095 37.436589 114 114 114 0
4.408743 6.521265 37.489308 117 117 117 0
4.510374 6.535440 37.570794 109 109 109 0
4.607219 6.542251 37.609951 115 115 115 0
4.704140 6.548900 37.648177 113 113 113 0
4.797543 6.550491 37.657322 115 115 115 0
4.912026 6.580261 37.828465 116 116 116 0
4.990493 6.561574 37.721032 119 119 119 0
5.096598 6.579244 37.822617 117 117 117 0
5.181467 6.569360 37.765793 115 115 115 0
5.290567 6.590004 37.884475 116 116 116 0
5.375295 6.580102 37.827551 115 115 115 0
5.478454 6.592716 37.900065 115 115 115 0
5.577527 6.600073 37.942357 113 113 113 0
5.671898 6.601718 37.951811 116 116 116 0
5.763474 6.600107 37.942555 113 113 113 0
5.877362 6.623694 38.078148 115 115 115 0
5.978659 6.632575 38.129202 116 116 116 0
6.067755 6.627856 38.102074 115 115 115 0
6.289922 6.766431 38.898714 118 118 118 0
6.270386 6.644738 38.199124 117 117 117 0
6.481948 6.767916 38.907249 116 116 116 0
6.580104 6.770832 38.924013 114 114 114 0
6.571665 6.665546 38.318747 118 118 118 0
6.924310 6.924310 39.806323 114 114 114 0
7.180107 7.080384 40.703557 114 114 114 0
7.280473 7.081008 40.707147 116 116 116 0
7.544237 7.238390 41.611900 118 118 118 0
7.644980 7.237247 41.605332 116 116 116 0
7.749063 7.239256 41.616878 119 119 119 0
8.189508 7.551365 43.411122 119 119 119 0
7.369065 6.707738 38.561302 119 119 119 0
8.232002 7.398382 42.531656 120 120 120 0
-6.479439 5.831495 33.058361 114 114 114 0
-6.413949 5.845625 33.138463 112 112 112 0
-6.345989 5.857836 33.207687 116 116 116 0
-6.270627 5.863444 33.239478 116 116 116 0
-6.203196 5.876712 33.314692 117 117 117 0
-6.130683 5.885456 33.364262 116 116 116 0
-6.062970 5.899105 33.441641 118 118 118 0
-5.992187 5.910102 33.503981 119 119 119 0
-5.916821 5.916821 33.542072 122 122 122 0
-5.841407 5.923681 33.580957 127 127 127 0
-5.769615 5.934461 33.642071 128 128 128 0
-5.695526 5.943158 33.691369 131 131 131 0
-5.615350 5.945665 33.705583 128 128 128 0
-5.537612 5.950866 33.735071 129 129 129 0
-5.462251 5.958819 33.780156 131 131 131 0
-5.388599 5.968910 33.837357 129 129 129 0
-5.308894 5.972505 33.857739 122 122 122 0
-5.240418 5.989050 33.951529 120 120 120 0
-5.165154 5.998244 34.003650 114 114 114 0
-5.092722 6.011081 34.076424 113 113 113 0
-4.576093 5.491312 31.129887 113 113 113 0
-4.942810 6.031904 34.194466 115 115 115 0
-4.876001 6.052967 34.313874 113 113 113 0
-4.796249 6.058420 34.344783 114 114 114 0
-4.720764 6.069553 34.407898 115 115 115 0
-4.644695 6.080328 34.468978 116 116 116 0
-4.571298 6.095064 34.552515 116 116 116 0
-4.494016 6.105078 34.609286 118 118 118 0
-4.416728 6.115470 34.668196 117 117 117 0
-4.338811 6.125381 34.724380 120 120 120 0
-4.265310 6.142046 34.818855 122 122 122 0
-4.186587 6.151719 34.873690 123 123 123 0
-4.104648 6.156972 34.903470 120 120 120 0
-4.024062 6.164521 34.946262 124 124 124 0
-3.945998 6.176345 35.013292 122 122 122 0
-3.865615 6.184984 35.062265 124 124 124 0
-3.784472 6.192772 35.106418 125 125 125 0
-3.700312 6.195870 35.123982 127 127 127 0
-3.622330 6.209709 35.202432 126 126 126 0
-3.535496 6.208677 35.196579 127 127 127 0
-3.454863 6.218754 35.253706 127 127 127 0
-3.373911 6.228759 35.310425 128 128 128 0
-3.290878 6.235347 35.347774 126 126 126 0
-3.202508 6.231907 35.328272 128 128 128 0
-3.119802 6.239604 35.371903 127 127 127 0
-3.038745 6.251132 35.437255 127 127 127 0
-2.955282 6.258244 35.477574 129 129 129 0
-2.868606 6.258778 35.480600 127 127 127 0
-2.782499 6.260622 35.491057 125 125 125 0
-2.702851 6.277590 35.587246 129 129 129 0
-2.616595 6.279827 35.599928 126 126 126 0
-2.528594 6.277888 35.588936 125 125 125 0
-2.444522 6.285915 35.634437 124 124 124 0
-2.362869 6.300985 35.719869 124 124 124 0
-2.278150 6.308724 35.763739 123 123 123 0
-2.188814 6.303785 35.735744 124 124 124 0
-2.104416 6.313248 35.789388 124 124 124 0
-2.021261 6.327426 35.869760 124 124 124 0
-1.934622 6.331492 35.892811 121 121 121 0
-1.849566 6.341370 35.948810 120 120 120 0
-1.764563 6.352428 36.011495 124 124 124 0
-1.677559 6.357067 36.037794 120 120 120 0
-1.590607 6.362429 36.068189 122 122 122 0
-1.504883 6.373621 36.131639 120 120 120 0
-1.419425 6.387412 36.209817 121 121 121 0
-1.331090 6.389234 36.220149 122 122 122 0
-1.243532 6.395309 36.254587 120 120 120 0
-1.157669 6.411704 36.347530 121 121 121 0
-1.071272 6.427631 36.437818 119 119 119 0
-0.981131 6.421950 36.405614 123 123 123 0
-0.893125 6.430497 36.454062 122 122 122 0
-0.805998 6.447985 36.553204 123 123 123 0
-0.717723 6.459510 36.618536 122 122 122 0
-0.627578 6.455092 36.593492 122 122 122 0
-0.538614 6.463367 36.640403 124 124 124 0
-0.449301 6.469937 36.677650 123 123 123 0
-0.360111 6.481990 36.745976 124 124 124 0
-0.270012 6.480297 36.736377 125 125 125 0
-0.180361 6.492994 36.808354 129 129 129 0
-0.090235 6.496915 36.830583 128 128 128 0
0.000000 6.504568 36.873967 128 128 128 0
0.090299 6.501499 36.856568 129 129 129 0
0.180803 6.508891 36.898475 129 129 129 0
0.271529 6.516692 36.942700 127 127 127 0
0.361966 6.515389 36.935312 128 128 128 0
0.453067 6.524169 36.985082 127 127 127 0
0.543973 6.527671 37.004939 128 128 128 0
0.635178 6.533260 37.036619 127 127 127 0
0.725475 6.529276 37.014037 128 128 128 0
0.816756 6.534049 37.041096 127 127 127 0
0.907930 6.537094 37.058356 126 126 126 0
0.999123 6.539714 37.073211 124 124 124 0
1.091200 6.547201 37.115652 124 124 124 0
1.183263 6.553456 37.151113 124 124 124 0
1.273550 6.549684 37.129726 126 126 126 0
1.365931 6.556471 37.168204 122 122 122 0
1.455698 6.550640 37.135147 126 126 126 0
1.547436 6.553848 37.153333 125 125 125 0
1.640690 6.562762 37.203865 122 122 122 0
1.731123 6.560046 37.188472 124 124 124 0
1.823626 6.565055 37.216864 122 122 122 0
1.915069 6.565952 37.221949 123 123 123 0
2.003721 6.557633 37.174790 123 123 123 0
2.099469 6.572252 37.257666 122 122 122 0
2.191310 6.573930 37.267174 120 120 120 0
2.282259 6.572907 37.261378 122 122 122 0
2.370540 6.564573 37.214134 123 123 123 0
2.464120 6.570988 37.250497 121 121 121 0
2.559339 6.581157 37.308146 120 120 120 0
2.644725 6.566213 37.223429 121 121 121 0
2.741915 6.580597 37.304972 117 117 117 0
2.836593 6.588217 37.348169 120 120 120 0
2.928406 6.588912 37.352112 118 118 118 0
3.021985 6.593422 37.377677 120 120 120 0
3.112088 6.590304 37.359999 117 117 117 0
3.209607 6.602621 37.429822 117 117 117 0
3.295053 6.590106 37.358880 116 116 116 0
3.389736 6.596243 37.393668 113 113 113 0
3.484783 6.602747 37.430541 115 115 115 0
3.584595 6.617714 37.515384 116 116 116 0
3.666789 6.600220 37.416214 116 116 116 0
3.765727 6.612984 37.488572 118 118 118 0
3.866029 6.627478 37.570736 115 115 115 0
3.953562 6.619918 37.527878 115 115 115 0
4.048249 6.624407 37.553328 114 114 114 0
4.146579 6.634526 37.610692 112 112 112 0
4.244395 6.643401 37.661001 115 115 115 0
4.336450 6.643072 37.659137 116 116 116 0
4.430588 6.645882 37.675069 112 112 112 0
4.537224 6.666942 37.794455 113 113 113 0
4.626402 6.662018 37.766544 115 115 115 0
4.722187 6.666617 37.792615 115 115 115 0
4.822644 6.677508 37.854351 116 116 116 0
4.920325 6.684215 37.892377 119 119 119 0
5.011366 6.681821 37.878803 115 115 115 0
5.111451 6.691355 37.932849 116 116 116 0
5.205946 6.693359 37.944212 117 117 117 0
5.301836 6.697056 37.965172 114 114 114 0
5.393005 6.694765 37.952182 116 116 116 0
5.492900 6.703200 38.000000 114 114 114 0
5.591764 6.710117 38.039214 114 114 114 0
5.690599 6.716773 38.076944 115 115 115 0
5.782720 6.715417 38.069257 116 116 116 0
5.893702 6.735659 38.184010 114 114 114 0
5.988980 6.737603 38.195027 113 113 113 0
6.083167 6.738277 38.198850 119 119 119 0
6.192911 6.755903 38.298768 116 116 116 0
6.278540 6.747088 38.248796 118 118 118 0
6.485029 6.866502 38.925746 116 116 116 0
6.581747 6.867910 38.933730 116 116 116 0
6.676744 6.867508 38.931453 116 116 116 0
6.926092 7.023642 39.816567 118 118 118 0
7.182541 7.182541 40.717355 118 118 118 0
7.282127 7.182372 40.716393 118 118 118 0
7.383081 7.183538 40.723007 117 117 117 0
7.093609 6.809865 38.604675 119 119 119 0
7.749937 7.342045 41.621571 121 121 121 0
8.191275 7.659374 43.420486 122 122 122 0
8.470432 7.818860 44.324603 122 122 122 0
8.580142 7.819876 44.330364 122 122 122 0
-6.492675 5.924566 33.125894 112 112 112 0
-6.427950 5.939751 33.210797 113 113 113 0
-6.357466 5.949936 33.267745 112 112 112 0
-6.286185 5.959630 33.321947 116 116 116 0
-6.214068 5.968776 33.373082 118 118 118 0
-6.143782 5.979947 33.435546 118 118 118 0
-6.075209 5.993112 33.509152 120 120 120 0
-5.999958 5.999958 33.547432 123 123 123 0
-5.924905 6.007195 33.587894 125 125 125 0
-5.844590 6.009226 33.599251 129 129 129 0
-5.775056 6.022558 33.673795 129 129 129 0
-5.701951 6.032499 33.729378 128 128 128 0
-5.621279 6.034609 33.741173 130 130 130 0
-5.540061 6.036186 33.749989 131 131 131 0
-5.467094 6.046937 33.810105 127 127 127 0
-5.395394 6.059443 33.880026 122 122 122 0
-5.317594 6.065381 33.913230 120 120 120 0
-5.239378 6.071025 33.944785 114 114 114 0
-5.172212 6.089863 34.050112 111 111 111 0
-4.657323 5.573518 31.163085 112 112 112 0
-5.025274 6.114083 34.185535 113 113 113 0
-4.951474 6.126400 34.254406 114 114 114 0
-4.883202 6.146099 34.364547 113 113 113 0
-4.804992 6.153761 34.407387 116 116 116 0
-4.720189 6.153103 34.403709 115 115 115 0
-4.654363 6.177609 34.540725 116 116 116 0
-4.581673 6.193743 34.630937 119 119 119 0
-4.504886 6.204842 34.692997 118 118 118 0
-4.427490 6.215515 34.752669 115 115 115 0
-4.347464 6.222841 34.793633 119 119 119 0
-4.267824 6.231023 34.839382 121 121 121 0
-4.188640 6.240219 34.890798 121 120 121 0
-4.111289 6.252586 34.959943 119 119 119 0
-4.030698 6.260446 35.003890 122 121 122 0
-3.951021 6.270098 35.057861 124 124 124 0
-3.869984 6.277974 35.101898 124 124 124 0
-3.787422 6.283677 35.133783 125 125 125 0
-3.708625 6.296038 35.202896 126 126 126 0
-3.628260 6.306262 35.260062 124 124 124 0
-3.541047 6.304791 35.251836 126 126 126 0
-3.459175 6.312994 35.297702 125 125 125 0
-3.378676 6.324189 35.360296 127 126 127 0
-3.295481 6.330793 35.397219 128 128 128 0
-3.209963 6.333169 35.410508 128 128 128 0
-3.124354 6.335495 35.423512 128 128 128 0
-3.043676 6.348238 35.494760 127 127 127 0
-2.959737 6.354729 35.531054 130 130 130 0
-2.872640 6.354628 35.530490 128 128 128 0
-2.788521 6.361313 35.567866 126 126 126 0
-2.705362 6.370691 35.620304 127 127 127 0
-2.622138 6.380537 35.675352 128 128 128 0
-2.533699 6.377931 35.660781 128 128 128 0
-2.447663 6.381408 35.680226 126 126 126 0
-2.365290 6.395044 35.756465 125 125 125 0
-2.280999 6.404344 35.808467 122 122 122 0
-2.194091 6.406745 35.821891 122 122 122 0
-2.108484 6.413306 35.858572 126 126 126 0
-2.025164 6.427693 35.939016 124 124 124 0
-1.938129 6.431065 35.957869 122 122 122 0
-1.852611 6.440030 36.007998 123 123 123 0
-1.766200 6.446629 36.044892 122 122 122 0
-1.680372 6.456166 36.098218 124 124 124 0
-1.592285 6.457599 36.106227 121 121 121 0
-1.506783 6.470302 36.177257 120 120 120 0
-1.422141 6.488520 36.279116 121 121 121 0
-1.332784 6.486216 36.266237 116 116 116 0
-1.245357 6.493645 36.307772 118 118 118 0
-1.159010 6.508285 36.389627 117 117 117 0
-1.071684 6.519409 36.451824 123 123 123 0
-0.983771 6.528663 36.503567 123 123 123 0
-0.894844 6.532363 36.524257 122 122 122 0
-0.806876 6.544662 36.593022 124 124 124 0
-0.717835 6.550247 36.624250 123 123 123 0
-0.628602 6.555423 36.653192 123 123 123 0
-0.539057 6.558529 36.670556 122 122 122 0
-0.450620 6.579052 36.785307 124 124 124 0
-0.360834 6.585226 36.819829 122 122 122 0
-0.270636 6.585473 36.821207 125 125 125 0
-0.180642 6.593447 36.865794 127 127 127 0
-0.090377 6.597520 36.888566 127 127 127 0
0.000000 6.603525 36.922141 128 128 128 0
0.090583 6.612525 36.972465 132 132 132 0
0.181100 6.610145 36.959158 130 130 130 0
0.271666 6.610544 36.961387 129 129 129 0
0.362800 6.621102 37.020419 128 128 128 0
0.453599 6.622541 37.028463 127 127 127 0
0.544962 6.630375 37.072270 129 129 129 0
0.635915 6.631686 37.079600 125 125 125 0
0.726773 6.631803 37.080253 125 125 125 0
0.819229 6.644855 37.153231 127 127 127 0
0.910077 6.643561 37.145992 125 125 125 0
1.002098 6.650288 37.183608 127 127 127 0
1.093026 6.649242 37.177755 129 129 129 0
1.185414 6.656554 37.218639 123 123 123 0
1.276584 6.656475 37.218197 128 128 128 0
1.368762 6.661309 37.245229 124 124 124 0
1.460612 6.664044 37.260520 124 124 124 0
1.552949 6.668545 37.285685 123 123 123 0
1.641463 6.657043 37.221375 123 123 123 0
1.736707 6.672611 37.308421 124 124 124 0
1.829244 6.676739 37.331502 123 123 123 0
1.920860 6.677275 37.334498 123 123 123 0
2.010700 6.671870 37.304276 124 124 124 0
2.105094 6.681386 37.357484 124 124 124 0
2.195845 6.679028 37.344301 120 120 120 0
2.290109 6.687118 37.389530 119 119 119 0
2.380206 6.682886 37.365870 123 123 123 0
2.476538 6.695824 37.438213 120 120 120 0
2.565134 6.687672 37.392630 121 121 121 0
2.656535 6.687139 37.389648 121 121 121 0
2.748578 6.688206 37.395618 119 119 119 0
2.846292 6.702559 37.475868 117 117 117 0
2.936986 6.699999 37.461556 117 117 117 0
3.029194 6.700945 37.466842 118 118 118 0
3.127175 6.714229 37.541116 117 117 117 0
3.219210 6.714352 37.541804 116 116 116 0
3.307765 6.707412 37.503000 116 116 116 0
3.405641 6.719238 37.569126 117 117 117 0
3.501163 6.725918 37.606473 119 119 119 0
3.597155 6.733136 37.646832 114 114 114 0
3.686953 6.728690 37.621971 118 118 118 0
3.780594 6.731301 37.636571 115 115 115 0
3.880044 6.743887 37.706944 115 115 115 0
3.979426 6.755770 37.773385 114 114 114 0
4.065594 6.745190 37.714230 115 115 115 0
4.166413 6.758847 37.790592 113 113 113 0
4.265130 6.768575 37.844983 116 116 116 0
4.355013 6.764169 37.820347 115 115 115 0
4.447312 6.763621 37.817283 116 116 116 0
4.545738 6.772222 37.865372 117 117 117 0
4.642384 6.777881 37.897015 114 115 115 0
4.737856 6.781636 37.918011 114 114 114 0
4.834734 6.787222 37.949243 116 116 116 0
4.931336 6.792218 37.977175 116 116 116 0
5.031303 6.801576 38.029501 116 116 116 0
5.132491 6.812216 38.088989 116 116 116 0
5.221145 6.806135 38.054991 115 115 115 0
5.319297 6.812433 38.090206 120 120 120 0
5.410273 6.809481 38.073699 118 118 118 0
5.510736 6.818369 38.123392 115 115 115 0
5.603361 6.817423 38.118103 114 114 114 0
5.706946 6.829624 38.186324 115 115 115 0
5.802928 6.832480 38.202294 116 116 116 0
5.904156 6.841324 38.251741 115 115 115 0
5.990632 6.833064 38.205558 115 115 115 0
6.096709 6.847073 38.283888 116 116 116 0
6.294383 6.961969 38.926301 117 117 117 0
6.296264 6.860108 38.356770 117 117 117 0
6.394759 6.864962 38.383907 117 117 117 0
6.583372 6.965017 38.943344 119 119 119 0
6.678608 6.964834 38.942320 119 119 119 0
6.692994 6.881529 38.476537 117 117 117 0
6.809904 6.904486 38.604899 117 117 117 0
7.284458 7.284458 40.729429 120 120 120 0
7.384264 7.284477 40.729531 119 119 119 0
7.648983 7.445010 41.627117 120 120 120 0
7.752356 7.446342 41.634563 121 121 121 0
8.024829 7.607955 42.538189 121 121 121 0
8.472210 7.929120 44.333911 120 120 120 0
8.408463 7.769846 43.443365 122 122 122 0
-6.515027 6.026400 33.239936 115 115 115 0
-6.443056 6.035268 33.288846 115 115 115 0
-6.375227 6.048292 33.360686 119 119 119 0
-6.303869 6.058264 33.415685 120 120 120 0
-6.222115 6.058375 33.416302 120 120 120 0
-6.155679 6.073603 33.500293 124 124 124 0
-6.083901 6.083901 33.557091 123 123 123 0
-6.010689 6.093027 33.607430 125 125 125 0
-5.933100 6.097908 33.634354 129 129 129 0
-5.855095 6.102493 33.659642 130 130 130 0
-5.779729 6.109999 33.701042 129 129 129 0
-5.708033 6.121659 33.765355 130 130 130 0
-5.626767 6.123246 33.774111 129 129 129 0
-5.547621 6.127223 33.796047 129 129 129 0
-5.474132 6.137664 33.853633 124 124 124 0
-5.397841 6.145234 33.895389 124 124 124 0
-5.324755 6.156748 33.958899 120 120 120 0
-5.249173 6.165695 34.008247 111 111 111 0
-4.728095 5.643210 31.126368 112 112 112 0
-5.104901 6.192831 34.157921 114 114 114 0
-5.030740 6.204580 34.222724 111 111 111 0
-4.955838 6.215797 34.284597 115 115 115 0
-4.889005 6.237696 34.405385 113 113 113 0
-4.814866 6.250879 34.478096 113 113 113 0
-4.733205 6.254593 34.498580 112 112 112 0
-4.658842 6.268260 34.573967 116 116 116 0
-4.583374 6.280919 34.643792 117 117 117 0
-4.512093 6.299903 34.748502 117 117 117 0
-4.433419 6.309096 34.799207 119 119 119 0
-4.349025 6.310350 34.806123 120 120 120 0
-4.273723 6.325110 34.887534 120 120 120 0
-4.197704 6.339389 34.966294 118 118 118 0
-4.117865 6.348375 35.015858 122 122 122 0
-4.036838 6.355873 35.057215 123 123 123 0
-3.960397 6.371073 35.141052 122 122 122 0
-3.876183 6.374167 35.158121 122 122 122 0
-3.794413 6.381513 35.198639 124 124 124 0
-3.713834 6.391249 35.252338 125 125 125 0
-3.633123 6.401218 35.307323 127 127 127 0
-3.547425 6.402670 35.315336 124 124 124 0
-3.463841 6.408106 35.345319 124 124 124 0
-3.381427 6.416041 35.389086 129 129 129 0
-3.301107 6.428472 35.457651 128 128 128 0
-3.212962 6.425925 35.443601 126 126 126 0
-3.128937 6.431704 35.475477 126 126 126 0
-3.047580 6.443456 35.540296 126 126 126 0
-2.964393 6.451914 35.586950 127 127 127 0
-2.877268 6.452055 35.587728 125 125 125 0
-2.791077 6.454366 35.600474 128 128 128 0
-2.708965 6.466561 35.667738 125 125 125 0
-2.627201 6.480429 35.744233 128 128 128 0
-2.537671 6.475435 35.716686 126 126 126 0
-2.451457 6.478850 35.735520 127 127 127 0
-2.368900 6.492542 35.811040 126 126 126 0
-2.283089 6.498022 35.841271 124 124 124 0
-2.197844 6.505620 35.883175 126 126 126 0
-2.109861 6.505403 35.881982 127 127 127 0
-2.026421 6.519791 35.961338 126 126 126 0
-1.939934 6.525233 35.991356 125 125 125 0
-1.852770 6.528808 36.011077 125 125 125 0
-1.769525 6.547243 36.112758 124 124 124 0
-1.681771 6.550055 36.128267 122 122 122 0
-1.595776 6.560414 36.185404 120 120 120 0
-1.508542 6.566595 36.219497 120 120 120 0
-1.425119 6.591175 36.355077 118 118 118 0
-1.336174 6.591793 36.358483 114 114 114 0
-1.247925 6.596177 36.382667 118 118 118 0
-1.161020 6.608884 36.452751 121 121 121 0
-1.074780 6.627812 36.557154 122 122 122 0
-0.986723 6.637954 36.613095 122 122 122 0
-0.896237 6.632150 36.581084 121 121 121 0
-0.807490 6.639360 36.620850 126 126 126 0
-0.719709 6.657310 36.719854 123 123 123 0
-0.629744 6.657293 36.719765 123 123 123 0
-0.540343 6.664231 36.758031 125 125 125 0
-0.451034 6.675310 36.819140 125 125 125 0
-0.361396 6.685829 36.877161 126 126 126 0
-0.270837 6.680643 36.848554 127 127 127 0
-0.180919 6.693992 36.922182 126 126 126 0
-0.090465 6.694413 36.924504 128 128 128 0
0.000000 6.703029 36.972030 130 130 130 0
0.090610 6.705131 36.983623 129 129 129 0
0.181298 6.708016 36.999538 129 129 129 0
0.272051 6.710602 37.013800 127 127 127 0
0.363009 6.715659 37.041694 129 129 129 0
0.454466 6.726093 37.099243 129 129 129 0
0.545637 6.729527 37.118186 128 128 128 0
0.636548 6.729223 37.116507 129 129 129 0
0.728223 6.736062 37.154230 125 125 125 0
0.820992 6.750381 37.233209 125 125 125 0
0.911493 6.745046 37.203781 129 129 129 0
1.002383 6.743306 37.194189 124 124 124 0
1.094658 6.750393 37.233278 126 126 126 0
1.188072 6.762873 37.302110 123 123 123 0
1.278571 6.758159 37.276113 123 123 123 0
1.370429 6.760785 37.290596 124 124 124 0
1.463198 6.767291 37.326482 123 123 123 0
1.556500 6.775355 37.370959 125 125 125 0
1.647244 6.772001 37.352462 124 124 124 0
1.739997 6.776829 37.379091 125 125 125 0
1.833292 6.783181 37.414126 125 125 125 0
1.924770 6.782521 37.410488 124 124 124 0
2.014529 6.776142 37.375300 122 122 122 0
2.111840 6.794616 37.477196 122 122 122 0
2.204881 6.798382 37.497968 122 122 122 0
2.293184 6.787824 37.439737 120 120 120 0
2.382990 6.782356 37.409576 123 123 123 0
2.482493 6.803870 37.528241 119 119 119 0
2.571502 6.796113 37.485455 122 122 122 0
2.666285 6.803623 37.526879 122 122 122 0
2.757305 6.801352 37.514354 118 118 118 0
2.857653 6.821495 37.625454 118 118 118 0
2.945135 6.810624 37.565495 119 119 119 0
3.041502 6.820337 37.619067 120 120 120 0
3.136009 6.825432 37.647170 122 122 122 0
3.229849 6.828824 37.665880 122 122 122 0
3.322734 6.830064 37.672718 119 119 119 0
3.417082 6.834163 37.695329 119 119 119 0
3.510756 6.836735 37.709513 116 116 116 0
3.606062 6.842272 37.740053 115 115 115 0
3.698302 6.841859 37.737775 116 116 116 0
3.791846 6.843820 37.748592 115 115 115 0
3.895526 6.863546 37.857397 115 115 115 0
3.990104 6.866691 37.874744 117 117 117 0
4.079962 6.861754 37.847511 118 118 118 0
4.178188 6.870798 37.897397 118 118 118 0
4.272176 6.872632 37.907510 116 116 116 0
4.366576 6.875035 37.920768 114 114 114 0
4.467243 6.887000 37.986761 114 114 114 0
4.560529 6.887330 37.988580 117 117 117 0
4.662390 6.900337 38.060327 118 118 118 0
4.754839 6.899178 38.053935 114 114 114 0
4.852090 6.904898 38.085482 118 118 118 0
4.943208 6.901837 38.068600 118 118 118 0
5.047856 6.917432 38.154617 118 118 118 0
5.140947 6.916910 38.151737 115 115 115 0
5.237143 6.920510 38.171597 118 118 118 0
5.329543 6.919056 38.163577 115 115 115 0
5.421726 6.917374 38.154299 116 116 116 0
5.531624 6.937969 38.267891 117 117 117 0
5.618477 6.929455 38.220930 116 116 116 0
5.719716 6.938672 38.271772 117 117 117 0
5.824165 6.951423 38.342101 118 118 118 0
5.919163 6.952668 38.348967 115 115 115 0
6.014617 6.954400 38.358524 117 117 117 0
6.121095 6.968631 38.437016 115 115 115 0
6.296445 7.059650 38.939053 118 118 118 0
6.390053 7.057671 38.928136 116 116 116 0
6.486768 7.059130 38.936183 116 116 116 0
6.584560 7.061702 38.950369 118 118 118 0
6.616502 6.994588 38.580186 120 120 120 0
7.082435 7.381693 40.715351 119 119 119 0
6.819283 7.008708 38.658069 120 120 120 0
7.285920 7.385727 40.737601 122 122 122 0
7.386534 7.386534 40.742053 120 120 120 0
7.815044 7.710844 42.530854 122 122 122 0
7.753505 7.549465 41.640736 121 121 121 0
8.027785 7.715015 42.553859 121 121 121 0
8.473605 8.039061 44.341208 117 117 117 0
8.932304 8.366968 46.149853 119 119 119 0
-6.520049 6.112546 33.265557 113 113 113 0
-6.455473 6.128614 33.353001 118 118 118 0
-6.385366 6.139775 33.413742 119 119 119 0
-6.309745 6.145856 33.446834 120 120 120 0
-6.236734 6.154672 33.494813 124 124 124 0
-6.158808 6.158808 33.517320 123 123 123 0
-6.093032 6.175370 33.607458 128 128 128 0
-6.018286 6.183171 33.649909 126 126 126 0
-5.939389 6.186863 33.670004 128 128 128 0
-5.862927 6.193233 33.704669 128 128 128 0
-5.786740 6.200079 33.741925 130 130 130 0
-5.715904 6.212939 33.811912 133 133 133 0
-5.633338 6.213240 33.813554 132 132 132 0
-5.553767 6.216904 33.833490 126 126 126 0
-5.478138 6.225157 33.878406 127 127 127 0
-5.403597 6.234919 33.931534 124 124 124 0
-5.329405 6.245396 33.988549 119 119 119 0
-5.258745 6.260411 34.070265 112 112 112 0
-5.184148 6.271147 34.128691 112 112 112 0
-4.660169 5.729717 31.182131 116 116 116 0
-5.037887 6.297358 34.271337 114 114 114 0
-4.964665 6.311015 34.345661 113 113 113 0
-4.892031 6.325902 34.426679 116 116 116 0
-4.815987 6.336825 34.486125 117 117 117 0
-4.738525 6.346239 34.537355 114 114 114 0
-4.667267 6.364455 34.636491 117 117 117 0
-4.593652 6.380072 34.721481 117 117 117 0
-4.514722 6.388758 34.768749 119 119 119 0
-4.437288 6.399934 34.829573 120 120 120 0
-4.356680 6.406882 34.867383 118 118 118 0
-4.281245 6.421868 34.948940 119 119 119 0
-4.200445 6.429253 34.989131 121 121 121 0
-4.122093 6.440771 35.051815 120 120 120 0
-4.043793 6.452860 35.117608 120 120 120 0
-3.965728 6.465861 35.188361 124 124 124 0
-3.880570 6.467616 35.197911 122 122 122 0
-3.799346 6.476158 35.244395 126 126 126 0
-3.717485 6.483985 35.286993 123 123 123 0
-3.638288 6.496942 35.357509 128 128 128 0
-3.553561 6.500417 35.376416 128 128 128 0
-3.465878 6.498522 35.366105 127 127 127 0
-3.388938 6.517188 35.467690 129 129 129 0
-3.305323 6.523664 35.502935 128 128 128 0
-3.220640 6.528324 35.528294 125 125 125 0
-3.133298 6.527703 35.524915 126 126 126 0
-3.050432 6.536640 35.573553 130 130 130 0
-2.970609 6.552814 35.661575 124 124 124 0
-2.881106 6.547968 35.635200 130 130 130 0
-2.795966 6.553044 35.662826 128 128 128 0
-2.712520 6.562548 35.714545 127 127 127 0
-2.629443 6.573607 35.774731 126 126 126 0
-2.542118 6.574444 35.779288 128 128 128 0
-2.456189 6.579077 35.804501 128 128 128 0
-2.370788 6.585522 35.839576 125 125 125 0
-2.286818 6.596590 35.899811 130 130 130 0
-2.199205 6.597616 35.905395 129 129 129 0
-2.113461 6.604565 35.943212 126 126 126 0
-2.028370 6.614249 35.995911 126 126 126 0
-1.942878 6.623448 36.045978 125 125 125 0
-1.855688 6.627455 36.067785 124 124 124 0
-1.770820 6.640575 36.139182 123 123 123 0
-1.684004 6.647382 36.176231 119 119 119 0
-1.597098 6.654577 36.215385 120 120 120 0
-1.511362 6.667775 36.287211 119 119 119 0
-1.275333 5.978124 32.534006 120 120 120 0
-1.338382 6.691910 36.418557 118 118 118 0
-1.248985 6.690990 36.413552 119 119 119 0
-1.162111 6.704484 36.486990 119 119 119 0
-1.076790 6.729936 36.625503 123 123 123 0
-0.987008 6.729601 36.623681 123 123 123 0
-0.897671 6.732531 36.639623 123 123 123 0
-0.809422 6.745183 36.708478 122 122 122 0
-0.720165 6.751547 36.743113 124 124 124 0
-0.630488 6.755232 36.763169 126 126 126 0
-0.540834 6.760427 36.791441 123 123 123 0
-0.451313 6.769697 36.841891 128 128 128 0
-0.361671 6.781323 36.905162 125 125 125 0
-0.271291 6.782267 36.910298 127 127 127 0
-0.181118 6.791943 36.962953 126 126 126 0
-0.090639 6.797936 36.995572 128 128 128 0
0.000000 6.800707 37.010652 130 130 130 0
0.090773 6.807945 37.050039 125 125 125 0
0.181831 6.818651 37.108304 127 127 127 0
0.272471 6.811784 37.070932 129 129 129 0
0.363671 6.818839 37.109327 125 125 125 0
0.455410 6.831145 37.176301 128 128 128 0
0.546755 6.834439 37.194225 127 127 127 0
0.638238 6.838262 37.215033 128 128 128 0
0.729041 6.834757 37.195954 124 124 124 0
0.822800 6.856670 37.315213 127 127 127 0
0.913828 6.853713 37.299119 125 125 125 0
1.004868 6.851370 37.286370 124 124 124 0
1.098130 6.863315 37.351374 125 125 125 0
1.192316 6.878744 37.435342 126 126 126 0
1.282050 6.868125 37.377550 127 127 127 0
1.373465 6.867324 37.373192 125 125 125 0
1.466739 6.875341 37.416823 126 126 126 0
1.559812 6.881525 37.450476 124 124 124 0
1.650191 6.875797 37.419306 122 122 122 0
1.743544 6.882409 37.455289 124 124 124 0
1.838148 6.893054 37.513219 125 125 125 0
1.930826 6.895806 37.528196 122 122 122 0
2.022514 6.894933 37.523443 123 123 123 0
2.115828 6.899440 37.547972 120 120 120 0
2.209015 6.903171 37.568280 122 122 122 0
2.300873 6.902619 37.565276 123 123 123 0
2.395102 6.908949 37.599724 123 123 123 0
2.485965 6.905459 37.580727 124 124 124 0
2.583745 6.920746 37.663924 120 120 120 0
2.670010 6.905199 37.579316 119 119 119 0
2.766062 6.915155 37.633498 121 121 121 0
2.864960 6.931355 37.721661 119 119 119 0
2.959006 6.935171 37.742425 121 121 121 0
3.048842 6.929186 37.709858 122 122 122 0
3.145849 6.939373 37.765293 117 117 117 0
3.241496 6.946063 37.801705 119 119 119 0
3.332130 6.941937 37.779251 118 118 118 0
3.424093 6.940729 37.772675 119 119 119 0
3.522664 6.952627 37.837427 119 119 119 0
3.619606 6.960782 37.881805 115 115 115 0
3.711858 6.959734 37.876104 116 116 116 0
3.809746 6.969048 37.926793 117 117 117 0
3.902430 6.968626 37.924493 118 118 118 0
3.993946 6.966184 37.911207 118 118 118 0
4.092062 6.975106 37.959763 117 117 117 0
4.196170 6.993617 38.060501 116 116 116 0
4.291625 6.997214 38.080078 114 114 114 0
4.382573 6.993467 38.059686 117 117 117 0
4.484915 7.007679 38.137029 120 120 120 0
4.573480 7.000225 38.096462 116 116 116 0
4.668095 7.002142 38.106896 114 114 114 0
4.775600 7.022941 38.220088 118 118 118 0
4.867509 7.020445 38.206504 119 119 119 0
4.960104 7.019014 38.198718 118 118 118 0
5.055208 7.021122 38.210189 118 118 118 0
5.155520 7.030255 38.259890 118 118 118 0
5.257615 7.041449 38.320811 118 118 118 0
5.339447 7.025588 38.234492 116 116 116 0
5.439590 7.033953 38.280017 120 120 120 0
5.542994 7.046179 38.346550 116 116 116 0
5.637289 7.046612 38.348908 118 118 118 0
5.735012 7.051245 38.374120 119 119 119 0
5.839748 7.064211 38.444686 119 119 119 0
5.937216 7.068115 38.465930 118 118 118 0
6.028415 7.064549 38.446525 118 118 118 0
6.131737 7.075081 38.503844 118 118 118 0
6.231108 7.080804 38.534988 120 120 120 0
6.330963 7.086899 38.568160 119 119 119 0
6.488550 7.156489 38.946878 120 120 120 0
6.436924 6.996656 38.077042 121 121 121 0
6.833718 7.321841 39.846753 120 120 120 0
6.931774 7.322296 39.849231 122 122 122 0
7.343260 7.649229 41.628456 121 121 121 0
7.128151 7.323442 39.855469 121 121 121 0
7.710880 7.815081 42.531054 121 121 121 0
7.323705 7.323705 39.856896 119 119 119 0
8.088688 7.982258 43.440861 118 118 118 0
8.028239 7.819713 42.556263 119 119 119 0
7.430438 7.144652 38.882461 119 119 119 0
8.585141 8.150450 44.356192 119 119 119 0
-6.534628 6.207897 33.339940 118 118 118 0
-6.464017 6.218548 33.397142 121 121 121 0
-6.394948 6.230975 33.463883 121 121 121 0
-6.325241 6.243095 33.528972 121 121 121 0
-6.247274 6.247274 33.551417 123 123 123 0
-6.167466 6.249699 33.564442 123 123 123 0
-6.098900 6.263735 33.639823 127 127 127 0
-6.027133 6.274823 33.699373 126 126 126 0
-5.948579 6.279056 33.722103 129 129 129 0
-5.868268 6.281527 33.735374 131 131 131 0
-5.792868 6.289400 33.777659 131 131 131 0
-5.719645 6.299899 33.834044 131 131 131 0
-5.641885 6.305636 33.864856 134 134 134 0
-5.557672 6.304225 33.857277 132 132 132 0
-5.488669 6.320285 33.943529 125 125 125 0
-5.409799 6.325304 33.970483 117 117 117 0
-5.334785 6.335057 34.022864 114 114 114 0
-5.262893 6.348886 34.097134 112 112 112 0
-5.191758 6.364091 34.178792 114 114 114 0
-5.122365 6.381963 34.274772 113 113 113 0
-5.045167 6.390545 34.320865 112 112 112 0
-4.533722 5.840049 31.364386 117 116 117 0
-4.899605 6.420173 34.479982 116 116 116 0
-4.826859 6.435812 34.563977 116 116 116 0
-4.748515 6.444414 34.610169 115 115 115 0
-4.672178 6.456101 34.672935 118 118 118 0
-4.597323 6.470306 34.749226 116 116 116 0
-4.521901 6.484235 34.824034 116 116 116 0
-4.443371 6.494158 34.877324 117 117 117 0
-4.364639 6.504168 34.931083 118 118 118 0
-4.287087 6.516372 34.996625 122 122 122 0
-4.207225 6.525492 35.045609 118 118 118 0
-4.128051 6.536081 35.102474 119 119 119 0
-4.048439 6.546412 35.157959 120 120 120 0
-3.970151 6.559380 35.227605 121 121 121 0
-3.886701 6.564207 35.253526 127 127 127 0
-3.803452 6.569599 35.282487 129 129 129 0
-3.724625 6.583058 35.354771 124 124 124 0
-3.642611 6.591392 35.399525 128 128 128 0
-3.558715 6.596643 35.427726 127 127 127 0
-3.471585 6.596011 35.424334 129 129 129 0
-3.390643 6.607407 35.485537 128 128 128 0
-3.312012 6.624024 35.574777 129 129 129 0
-3.224355 6.623000 35.569279 126 126 126 0
-3.138321 6.625344 35.581871 128 128 128 0
-3.056110 6.636124 35.639761 128 128 128 0
-2.974742 6.649422 35.711184 128 128 128 0
-2.886651 6.648044 35.703781 128 128 128 0
-2.800602 6.651431 35.721970 129 129 129 0
-2.716632 6.660131 35.768695 127 127 127 0
-2.632974 6.670201 35.822777 131 131 131 0
-2.545003 6.669663 35.819885 128 128 128 0
-2.457168 6.669456 35.818773 128 128 128 0
-2.373126 6.679910 35.874919 132 132 132 0
-2.288183 6.688535 35.921241 127 127 127 0
-2.202406 6.695314 35.957648 125 125 125 0
-2.116350 6.701775 35.992345 125 125 125 0
-2.031824 6.713854 36.057218 125 125 125 0
-1.945938 6.722330 36.102738 124 124 124 0
-1.858124 6.724641 36.115149 120 120 120 0
-1.773535 6.739433 36.194590 121 121 121 0
-1.686574 6.746295 36.231443 120 120 120 0
-1.600490 6.757626 36.292300 119 119 119 0
-1.512963 6.763834 36.325641 118 118 118 0
-1.428582 6.785766 36.443424 117 117 117 0
-1.339869 6.788672 36.459031 118 118 118 0
-1.251011 6.791203 36.472626 119 119 119 0
-1.165129 6.811521 36.581746 120 120 120 0
-1.077742 6.825700 36.657897 122 122 122 0
-0.988129 6.827072 36.665264 121 121 121 0
-0.899227 6.834124 36.703137 121 121 121 0
-0.810231 6.841948 36.745157 124 124 124 0
-0.721562 6.854842 36.814403 127 127 127 0
-0.631319 6.854322 36.811610 125 125 125 0
-0.542045 6.865898 36.873781 124 124 124 0
-0.452207 6.873548 36.914868 125 125 125 0
-0.362206 6.881921 36.959831 126 126 126 0
-0.271665 6.882191 36.961285 128 128 128 0
-0.181397 6.893080 37.019763 126 126 126 0
-0.090796 6.900521 37.059727 128 128 128 0
0.000000 6.903962 37.078208 127 127 127 0
0.090857 6.905116 37.084406 126 126 126 0
0.181944 6.913858 37.131351 126 126 126 0
0.273155 6.919925 37.163938 127 127 127 0
0.364141 6.918674 37.157216 126 126 126 0
0.456042 6.931845 37.227953 129 129 129 0
0.547720 6.937788 37.259873 128 128 128 0
0.638547 6.932795 37.233055 124 124 124 0
0.730715 6.941793 37.281378 125 125 125 0
0.823304 6.952344 37.338044 126 126 126 0
0.915264 6.956003 37.357696 128 128 128 0
1.006053 6.950910 37.330344 126 126 126 0
1.099431 6.963062 37.395609 126 126 126 0
1.193456 6.977126 37.471139 124 124 124 0
1.284624 6.973671 37.452584 128 128 128 0
1.374888 6.966101 37.411930 126 126 126 0
1.470183 6.983367 37.504657 124 124 124 0
1.563715 6.990725 37.544171 122 122 122 0
1.654443 6.985426 37.515714 127 127 127 0
1.745694 6.982776 37.501483 124 124 124 0
1.843433 7.005047 37.621091 123 123 123 0
1.935104 7.003235 37.611359 123 123 123 0
2.026456 7.000486 37.596595 124 124 124 0
2.119829 7.004653 37.618976 123 123 123 0
2.215272 7.015027 37.674690 122 122 122 0
2.305495 7.008704 37.640732 121 121 121 0
2.399442 7.013754 37.667853 122 122 122 0
2.493770 7.019502 37.698721 122 122 122 0
2.588883 7.026967 37.738812 122 122 122 0
2.678808 7.020324 37.703135 119 119 119 0
2.775629 7.031593 37.763659 120 120 120 0
2.869964 7.036040 37.787541 120 120 120 0
2.966791 7.046129 37.841725 119 119 119 0
3.059254 7.045555 37.838639 120 120 120 0
3.156064 7.054731 37.887922 118 117 118 0
3.249426 7.055897 37.894184 119 119 119 0
3.338578 7.048108 37.852353 122 122 122 0
3.436341 7.058431 37.907793 121 121 121 0
3.532007 7.064015 37.937782 122 122 122 0
3.628459 7.070843 37.974451 119 119 119 0
3.720127 7.068242 37.960483 117 117 117 0
3.823298 7.087090 38.061706 117 117 117 0
3.913543 7.081649 38.032489 118 118 118 0
4.011689 7.090426 38.079625 119 119 119 0
4.103337 7.087582 38.064349 117 117 117 0
4.206703 7.104653 38.156033 119 119 119 0
4.303099 7.109468 38.181893 120 120 120 0
4.398446 7.112380 38.197530 121 121 121 0
4.493161 7.114171 38.207149 120 120 120 0
4.582725 7.107900 38.173470 119 119 119 0
4.684126 7.119871 38.237763 120 120 120 0
4.786534 7.132874 38.307596 122 122 122 0
4.878388 7.129952 38.291900 119 119 119 0
4.975652 7.134898 38.318464 119 119 119 0
5.065594 7.129355 38.288695 118 118 118 0
5.170592 7.144818 38.371738 119 119 119 0
5.260543 7.139308 38.342147 119 119 119 0
5.355325 7.140433 38.348191 120 120 120 0
5.459837 7.154269 38.422497 117 117 117 0
5.564817 7.168239 38.497522 118 118 118 0
5.642787 7.147530 38.386306 121 121 121 0
5.754508 7.169551 38.504568 117 117 117 0
5.843138 7.162556 38.467004 118 118 118 0
5.949807 7.177545 38.547505 119 119 119 0
6.044637 7.178007 38.549982 120 120 120 0
6.147432 7.187767 38.602401 121 120 121 0
6.299642 7.254133 38.958822 120 120 120 0
6.347140 7.199740 38.666705 120 120 120 0
6.490874 7.254506 38.960827 120 120 120 0
6.587774 7.256099 38.969382 120 120 120 0
6.835616 7.421525 39.857817 118 118 118 0
6.932772 7.420995 39.854969 121 121 121 0
6.876025 7.258027 38.979735 118 118 118 0
7.288937 7.588482 40.754470 119 119 119 0
6.746190 6.928519 37.210094 118 117 118 0
7.654336 7.756394 41.656249 119 119 119 0
8.089449 8.089449 43.444948 121 121 121 0
8.199548 8.093061 43.464344 122 122 122 0
