ply
format ascii 1.0
element vertex 1133
property float x
property float y
property float z
property uchar red
property uchar green
property uchar blue
property uchar alpha
end_header
-0.473587 1.262899 32.216807 126 126 126 0
-0.396181 1.267779 32.341311 124 124 124 0
-0.317348 1.269394 32.382489 122 122 122 0
-0.237919 1.268903 32.369978 123 123 123 0
-0.158948 1.271584 32.438367 123 123 123 0
-0.079706 1.275298 32.533107 124 124 124 0
0.000000 1.278027 32.602737 122 122 122 0
0.079901 1.278421 32.612770 119 119 119 0
0.159910 1.279281 32.634710 117 117 117 0
0.240409 1.282184 32.708773 117 117 117 0
0.321315 1.285261 32.787267 126 126 126 0
0.402258 1.287227 32.837421 137 137 137 0
0.483386 1.289029 32.883384 149 149 149 0
0.564481 1.290242 32.914339 158 158 158 0
0.645362 1.290724 32.926641 162 162 162 0
0.725497 1.289773 32.902369 161 161 161 0
0.804762 1.287619 32.847413 159 159 159 0
0.885615 1.288167 32.861410 151 151 151 0
0.966334 1.288445 32.868490 144 144 144 0
1.046819 1.288392 32.867150 142 142 142 0
1.127096 1.288109 32.859932 140 140 140 0
1.209352 1.289975 32.907526 139 139 139 0
1.290882 1.290882 32.930666 135 135 135 0
1.371709 1.291020 32.934190 134 134 134 0
1.453527 1.292024 32.959789 135 135 135 0
1.535889 1.293380 32.994397 131 131 131 0
1.618269 1.294615 33.025894 128 128 128 0
1.700186 1.295380 33.045396 123 123 123 0
1.784659 1.297934 33.110555 120 120 120 0
1.868057 1.299518 33.150966 120 120 120 0
1.950363 1.300242 33.169435 118 118 118 0
2.033803 1.301634 33.204948 118 118 118 0
2.122176 1.305954 33.315158 115 115 115 0
2.208405 1.308685 33.384811 111 111 111 0
2.292086 1.309763 33.412327 110 110 110 0
2.378167 1.312092 33.471731 109 109 109 0
2.464431 1.314363 33.529667 104 104 104 0
2.558418 1.320474 33.685551 100 100 100 0
2.643044 1.321522 33.712299 101 101 101 0
2.348749 1.138787 29.050701 96 96 96 0
2.427678 1.142437 29.143790 93 93 93 0
2.495239 1.140681 29.098995 89 89 89 0
2.589131 1.150725 29.355223 83 83 83 0
2.602286 1.125313 28.706961 85 85 85 0
2.719466 1.145038 29.210161 78 78 78 0
2.897823 1.188851 30.327820 61 61 61 0
2.976086 1.190434 30.368223 62 62 62 0
3.642321 1.421394 36.260039 120 120 120 0
3.735679 1.423116 36.303972 141 141 141 0
3.833081 1.426263 36.384257 145 145 145 0
3.916840 1.424305 36.334321 145 145 145 0
4.002432 1.423087 36.303236 139 139 139 0
4.104315 1.427588 36.418059 142 142 142 0
4.193881 1.427704 36.421028 141 141 141 0
4.277425 1.425808 36.372659 140 140 140 0
4.367979 1.426279 36.384667 144 144 144 0
4.466613 1.429316 36.462143 144 144 144 0
4.551960 1.428066 36.430255 142 142 142 0
4.638175 1.427131 36.406401 140 140 140 0
4.726864 1.426978 36.402492 138 138 138 0
4.831027 1.431415 36.515701 143 143 143 0
4.906039 1.427211 36.408452 145 145 145 0
4.997991 1.427998 36.428509 138 138 138 0
5.094290 1.429976 36.478981 136 136 136 0
5.171335 1.426575 36.392223 138 138 138 0
5.254189 1.424865 36.348590 137 137 137 0
5.353724 1.427660 36.419889 141 141 141 0
5.485806 1.438900 36.706633 146 146 146 0
5.577890 1.439455 36.720803 158 158 158 0
5.665073 1.438749 36.702770 161 161 161 0
5.753030 1.438257 36.690241 162 162 162 0
5.470538 1.346594 34.351887 159 159 159 0
5.950803 1.442619 36.801506 159 159 159 0
6.021353 1.437935 36.682014 151 151 151 0
6.300900 1.482565 37.820529 144 144 144 0
6.185254 1.434262 36.588313 143 143 143 0
6.790819 1.552187 39.596614 138 138 138 0
6.272266 1.413468 36.057865 140 140 140 0
7.139841 1.586631 40.475290 139 139 139 0
6.526330 1.430428 36.490521 136 136 136 0
7.338000 1.586595 40.474351 137 137 137 0
7.766535 1.656861 42.266857 132 132 132 0
7.538285 1.587007 40.484881 128 128 128 0
8.140877 1.691611 43.153335 129 129 129 0
8.421322 1.727451 44.067620 127 127 127 0
8.008719 1.622019 41.378038 127 126 127 0
-5.713320 1.214081 29.149592 102 102 102 0
-5.673184 1.220812 29.311205 99 99 99 0
-5.628632 1.226753 29.453859 95 95 95 0
-5.561191 1.227796 29.478884 86 86 86 0
-5.552720 1.242056 29.821269 96 96 96 0
-5.464873 1.238705 29.740805 110 110 110 0
-5.423107 1.245849 29.912338 101 101 101 0
-5.387154 1.254543 30.121071 97 97 97 0
-5.307748 1.253218 30.089273 100 100 100 0
-5.269589 1.261733 30.293699 96 96 96 0
-5.402889 1.312130 31.503724 104 104 104 0
-5.153694 1.269751 30.486209 114 114 114 0
-5.059382 1.264845 30.368438 113 113 113 0
-5.026275 1.275324 30.620013 118 118 118 0
-4.950267 1.275069 30.613893 103 103 103 0
-5.382440 1.407715 33.798678 96 96 96 0
-5.319072 1.412878 33.922653 89 89 89 0
-5.222262 1.409182 33.833898 84 84 84 0
-5.241371 1.437150 34.505407 95 95 95 0
-5.242743 1.461092 35.080245 152 152 152 0
-5.147600 1.458487 35.017690 159 159 159 0
-5.057470 1.457237 34.987686 158 158 158 0
-4.971634 1.457203 34.986868 161 161 161 0
-4.893585 1.459490 35.041781 164 164 164 0
-4.812594 1.460966 35.077217 170 170 170 0
-4.731738 1.462537 35.114940 168 168 168 0
-4.638200 1.460174 35.058200 165 165 165 0
-4.487107 1.439261 34.556078 157 157 157 0
-4.306480 1.407888 33.802826 148 148 148 0
-4.200894 1.400298 33.620600 140 140 140 0
-4.099722 1.393906 33.467122 145 145 145 0
-3.997054 1.386733 33.294914 139 139 139 0
-3.901101 1.381640 33.172624 140 140 140 0
-3.800547 1.374666 33.005181 142 142 142 0
-3.696470 1.366087 32.799201 143 143 143 0
-3.600835 1.360316 32.660639 138 138 138 0
-3.511830 1.356844 32.577275 141 141 141 0
-3.420436 1.352265 32.467356 137 137 137 0
-3.333187 1.349147 32.392486 140 140 140 0
-3.251224 1.348069 32.366591 141 141 141 0
-3.166021 1.345559 32.306340 140 140 140 0
-3.079269 1.342245 32.226780 143 143 143 0
-2.999568 1.341912 32.218772 143 143 143 0
-2.918886 1.341110 32.199514 145 145 145 0
-2.835652 1.339058 32.150250 148 148 148 0
-2.754012 1.337663 32.116761 148 148 148 0
-2.673465 1.336732 32.094415 148 148 148 0
-2.594684 1.336656 32.092570 149 149 149 0
-2.512876 1.334965 32.051990 150 150 150 0
-2.433497 1.334498 32.040778 153 153 153 0
-2.353751 1.333792 32.023823 151 151 151 0
-2.273714 1.332867 32.001608 154 154 154 0
-2.193093 1.331521 31.969288 153 153 153 0
-2.113952 1.331007 31.956941 153 153 153 0
-2.035569 1.330949 31.955558 154 154 154 0
-1.955867 1.329990 31.932523 152 152 152 0
-1.879086 1.331019 31.957245 151 151 151 0
-1.799588 1.330130 31.935903 149 149 149 0
-1.721004 1.329867 31.929570 148 148 148 0
-1.643022 1.330065 31.934345 148 148 148 0
-1.565583 1.330746 31.950676 145 145 145 0
-1.487675 1.331078 31.958650 146 146 146 0
-1.408977 1.330700 31.949588 143 143 143 0
-1.331615 1.331615 31.971554 142 142 142 0
-1.254770 1.333193 32.009432 142 142 142 0
-1.176183 1.333007 32.004969 140 140 140 0
-1.098555 1.333959 32.027830 139 139 139 0
-1.020914 1.335041 32.053809 140 140 140 0
-0.942809 1.335647 32.068344 137 137 137 0
-0.864400 1.335890 32.074201 136 136 136 0
-0.787251 1.338326 32.132686 132 132 132 0
-0.709684 1.340515 32.185231 131 131 131 0
-0.630715 1.340270 32.179355 131 131 131 0
-0.552560 1.341932 32.219267 128 128 128 0
-0.473973 1.342925 32.243092 125 125 125 0
-0.396265 1.347302 32.348193 123 123 123 0
-0.317479 1.349284 32.395776 123 123 123 0
-0.238170 1.349632 32.404123 120 120 120 0
-0.159062 1.352027 32.461630 122 122 122 0
-0.079704 1.354960 32.532045 124 124 124 0
0.000000 1.357573 32.594794 124 124 124 0
0.079953 1.359195 32.633732 118 118 118 0
0.160024 1.360203 32.657941 119 119 119 0
0.240319 1.361807 32.696457 119 119 119 0
0.321250 1.365311 32.780582 127 127 127 0
0.402064 1.367018 32.821556 136 136 136 0
0.483396 1.369623 32.884113 148 148 148 0
0.564310 1.370468 32.904400 156 156 156 0
0.645218 1.371088 32.919288 157 157 157 0
0.725707 1.370780 32.911897 156 156 156 0
0.805293 1.368998 32.869104 150 150 150 0
0.885775 1.368924 32.867330 147 147 147 0
0.966891 1.369762 32.887434 142 142 142 0
1.047289 1.369532 32.881915 138 138 138 0
1.127868 1.369555 32.882463 137 138 138 0
1.210617 1.372033 32.941969 135 135 135 0
1.291913 1.372658 32.956967 133 133 133 0
1.372675 1.372675 32.957392 130 130 130 0
1.453810 1.373043 32.966216 131 131 131 0
1.537455 1.375617 33.028031 129 129 129 0
1.619541 1.376610 33.051862 126 126 126 0
1.701437 1.377354 33.069719 122 122 122 0
1.786920 1.380802 33.152507 121 121 121 0
1.870107 1.382253 33.187349 118 118 118 0
1.951719 1.382468 33.192506 117 117 117 0
2.036888 1.385084 33.255318 115 115 115 0
2.124004 1.388772 33.343868 112 112 112 0
2.211692 1.392547 33.434497 109 109 109 0
2.292456 1.391848 33.417722 107 107 107 0
2.382618 1.396707 33.534388 104 104 104 0
2.125528 1.204466 28.918750 102 102 102 0
2.568631 1.408604 33.820022 99 99 99 0
2.265960 1.203791 28.902548 96 96 96 0
2.354098 1.212717 29.116854 93 93 93 0
2.441383 1.220692 29.308320 94 94 94 0
2.525155 1.226504 29.447876 92 92 92 0
2.566962 1.212177 29.103881 87 87 87 0
2.676410 1.229702 29.524657 83 83 83 0
2.998549 1.341456 32.207825 65 65 65 0
2.873413 1.252514 30.072353 63 63 63 0
3.012684 1.280391 30.741669 87 87 87 0
3.642912 1.510476 36.265919 136 136 136 0
3.740227 1.513901 36.348169 142 142 142 0
3.826030 1.512616 36.317322 147 147 147 0
3.913601 1.512073 36.304280 142 142 142 0
3.998232 1.510443 36.265143 139 139 139 0
4.099286 1.514954 36.373436 141 141 141 0
4.192911 1.516585 36.412604 143 143 143 0
4.276953 1.514754 36.368645 142 142 142 0
4.361475 1.513165 36.330489 141 141 141 0
4.461769 1.517002 36.422606 145 145 145 0
4.546251 1.515417 36.384564 146 146 146 0
4.636591 1.515808 36.393961 143 143 143 0
4.722448 1.514748 36.368488 144 144 144 0
4.316822 1.358999 32.629039 141 141 141 0
4.903423 1.515603 36.389036 140 140 140 0
4.994424 1.516165 36.402510 139 139 139 0
5.085350 1.516683 36.414963 138 138 138 0
5.171211 1.515700 36.391354 138 138 138 0
5.248939 1.512406 36.312271 137 137 137 0
5.332345 1.510831 36.274456 137 137 137 0
5.437787 1.515449 36.385323 139 139 139 0
5.556385 1.523525 36.579230 142 142 142 0
5.701452 1.538487 36.938466 148 148 148 0
5.738669 1.524334 36.598656 153 153 153 0
5.746295 1.502877 36.083484 154 154 154 0
5.929209 1.527220 36.667958 157 157 157 0
6.210964 1.575916 37.837123 156 156 156 0
6.595566 1.648892 39.589232 161 161 161 0
6.693957 1.649236 39.597498 150 150 150 0
6.036898 1.466104 35.200573 148 148 148 0
6.888934 1.649463 39.602953 143 143 143 0
6.445746 1.521912 36.540509 143 143 143 0
6.541190 1.523291 36.573610 138 138 138 0
6.625715 1.522124 36.545586 134 134 134 0
7.765218 1.760116 42.259690 137 137 137 0
6.785213 1.517745 36.440458 131 131 131 0
8.316239 1.836053 44.082900 131 131 131 0
8.424415 1.836090 44.083804 131 131 131 0
8.359916 1.798969 43.192542 127 127 127 0
-5.728782 1.288976 29.228480 100 100 100 0
-5.675257 1.293097 29.321917 97 97 97 0
-5.576249 1.286827 29.179745 98 98 98 0
-5.631404 1.316432 29.851070 99 99 99 0
-5.542850 1.312780 29.768259 100 100 100 0
-5.471415 1.313139 29.776406 98 98 98 0
-5.420595 1.318523 29.898483 103 103 103 0
-5.371316 1.324434 30.032518 99 99 99 0
-5.194792 1.298698 29.448932 93 93 93 0
-5.150020 1.305639 29.606323 99 99 99 0
-5.033574 1.294348 29.350288 109 109 109 0
-5.049392 1.317233 29.869221 108 108 108 0
-5.107252 1.351920 30.655772 110 110 110 0
-5.037107 1.353253 30.686001 125 125 125 0
-4.997277 1.362894 30.904623 112 112 112 0
-4.956005 1.372432 31.120910 103 103 103 0
-5.238753 1.473399 33.410416 87 87 87 0
-4.792417 1.369262 31.049025 82 82 82 0
-5.285299 1.534442 34.794596 114 114 114 0
-5.234059 1.544476 35.022140 158 157 157 0
-5.145635 1.543691 35.004322 158 158 158 0
-5.057943 1.543101 34.990958 159 159 159 0
-4.968548 1.541963 34.965150 157 157 157 0
-4.884032 1.542326 34.973375 161 161 161 0
-4.803165 1.543874 35.008489 166 166 166 0
-4.724081 1.546063 35.058118 164 164 164 0
-4.637203 1.545734 35.050669 163 163 163 0
-4.537712 1.541110 34.945802 162 162 162 0
-4.359782 1.509155 34.221209 152 152 152 0
-4.215210 1.487721 33.735173 143 143 143 0
-4.109428 1.479394 33.546355 145 145 145 0
-4.008561 1.472533 33.390760 142 142 142 0
-3.909064 1.465899 33.240339 142 142 142 0
-3.816160 1.461508 33.140774 143 143 143 0
-3.718231 1.454960 32.992291 141 141 141 0
-3.612916 1.445166 32.770214 140 140 140 0
-3.522587 1.441058 32.677055 139 139 139 0
-3.431791 1.436564 32.575137 139 139 139 0
-3.340334 1.431572 32.461942 138 138 138 0
-3.258062 1.430369 32.434662 140 140 140 0
-3.172962 1.427833 32.377168 143 143 143 0
-3.086890 1.424718 32.306542 142 142 142 0
-3.004390 1.423132 32.270574 142 142 142 0
-2.926400 1.423654 32.282408 144 144 144 0
-2.840534 1.420267 32.205603 141 141 141 0
-2.754287 1.416490 32.119960 142 142 142 0
-2.676855 1.417158 32.135111 149 149 149 0
-2.597467 1.416800 32.126993 151 151 151 0
-2.514974 1.414673 32.078753 150 150 150 0
-2.435812 1.414342 32.071256 150 150 150 0
-2.354305 1.412583 32.031361 150 150 150 0
-2.275501 1.412380 32.026762 150 150 150 0
-2.196140 1.411804 32.013705 153 153 153 0
-2.116041 1.410694 31.988533 151 151 151 0
-2.035805 1.409403 31.959261 153 153 153 0
-1.957730 1.409566 31.962940 152 152 152 0
-1.879957 1.409968 31.972054 153 153 153 0
-1.800865 1.409373 31.958569 154 154 154 0
-1.721428 1.408441 31.937432 150 150 150 0
-1.643909 1.409064 31.951575 149 149 149 0
-1.565971 1.409374 31.958593 147 147 147 0
-1.488738 1.410384 31.981488 144 144 144 0
-1.410600 1.410600 31.986385 144 144 144 0
-1.333265 1.411692 32.011165 142 142 142 0
-1.255334 1.412250 32.023819 142 142 142 0
-1.176901 1.412282 32.024530 140 140 140 0
-1.099394 1.413506 32.052299 140 140 140 0
-1.021643 1.414582 32.076698 140 140 140 0
-0.943413 1.415120 32.088887 137 137 137 0
-0.865401 1.416110 32.111346 138 138 138 0
-0.787872 1.418170 32.158047 134 134 134 0
-0.710190 1.420381 32.208179 131 131 131 0
-0.631308 1.420443 32.209602 130 130 130 0
-0.552577 1.420911 32.220214 126 126 126 0
-0.474579 1.423736 32.284267 123 123 123 0
-0.396379 1.426966 32.357506 123 123 123 0
-0.317710 1.429696 32.419409 121 121 121 0
-0.238290 1.429739 32.420385 121 121 121 0
-0.159208 1.432871 32.491409 122 122 122 0
-0.079789 1.436195 32.566787 122 122 122 0
0.000000 1.439464 32.640916 124 124 124 0
0.080082 1.441480 32.686623 123 123 123 0
0.160145 1.441309 32.682746 119 119 119 0
0.240771 1.444624 32.757922 119 119 119 0
0.321778 1.448003 32.834537 126 126 126 0
0.402387 1.448593 32.847925 136 136 136 0
0.483385 1.450155 32.883326 140 140 140 0
0.564358 1.451207 32.907192 149 149 149 0
0.645795 1.453038 32.948718 150 150 150 0
0.726026 1.452052 32.926344 148 148 148 0
0.805217 1.449391 32.866008 146 146 146 0
0.886640 1.450866 32.899458 141 141 141 0
0.967408 1.451112 32.905032 139 139 139 0
1.048112 1.451231 32.907741 136 136 136 0
1.128862 1.451394 32.911421 133 133 133 0
1.211777 1.454133 32.973531 132 132 132 0
1.293172 1.454819 32.989093 129 129 129 0
1.374152 1.454984 32.992841 128 128 128 0
1.457125 1.457125 33.041375 126 126 126 0
1.539625 1.458592 33.074656 125 125 125 0
1.622381 1.460143 33.109826 124 124 124 0
1.703458 1.460107 33.108997 121 121 121 0
1.789946 1.464501 33.208649 122 122 122 0
1.873881 1.466515 33.254318 119 119 119 0
1.955646 1.466735 33.259288 117 117 117 0
2.041828 1.470116 33.335966 115 115 115 0
2.125942 1.471806 33.374280 113 113 113 0
2.215061 1.476707 33.485429 106 106 106 0
2.298226 1.477431 33.501831 101 101 101 0
2.390658 1.483857 33.647551 100 100 100 0
2.482528 1.489517 33.775896 99 99 99 0
2.201740 1.278430 28.989335 99 99 99 0
2.277297 1.280980 29.047156 94 94 94 0
2.366379 1.290752 29.268751 92 92 92 0
2.441960 1.292802 29.315248 92 92 92 0
2.532904 1.302636 29.538240 85 85 85 0
2.568662 1.284331 29.123154 87 87 87 0
2.676941 1.302296 29.530514 87 87 87 0
2.776920 1.315383 29.827278 73 73 73 0
2.994228 1.381951 31.336766 69 69 69 0
3.546826 1.596072 36.192104 121 121 121 0
3.643533 1.599600 36.272105 143 143 143 0
3.730930 1.598970 36.257827 143 143 143 0
3.825623 1.601424 36.313459 143 143 143 0
3.911012 1.599959 36.280261 141 141 141 0
3.996826 1.598730 36.252392 137 137 137 0
4.098823 1.603887 36.369330 143 143 143 0
4.187521 1.603731 36.365793 141 141 141 0
4.273343 1.602504 36.337951 142 142 142 0
4.358995 1.601264 36.309830 142 142 142 0
4.463733 1.606944 36.438638 144 144 144 0
3.970598 1.401387 31.777492 147 147 147 0
4.632791 1.603658 36.364136 142 142 142 0
4.717635 1.602216 36.331422 146 146 146 0
4.816308 1.605436 36.404441 146 146 146 0
4.896406 1.602460 36.336967 141 141 141 0
4.989463 1.603756 36.366347 140 140 140 0
4.793783 1.513826 34.327127 139 139 139 0
5.176619 1.606537 36.429409 139 139 139 0
5.252181 1.602360 36.334700 137 137 137 0
5.346688 1.604006 36.372027 140 140 140 0
5.386699 1.589518 36.043489 137 137 137 0
5.212082 1.513185 34.312587 134 134 134 0
5.616060 1.604589 36.385231 135 135 135 0
5.790984 1.628714 36.932298 143 143 143 0
5.823666 1.612707 36.569330 144 144 144 0
6.256613 1.706349 38.692723 144 144 144 0
6.207185 1.667602 37.814101 157 157 157 0
6.087253 1.611332 36.538131 157 157 157 0
6.184230 1.613277 36.582254 152 152 152 0
5.885951 1.513530 34.320415 154 154 154 0
6.349783 1.609804 36.503495 149 149 149 0
6.452573 1.613143 36.579209 145 145 145 0
6.552614 1.615713 36.637483 143 143 143 0
6.379067 1.551665 35.185146 139 139 139 0
7.603151 1.824756 41.377695 138 138 138 0
8.039571 1.904109 43.177071 134 134 134 0
8.147748 1.904668 43.189759 130 130 130 0
8.424334 1.944077 44.083382 135 135 135 0
8.362098 1.905288 43.203815 130 130 130 0
-5.726807 1.360117 29.218405 100 100 100 0
-5.674486 1.364750 29.317933 96 96 96 0
-5.636716 1.373046 29.496160 96 96 96 0
-5.571286 1.374733 29.532396 97 97 97 0
-5.532640 1.383160 29.713429 100 100 100 0
-5.483907 1.389257 29.844394 99 99 99 0
-5.437080 1.396007 29.989408 99 99 99 0
-5.365895 1.396603 30.002208 101 101 101 0
-5.433825 1.433926 30.803999 100 100 100 0
-5.256649 1.406709 30.219311 106 106 106 0
-5.104763 1.385579 29.765381 103 103 103 0
-5.051727 1.391055 29.883033 114 114 114 0
-5.499022 1.536491 33.007332 115 115 115 0
-5.053324 1.433032 30.784795 118 118 118 0
-5.024992 1.446589 31.076016 108 108 108 0
-5.276847 1.542463 33.135617 100 100 100 0
-5.267405 1.563761 33.593144 93 93 93 0
-5.154049 1.554396 33.391959 91 91 91 0
-5.304286 1.625507 34.919589 131 131 131 0
-5.223997 1.627147 34.954816 163 163 163 0
-5.139450 1.627492 34.962243 156 156 156 0
-5.049873 1.626230 34.935132 160 160 160 0
-4.963105 1.625845 34.926850 160 160 160 0
-4.881186 1.627062 34.952996 158 158 158 0
-4.795805 1.627148 34.954850 161 161 161 0
-4.717163 1.629565 35.006774 165 165 165 0
-4.633621 1.630348 35.023588 170 170 170 0
-4.543514 1.628807 34.990483 163 163 163 0
-4.432188 1.619453 34.789545 158 158 158 0
-4.249030 1.582972 34.005842 149 149 149 0
-4.122050 1.566379 33.649388 148 148 148 0
-4.023161 1.560001 33.512377 145 145 145 0
-3.923371 1.553001 33.361999 146 146 146 0
-3.824370 1.546022 33.212074 143 143 143 0
-3.728481 1.540025 33.083242 140 140 140 0
-3.629135 1.532301 32.917321 143 143 143 0
-3.536713 1.527217 32.808099 139 139 139 0
-3.443343 1.521477 32.684795 142 142 142 0
-3.349273 1.515147 32.548815 139 139 139 0
-3.266914 1.513936 32.522787 141 140 141 0
-3.183963 1.512383 32.489420 144 144 144 0
-3.095915 1.508267 32.400999 144 144 144 0
-3.010804 1.505402 32.339465 141 141 141 0
-2.929526 1.504351 32.316889 143 143 143 0
-2.847413 1.502801 32.283596 142 142 142 0
-2.763741 1.500316 32.230214 144 144 144 0
-2.681749 1.498624 32.193863 144 144 144 0
-2.601203 1.497662 32.173193 148 148 148 0
-2.517679 1.494872 32.113249 144 144 144 0
-2.437142 1.493732 32.088765 152 152 152 0
-2.358023 1.493414 32.081943 150 150 150 0
-2.280168 1.493903 32.092440 152 152 152 0
-2.198339 1.491730 32.045763 151 151 151 0
-2.118738 1.490964 32.029304 152 152 152 0
-2.037372 1.488848 31.983856 153 153 153 0
-1.958712 1.488621 31.978970 154 154 154 0
-1.879564 1.487988 31.965366 155 155 155 0
-1.801785 1.488431 31.974890 157 157 157 0
-1.723178 1.488199 31.969898 153 153 153 0
-1.645327 1.488629 31.979149 151 151 151 0
-1.567255 1.488892 31.984792 147 147 147 0
-1.489551 1.489551 31.998950 145 145 145 0
-1.411588 1.490010 32.008804 143 143 143 0
-1.333851 1.490775 32.025242 141 141 141 0
-1.256003 1.491504 32.040894 142 142 142 0
-1.177907 1.492015 32.051883 142 142 142 0
-1.100184 1.493107 32.075346 140 140 140 0
-1.022329 1.494174 32.098255 138 138 138 0
-0.944174 1.494942 32.114769 138 138 138 0
-0.865596 1.495120 32.118572 137 137 137 0
-0.787918 1.497045 32.159933 135 135 135 0
-0.710997 1.500993 32.244748 134 134 134 0
-0.631511 1.499838 32.219939 130 130 130 0
-0.553130 1.501352 32.252468 126 126 126 0
-0.474671 1.503125 32.290548 125 125 125 0
-0.396729 1.507569 32.386017 123 123 123 0
-0.317992 1.510460 32.448125 122 122 122 0
-0.238434 1.510080 32.439956 122 122 122 0
-0.159189 1.512297 32.487590 122 122 122 0
-0.079881 1.517734 32.604372 123 123 123 0
0.000000 1.519598 32.644427 122 122 122 0
0.080015 1.520285 32.659186 123 123 123 0
0.160175 1.521663 32.688792 121 121 121 0
0.240834 1.525283 32.766557 123 123 123 0
0.321991 1.529456 32.856204 125 125 125 0
0.402412 1.529167 32.849984 135 135 135 0
0.483585 1.531351 32.896907 138 138 138 0
0.564565 1.532392 32.919260 145 145 145 0
0.645719 1.533584 32.944872 144 144 144 0
0.726148 1.532980 32.931896 144 144 144 0
0.806653 1.532642 32.924630 140 140 140 0
0.887700 1.533299 32.938759 139 139 139 0
0.968513 1.533479 32.942622 136 136 136 0
1.049573 1.533992 32.953639 133 133 133 0
1.130706 1.534529 32.965185 129 129 129 0
1.212234 1.535497 32.985962 128 128 128 0
1.294806 1.537582 33.030754 128 128 128 0
1.375427 1.537241 33.023447 124 124 124 0
1.458981 1.540035 33.083469 126 126 126 0
1.542470 1.542470 33.135772 122 122 122 0
1.624094 1.542889 33.144768 122 122 122 0
1.707268 1.544671 33.183053 122 122 122 0
1.792432 1.548009 33.254766 119 119 119 0
1.876516 1.550166 33.301090 117 117 117 0
1.958829 1.550740 33.313419 113 113 113 0
2.043873 1.553343 33.369351 114 114 114 0
2.133675 1.559224 33.495679 109 109 109 0
2.221463 1.563252 33.582207 105 105 105 0
2.306597 1.565191 33.623859 103 103 103 0
2.066182 1.353706 29.080678 102 102 102 0
2.484913 1.573778 33.808338 97 97 97 0
2.214656 1.357370 29.159400 97 97 97 0
2.286428 1.357566 29.163617 93 93 93 0
2.379289 1.369894 29.428440 95 95 95 0
2.473630 1.382322 29.695433 93 93 93 0
2.522513 1.369364 29.417062 89 89 89 0
2.597968 1.371150 29.455416 87 87 87 0
2.693662 1.383232 29.714971 83 83 83 0
2.800214 1.400107 30.077485 67 67 67 0
2.938858 1.431751 30.757279 96 96 96 0
3.547633 1.685126 36.200341 141 141 141 0
3.636091 1.685018 36.198015 146 146 146 0
3.730213 1.687477 36.250853 145 145 145 0
3.824560 1.689922 36.303365 142 142 142 0
3.908736 1.687863 36.259145 141 141 141 0
3.995778 1.687106 36.242887 142 142 142 0
4.091891 1.690129 36.307816 138 138 138 0
4.185378 1.691962 36.347186 139 139 139 0
4.267924 1.689387 36.291869 140 140 140 0
4.352322 1.687635 36.254247 140 140 140 0
4.453293 1.692251 36.353414 143 143 143 0
4.545388 1.693380 36.377652 145 145 145 0
4.629384 1.691506 36.337394 145 145 145 0
4.710988 1.688845 36.280234 147 147 147 0
4.821606 1.696491 36.444493 144 144 144 0
4.895474 1.691164 36.330047 146 146 146 0
4.983015 1.690666 36.319348 143 143 143 0
5.071888 1.690629 36.318567 144 144 144 0
4.877683 1.597862 34.325709 140 140 140 0
5.248456 1.690181 36.308930 141 141 141 0
5.341562 1.691495 36.337158 141 141 141 0
5.516940 1.718391 36.914952 137 137 137 0
5.518559 1.691171 36.330210 137 137 137 0
5.695224 1.717607 36.898113 137 137 137 0
5.695676 1.690904 36.324467 138 138 138 0
5.325708 1.556745 33.442434 137 137 137 0
6.255694 1.800881 38.687035 142 142 142 0
6.204873 1.759591 37.800015 144 144 144 0
6.080673 1.699012 36.498640 149 149 149 0
6.542175 1.801469 38.699646 145 145 145 0
6.032283 1.637334 35.173660 151 151 151 0
6.271221 1.678214 36.051858 148 148 148 0
6.437293 1.698730 36.492593 145 145 145 0
6.291071 1.637402 35.175126 136 136 136 0
6.626175 1.701315 36.548123 139 139 139 0
6.466383 1.638150 35.191198 142 142 142 0
6.816768 1.704192 36.609923 138 138 138 0
6.638779 1.638140 35.190984 139 139 139 0
6.891360 1.678665 36.061538 136 136 136 0
5.651374 1.359191 29.198524 134 134 134 0
-5.733788 1.433447 29.254022 102 102 102 0
-5.696093 1.442049 29.429567 98 98 98 0
-5.636472 1.445249 29.494882 93 93 93 0
-5.584540 1.450530 29.602649 93 93 93 0
-5.539998 1.457894 29.752943 100 100 100 0
-5.493693 1.464985 29.897648 99 99 99 0
-5.430717 1.467761 29.954314 105 105 105 0
-5.385451 1.475466 30.111550 105 105 105 0
-5.316933 1.476926 30.141344 99 99 99 0
-5.450115 1.535244 31.331504 100 100 100 0
-5.105462 1.458703 29.769458 108 108 108 0
-5.099027 1.477979 30.162833 113 113 113 0
-5.091417 1.497475 30.560724 115 115 115 0
-5.062228 1.511113 30.839036 120 120 120 0
-5.390590 1.633512 33.336980 99 99 99 0
-4.908393 1.510275 30.821931 105 105 105 0
-4.905470 1.532959 31.284885 87 87 87 0
-4.901283 1.555963 31.754343 101 101 101 0
-5.304779 1.711219 34.922837 149 149 149 0
-5.217012 1.710496 34.908077 158 158 158 0
-5.132838 1.710946 34.917267 163 163 163 0
-5.042147 1.709202 34.881679 162 162 162 0
-4.955753 1.708880 34.875110 158 158 158 0
-4.869597 1.708631 34.870011 161 161 161 0
-4.788553 1.710198 34.901993 159 159 159 0
-4.706525 1.711464 34.927831 165 165 165 0
-4.629577 1.714658 34.993024 169 169 169 0
-4.545664 1.715345 35.007038 163 163 163 0
-4.448145 1.710825 34.914798 157 157 157 0
-4.322947 1.695273 34.597412 160 160 160 0
-4.149066 1.659626 33.869927 146 146 146 0
-4.028701 1.644368 33.558526 150 150 150 0
-3.932008 1.638337 33.435443 143 143 143 0
-3.840320 1.634179 33.350582 142 142 142 0
-3.740469 1.626291 33.189611 141 141 141 0
-3.645980 1.620436 33.070116 139 139 139 0
-3.552259 1.614663 32.952314 141 141 141 0
-3.458374 1.608546 32.827470 142 142 142 0
-3.365837 1.602780 32.709788 144 144 144 0
-3.277192 1.598630 32.625106 139 139 139 0
-3.192418 1.596209 32.575698 142 142 142 0
-3.104490 1.592046 32.490735 143 143 143 0
-3.016920 1.587852 32.405153 144 144 144 0
-2.938524 1.588391 32.416149 145 145 145 0
-2.854696 1.585942 32.366162 149 149 149 0
-2.767508 1.581433 32.274145 143 143 143 0
-2.684484 1.579108 32.226694 145 145 145 0
-2.607238 1.580144 32.247841 146 146 146 0
-2.523127 1.576955 32.182748 147 147 147 0
-2.441005 1.574842 32.139638 150 150 150 0
-2.361404 1.574270 32.127951 150 150 150 0
-2.284140 1.575269 32.148352 151 151 151 0
-2.201181 1.572272 32.087182 153 153 153 0
-2.119991 1.570363 32.048232 153 153 153 0
-2.041126 1.570097 32.042794 157 157 157 0
-1.960413 1.568331 32.006745 157 157 157 0
-1.880087 1.566739 31.974267 162 162 162 0
-1.802105 1.567047 31.980559 159 159 159 0
-1.723007 1.566370 31.966735 157 157 157 0
-1.644681 1.566363 31.966599 150 150 150 0
-1.566912 1.566912 31.977790 146 146 146 0
-1.489663 1.568066 32.001346 143 143 143 0
-1.412434 1.569372 32.027991 141 141 141 0
-1.334285 1.569747 32.035654 139 139 139 0
-1.257674 1.572093 32.083531 137 137 137 0
-1.178931 1.571908 32.079759 141 141 141 0
-1.101283 1.573261 32.107365 139 139 139 0
-1.023981 1.575356 32.150113 138 138 138 0
-0.944867 1.574779 32.138339 137 137 137 0
-0.866407 1.575286 32.148693 136 136 136 0
-0.788572 1.577144 32.186614 135 135 135 0
-0.711258 1.580574 32.256602 133 133 133 0
-0.632271 1.580678 32.258739 131 131 131 0
-0.553210 1.580601 32.257169 127 127 127 0
-0.475038 1.583461 32.315533 123 123 123 0
-0.396986 1.587943 32.407010 123 123 123 0
-0.318087 1.590437 32.457902 122 122 122 0
-0.238713 1.591420 32.477950 123 123 123 0
-0.159336 1.593356 32.517462 123 123 123 0
-0.079903 1.598057 32.613404 120 120 120 0
0.000000 1.600847 32.670343 123 123 123 0
0.080084 1.601673 32.687199 122 122 122 0
0.160352 1.603517 32.724834 121 121 121 0
0.240916 1.606105 32.777645 122 122 122 0
0.322278 1.611391 32.885530 125 125 125 0
0.402792 1.611169 32.881006 131 131 131 0
0.483940 1.613133 32.921082 135 135 135 0
0.565274 1.615067 32.960555 139 139 139 0
0.646227 1.615569 32.970786 141 141 141 0
0.727419 1.616488 32.989542 141 141 141 0
0.808190 1.616380 32.987349 139 139 139 0
0.888560 1.615563 32.970668 137 137 137 0
0.969834 1.616389 32.987537 134 134 134 0
1.051081 1.617048 33.000981 130 130 130 0
1.133267 1.618953 33.039851 130 130 130 0
1.214922 1.619896 33.059094 127 127 127 0
1.296115 1.620144 33.064166 124 124 124 0
1.378367 1.621608 33.094050 123 123 123 0
1.461654 1.624060 33.144090 122 122 122 0
1.545304 1.626635 33.196641 121 121 121 0
1.627365 1.627365 33.211536 122 122 122 0
1.709226 1.627834 33.221102 121 121 121 0
1.795554 1.632322 33.312696 118 118 118 0
1.880805 1.635483 33.377205 114 114 114 0
1.962590 1.635491 33.377373 112 112 112 0
2.048413 1.638731 33.443483 109 109 109 0
2.136547 1.643497 33.540765 105 105 105 0
2.224522 1.647794 33.628456 102 102 102 0
2.313646 1.652605 33.726623 99 99 99 0
2.062588 1.422475 29.030096 100 100 100 0
2.146714 1.431142 29.206989 99 99 99 0
2.221899 1.433483 29.254757 97 97 97 0
2.303636 1.439772 29.383111 97 97 97 0
2.369235 1.435900 29.304081 93 93 93 0
2.475048 1.455911 29.712462 93 93 93 0
2.558491 1.461995 29.836625 93 93 93 0
2.629803 1.461002 29.816362 84 84 84 0
2.501450 1.352135 27.594595 71 71 71 0
2.815847 1.482025 30.245401 67 67 67 0
3.454001 1.771282 36.148622 121 121 121 0
3.552778 1.776389 36.252837 146 146 146 0
3.633565 1.772471 36.172869 141 141 141 0
3.731959 1.777124 36.267828 143 143 143 0
3.820762 1.777099 36.267317 142 142 142 0
3.903461 1.774300 36.210214 142 142 142 0
3.995370 1.775720 36.239187 140 140 140 0
4.090369 1.778421 36.294309 142 142 142 0
4.183164 1.780070 36.327958 140 140 140 0
4.265994 1.777498 36.275463 141 141 141 0
4.352322 1.776458 36.254247 139 139 139 0
4.452004 1.780802 36.342892 144 144 144 0
4.542643 1.781429 36.355689 145 145 145 0
4.625989 1.779227 36.310749 144 144 144 0
4.713707 1.778757 36.301173 146 146 146 0
4.814283 1.783068 36.389136 147 147 147 0
4.889038 1.777832 36.282284 144 144 144 0
4.979511 1.778397 36.293811 145 145 145 0
5.071888 1.779610 36.318567 143 143 143 0
5.171415 1.783246 36.392785 141 141 141 0
5.246666 1.778531 36.296546 139 139 139 0
5.329573 1.776524 36.255602 141 141 141 0
5.424831 1.778633 36.298633 141 141 141 0
5.211785 1.681221 34.310634 137 137 137 0
5.600123 1.777817 36.281974 139 139 139 0
5.515431 1.723572 35.174941 135 135 135 0
5.740008 1.766156 36.044009 136 136 136 0
5.967036 1.808193 36.901891 143 143 143 0
5.773105 1.723315 35.169692 142 142 142 0
6.059885 1.782319 36.373858 141 141 141 0
6.155230 1.784125 36.410707 143 143 143 0
6.033002 1.723715 35.177854 145 145 145 0
6.329930 1.783079 36.389362 143 142 143 0
7.138705 1.982974 40.468850 138 138 138 0
6.505659 1.782372 36.374946 135 135 135 0
6.609315 1.786301 36.455127 133 133 133 0
6.721492 1.792398 36.579550 142 142 142 0
6.717046 1.767644 36.074361 147 147 147 0
6.640503 1.724806 35.200123 144 144 144 0
6.388776 1.638148 33.431583 144 144 144 0
8.537949 2.161506 44.112371 142 142 142 0
-5.741478 1.507138 29.293255 104 104 104 0
-5.684888 1.511173 29.371676 94 94 94 0
-5.656381 1.522872 29.599064 103 103 103 0
-5.603028 1.528098 29.700651 97 97 97 0
-5.545402 1.532282 29.781968 99 99 99 0
-5.504730 1.541324 29.957714 102 102 102 0
-5.434725 1.542287 29.976418 101 101 101 0
-5.379096 1.547411 30.076019 103 103 103 0
-5.299415 1.545663 30.042036 97 97 97 0
-5.031674 1.488242 28.925981 99 99 99 0
-5.345466 1.603640 31.168896 103 103 103 0
-4.979629 1.515539 29.456548 112 112 112 0
-5.118592 1.580742 30.723842 113 113 113 0
-5.082083 1.592892 30.959994 113 113 113 0
-5.011066 1.594430 30.989894 102 102 102 0
-5.032067 1.625745 31.598536 97 97 97 0
-4.917044 1.613405 31.358701 88 88 88 0
-4.922288 1.640763 31.890430 122 122 122 0
-5.301723 1.795745 34.902718 157 157 157 0
-5.213912 1.794953 34.887334 157 157 157 0
-5.130840 1.795794 34.903672 159 159 159 0
-5.043941 1.795301 34.894092 160 160 160 0
-4.956595 1.794629 34.881034 162 162 162 0
-4.865730 1.792637 34.842318 157 157 157 0
-4.784711 1.794267 34.873989 164 164 164 0
-4.693634 1.792115 34.832164 161 161 161 0
-4.618594 1.796120 34.910004 169 169 169 0
-4.535597 1.797123 34.929510 172 172 172 0
-4.446919 1.795871 34.905170 165 165 165 0
-4.345273 1.789230 34.776098 162 162 162 0
-4.216018 1.770728 34.416474 151 151 151 0
-4.051433 1.736328 33.747878 146 146 146 0
-3.944590 1.725758 33.542435 145 145 145 0
-3.853287 1.721682 33.463200 145 145 145 0
-3.748916 1.711462 33.264565 144 144 144 0
-3.658164 1.707143 33.180630 141 141 141 0
-3.564799 1.701381 33.068639 142 142 142 0
-3.470667 1.694977 32.944153 144 144 144 0
-3.373985 1.686993 32.788970 140 140 140 0
-3.283651 1.681870 32.689407 140 140 140 0
-3.198139 1.679023 32.634068 142 142 142 0
-3.111102 1.675209 32.559936 143 143 143 0
-3.022101 1.670108 32.460802 145 145 145 0
-2.941848 1.669698 32.452819 145 145 145 0
-2.859920 1.668287 32.425399 146 146 146 0
-2.772757 1.663654 32.335357 148 148 148 0
-2.690590 1.661835 32.299999 150 150 150 0
-2.610962 1.661521 32.293906 147 147 147 0
-2.528604 1.659396 32.252598 151 151 151 0
-2.444574 1.656002 32.186625 153 153 153 0
-2.365507 1.655855 32.183771 152 152 152 0
-2.283936 1.653884 32.145470 154 154 154 0
-2.204078 1.653059 32.129423 152 152 152 0
-2.124328 1.652255 32.113806 155 155 155 0
-2.043337 1.650387 32.077502 158 158 158 0
-1.962339 1.648365 32.038191 156 156 156 0
-1.881064 1.645931 31.990884 159 159 159 0
-1.801896 1.645209 31.976861 159 159 159 0
-1.722743 1.644436 31.961834 155 155 155 0
-1.645306 1.645306 31.978746 149 149 149 0
-1.567333 1.645700 31.986391 143 143 143 0
-1.490523 1.647420 32.019823 141 141 141 0
-1.412706 1.648157 32.034152 138 138 138 0
-1.335036 1.649162 32.053686 135 135 135 0
-1.258138 1.651306 32.095358 136 136 136 0
-1.179898 1.651857 32.106060 136 136 136 0
-1.102514 1.653770 32.143253 137 137 137 0
-1.026077 1.657509 32.215923 136 136 136 0
-0.946412 1.656222 32.190898 137 137 137 0
-0.867875 1.656852 32.203157 138 138 138 0
-0.789600 1.658159 32.228558 136 136 136 0
-0.712182 1.661757 32.298484 134 134 134 0
-0.632894 1.661346 32.290502 130 130 130 0
-0.553738 1.661214 32.287930 128 128 128 0
-0.475127 1.662943 32.321542 125 125 125 0
-0.397351 1.668873 32.436797 123 123 123 0
-0.318256 1.670842 32.475062 122 122 122 0
-0.238683 1.670783 32.473919 121 121 121 0
-0.159350 1.673179 32.520492 121 121 121 0
-0.079917 1.678255 32.619136 120 120 120 0
0.000000 1.681460 32.681438 121 121 121 0
0.080233 1.684902 32.748340 121 121 121 0
0.160550 1.685770 32.765214 121 121 121 0
0.241359 1.689512 32.837945 123 123 123 0
0.322387 1.692530 32.896589 126 126 126 0
0.402931 1.692310 32.892324 128 128 128 0
0.484306 1.695070 32.945962 131 131 131 0
0.565752 1.697255 32.988441 136 136 136 0
0.646885 1.698074 33.004358 139 139 139 0
0.728025 1.698726 33.017025 137 137 137 0
0.808888 1.698664 33.015818 136 136 136 0
0.890556 1.700153 33.044765 133 133 133 0
0.971020 1.699285 33.027899 130 130 130 0
1.052459 1.700127 33.044252 127 127 127 0
1.134473 1.701709 33.075002 126 126 126 0
1.216647 1.703306 33.106050 125 125 125 0
1.298496 1.704277 33.124909 124 124 124 0
1.379860 1.704533 33.129902 122 122 122 0
1.464802 1.708936 33.215469 121 121 121 0
1.548242 1.711215 33.259758 122 122 122 0
1.630310 1.711825 33.271630 121 121 121 0
1.713601 1.713601 33.306140 118 118 118 0
1.797637 1.715927 33.351343 116 116 116 0
1.884646 1.720763 33.445354 113 113 113 0
1.966579 1.720757 33.445223 112 112 112 0
2.053814 1.725204 33.531659 107 107 107 0
2.142064 1.730128 33.627373 101 101 101 0
1.915577 1.489893 28.958082 101 101 101 0
2.317970 1.738478 33.789652 99 99 99 0
2.073238 1.501310 29.179990 98 98 98 0
2.147342 1.503140 29.215542 100 100 100 0
2.219563 1.503575 29.224003 97 97 97 0
2.309854 1.515842 29.462423 94 94 94 0
2.400817 1.527793 29.694708 92 92 92 0
2.470080 1.525638 29.652820 90 90 90 0
2.544383 1.526630 29.672110 91 91 91 0
2.598167 1.515597 29.457674 83 83 83 0
2.741547 1.556013 30.243207 71 71 71 0
2.862111 1.581693 30.742326 91 91 91 0
3.455673 1.860747 36.166127 140 140 140 0
3.547798 1.862594 36.202015 142 142 142 0
3.629649 1.859088 36.133884 144 144 144 0
3.729667 1.864834 36.245553 143 143 143 0
3.811801 1.861577 36.182256 145 145 145 0
3.900221 1.861469 36.180160 142 142 142 0
3.991488 1.862694 36.203974 140 140 140 0
4.089154 1.866788 36.283532 140 140 140 0
4.177212 1.866414 36.276264 141 141 141 0
4.267479 1.867022 36.288091 141 141 141 0
4.347151 1.863065 36.211174 140 140 140 0
4.447864 1.868103 36.309096 143 143 143 0
4.536804 1.868096 36.308954 141 141 141 0
4.620502 1.865972 36.267680 142 142 142 0
4.710458 1.866408 36.276147 144 144 144 0
4.809222 1.870253 36.350881 146 146 146 0
4.887379 1.866090 36.269975 148 148 148 0
4.976225 1.866085 36.269865 145 145 145 0
5.068907 1.867492 36.297225 147 147 147 0
5.160265 1.868372 36.314318 144 144 144 0
5.237642 1.864245 36.234117 143 143 143 0
5.043114 1.765090 34.306898 142 142 142 0
5.416643 1.864746 36.243849 140 140 140 0
5.210605 1.764882 34.302866 143 143 143 0
5.427768 1.809256 35.165326 137 137 137 0
5.925203 1.944207 37.788286 138 138 138 0
5.600202 1.809296 35.166106 138 138 138 0
6.252510 1.989435 38.667346 134 134 134 0
5.770797 1.808757 35.155635 135 135 135 0
6.442391 1.989562 38.669815 140 140 140 0
6.539976 1.990427 38.686637 138 138 138 0
6.030537 1.809161 35.163482 140 140 140 0
6.325984 1.871066 36.366682 139 139 139 0
6.424972 1.873950 36.422742 135 135 135 0
7.394414 2.127160 41.344222 130 130 130 0
6.595648 1.871738 36.379745 128 128 128 0
6.693072 1.874060 36.424881 136 136 136 0
7.873896 2.175682 42.287304 141 141 141 0
6.638619 1.810533 35.190137 145 145 145 0
7.005369 1.886061 36.658132 144 144 144 0
7.098700 1.886996 36.676310 142 142 142 0
-5.748036 1.580710 29.326716 103 103 103 0
-5.694392 1.585780 29.420779 96 96 96 0
-5.649717 1.593510 29.564194 93 93 93 0
-5.603501 1.601000 29.703161 96 96 96 0
-5.564081 1.610655 29.882284 102 102 102 0
-5.518233 1.618682 30.031199 98 98 98 0
-5.467079 1.625348 30.154877 103 103 103 0
-5.381623 1.621859 30.090150 104 104 104 0
-5.316690 1.624544 30.139966 92 92 92 0
-5.114275 1.584705 29.400836 104 104 104 0
-5.188108 1.630548 30.251359 107 107 107 0
-5.142957 1.639784 30.422700 111 111 111 0
-5.087971 1.646108 30.540041 119 119 119 0
-5.045850 1.656846 30.739265 114 114 114 0
-5.022506 1.674169 31.060643 101 101 101 0
-5.047146 1.708265 31.693223 89 89 89 0
-4.930329 1.694801 31.443423 86 86 86 0
-5.382033 1.879440 34.869021 146 146 146 0
-5.292016 1.877812 34.838818 163 163 163 0
-5.210297 1.879124 34.863148 159 159 159 0
-5.132031 1.881745 34.911773 161 161 161 0
-5.037870 1.878528 34.852095 158 158 158 0
-4.949440 1.877374 34.830683 157 157 157 0
-4.866713 1.878380 34.849359 157 157 157 0
-4.783163 1.879100 34.862705 164 164 164 0
-4.687514 1.875006 34.786745 160 160 160 0
-4.606740 1.876820 34.820406 166 166 166 0
-4.532891 1.881577 34.908672 167 167 167 0
-4.447145 1.881484 34.906945 161 161 161 0
-4.355718 1.878937 34.859689 163 163 163 0
-4.261576 1.875093 34.788375 161 161 161 0
-4.099721 1.840691 34.150110 154 154 154 0
-3.958534 1.814328 33.661000 144 144 144 0
-3.862524 1.807990 33.543416 141 141 141 0
-3.764413 1.800371 33.402064 141 141 141 0
-3.666284 1.792405 33.254273 144 144 144 0
-3.580382 1.790191 33.213193 142 142 142 0
-3.478469 1.779682 33.018215 144 144 144 0
-3.384861 1.773023 32.894668 142 142 142 0
-3.291000 1.765902 32.762568 142 142 142 0
-3.205754 1.763165 32.711774 141 141 141 0
-3.120306 1.760172 32.656259 146 146 146 0
-3.029836 1.754116 32.543888 145 145 145 0
-2.947219 1.752401 32.512070 147 147 147 0
-2.866316 1.751637 32.497910 147 147 147 0
-2.778051 1.746204 32.397102 149 149 149 0
-2.694933 1.743780 32.352133 150 150 150 0
-2.613781 1.742520 32.328766 152 152 152 0
-2.532933 1.741392 32.307820 153 153 153 0
-2.446409 1.736161 32.210777 155 155 155 0
-2.368187 1.736670 32.220227 156 156 156 0
-2.287819 1.735587 32.200130 156 156 156 0
-2.208141 1.734968 32.188642 160 160 160 0
-2.122699 1.729607 32.089175 157 157 157 0
-2.045916 1.731159 32.117984 158 158 158 0
-1.963027 1.727464 32.049425 157 157 157 0
-1.880805 1.724071 31.986481 157 157 157 0
-1.800839 1.722542 31.958101 157 157 157 0
-1.721946 1.721946 31.947042 149 149 149 0
-1.643363 1.721619 31.940977 145 145 145 0
-1.566628 1.723291 31.972004 140 140 140 0
-1.489634 1.724839 32.000730 134 134 134 0
-1.413598 1.727730 32.054367 130 130 130 0
-1.335303 1.728039 32.060085 129 129 129 0
-1.258727 1.730749 32.110375 134 134 134 0
-1.181151 1.732355 32.140166 133 133 133 0
-1.104358 1.735419 32.197012 138 138 138 0
-1.027461 1.738781 32.259386 139 139 139 0
-0.948141 1.738258 32.249683 138 138 138 0
-0.869419 1.738838 32.260442 141 141 141 0
-0.791016 1.740235 32.286365 138 138 138 0
-0.714068 1.745499 32.384028 136 136 136 0
-0.633566 1.742306 32.324780 129 129 129 0
-0.554396 1.742388 32.326304 127 127 127 0
-0.475760 1.744454 32.364639 127 127 127 0
-0.397700 1.749880 32.465297 124 124 124 0
-0.318711 1.752912 32.521549 121 121 121 0
-0.239025 1.752850 32.520402 122 122 122 0
-0.159400 1.753401 32.530627 119 119 119 0
-0.079974 1.759417 32.642247 120 120 120 0
0.000000 1.764618 32.738746 121 121 121 0
0.080237 1.765207 32.749668 121 121 121 0
0.160714 1.767854 32.798767 119 119 119 0
0.241435 1.770526 32.848355 120 120 120 0
0.322729 1.775011 32.931561 124 124 124 0
0.403487 1.775343 32.937717 128 128 128 0
0.484937 1.778103 32.988919 130 130 130 0
0.566340 1.779927 33.022764 133 133 133 0
0.647657 1.781058 33.043746 135 135 135 0
0.729013 1.782031 33.061802 135 135 135 0
0.810251 1.782551 33.071455 132 132 132 0
0.891537 1.783073 33.081134 131 131 131 0
0.972332 1.782608 33.072512 127 127 127 0
1.053555 1.782939 33.078651 125 125 125 0
1.137011 1.786732 33.149014 126 126 126 0
1.219608 1.788758 33.186612 122 122 122 0
1.301908 1.790123 33.211931 123 123 123 0
1.382053 1.788540 33.182556 122 122 122 0
1.467118 1.793144 33.267974 121 121 121 0
1.550713 1.795563 33.312853 119 119 119 0
1.633893 1.797282 33.344754 120 120 120 0
1.714620 1.796268 33.325938 116 116 116 0
1.801850 1.801850 33.429493 114 114 114 0
1.889276 1.807134 33.527525 109 109 109 0
1.972742 1.808347 33.550038 108 108 108 0
2.056925 1.810094 33.582453 105 105 105 0
2.150357 1.819533 33.757573 102 102 102 0
1.925434 1.568872 29.107088 99 99 99 0
1.996002 1.568287 29.096233 97 97 97 0
2.078009 1.576421 29.247141 101 101 101 0
2.162393 1.585755 29.420315 100 100 100 0
2.235681 1.586612 29.436221 97 97 97 0
2.309401 1.587713 29.456641 94 94 94 0
2.394158 1.596105 29.612346 93 93 93 0
2.478017 1.603423 29.748104 93 93 93 0
2.533512 1.592493 29.545324 89 89 89 0
2.607849 1.593685 29.567449 73 73 73 0
2.764304 1.643640 30.494247 80 80 80 0
3.355030 1.942386 36.036844 132 132 132 0
3.453551 1.948157 36.143912 144 144 144 0
3.539983 1.946991 36.122275 141 141 141 0
3.628283 1.946883 36.120285 140 140 140 0
3.724767 1.951068 36.197930 140 140 140 0
3.811530 1.950085 36.179684 139 139 139 0
3.898342 1.949171 36.162731 140 140 140 0
3.986761 1.949083 36.161098 140 140 140 0
4.084696 1.953550 36.243973 139 139 139 0
4.175948 1.954699 36.265288 140 140 140 0
4.261623 1.953244 36.238294 140 140 140 0
4.346092 1.951307 36.202350 143 143 143 0
4.447197 1.956767 36.303651 142 142 142 0
4.529533 1.953916 36.250767 144 144 144 0
4.618531 1.953994 36.252202 143 143 143 0
4.707012 1.953854 36.249608 141 141 141 0
4.808328 1.958948 36.344126 145 145 145 0
4.888163 1.955265 36.275793 146 146 146 0
4.974432 1.954241 36.256793 144 144 144 0
5.064203 1.954604 36.263534 145 145 145 0
5.163187 1.958450 36.334886 145 145 145 0
5.240183 1.953967 36.251701 147 147 147 0
5.329797 1.954259 36.257119 145 145 145 0
5.516865 1.989689 36.914450 141 141 141 0
5.341802 1.895478 35.166571 142 142 142 0
5.590027 1.952073 36.216568 140 140 140 0
5.694010 1.957316 36.313842 140 140 140 0
5.738004 1.942094 36.031423 136 136 136 0
5.828250 1.942750 36.043599 139 139 139 0
5.945674 1.952311 36.220981 141 141 141 0
6.047255 1.956465 36.298051 138 138 138 0
6.538088 2.084608 38.675468 142 142 142 0
6.235079 1.959596 36.356148 140 140 140 0
6.269093 1.942536 36.039628 138 138 138 0
6.404938 1.957064 36.309171 138 138 138 0
6.504669 1.960311 36.369412 132 132 132 0
6.376161 1.895615 35.169118 131 131 131 0
7.597774 2.228680 41.348429 132 132 132 0
6.790800 1.965758 36.470460 131 131 131 0
6.633307 1.895231 35.161977 134 134 134 0
6.892151 1.943940 36.065680 132 132 132 0
7.061098 1.966382 36.482036 130 130 130 0
-5.757290 1.655221 29.373927 101 101 101 0
-5.704543 1.660816 29.473225 94 93 94 0
-5.654976 1.667493 29.591712 91 91 91 0
-5.643822 1.685817 29.916892 100 100 100 0
-5.557410 1.681848 29.846456 98 98 98 0
-5.506954 1.688799 29.969818 100 100 100 0
-5.448124 1.693336 30.050327 100 100 100 0
-5.426402 1.709688 30.340518 104 104 104 0
-5.360538 1.712394 30.388537 105 105 105 0
-5.071241 1.642796 29.153439 97 97 97 0
-5.182316 1.702761 30.217584 104 104 104 0
-5.145938 1.715313 30.440332 112 112 112 0
-5.148720 1.741479 30.904681 117 117 117 0
-5.097704 1.749958 31.055157 115 115 115 0
-5.079480 1.770122 31.412987 88 88 88 0
-4.981307 1.762616 31.279791 93 93 93 0
-4.985888 1.791804 31.797756 111 111 111 0
-5.378485 1.963574 34.846031 153 153 153 0
-5.294295 1.964013 34.853821 156 156 156 0
-5.203709 1.962054 34.819064 158 158 158 0
-5.122844 1.963757 34.849278 155 155 155 0
-5.037371 1.963721 34.848643 158 158 158 0
-4.940368 1.959112 34.766842 162 162 162 0
-4.861325 1.961587 34.810778 157 157 157 0
-4.772850 1.960278 34.787539 158 158 158 0
-4.680594 1.957339 34.735389 155 155 155 0
-4.598924 1.958801 34.761327 160 160 160 0
-4.523154 1.962878 34.833689 162 162 162 0
-4.442982 1.965165 34.874272 168 168 168 0
-4.351547 1.962463 34.826309 164 164 164 0
-4.261802 1.960429 34.790222 163 163 163 0
-4.155576 1.950576 34.615375 154 154 154 0
-3.988226 1.911025 33.913482 150 150 150 0
-3.875411 1.896478 33.655329 145 145 145 0
-3.774470 1.887235 33.491309 145 145 145 0
-3.675882 1.878784 33.341329 148 148 148 0
-3.587757 1.875419 33.281607 145 145 145 0
-3.495211 1.869531 33.177131 146 146 146 0
-3.394004 1.858621 32.983514 142 142 142 0
-3.303880 1.853396 32.890789 142 142 142 0
-3.215134 1.848702 32.807493 141 141 141 0
-3.128243 1.844861 32.739326 147 147 147 0
-3.034073 1.836413 32.589401 147 147 147 0
-2.951312 1.834599 32.557221 147 147 147 0
-2.870713 1.834067 32.547765 149 149 149 0
-2.783047 1.828859 32.455358 150 150 150 0
-2.697582 1.824835 32.383943 152 152 152 0
-2.619385 1.825632 32.398082 153 153 153 0
-2.535253 1.822213 32.337409 157 157 157 0
-2.448338 1.816509 32.236177 158 158 158 0
-2.369391 1.816533 32.236611 157 157 157 0
-2.289644 1.815925 32.225818 159 159 159 0
-2.206850 1.812769 32.169820 162 162 162 0
-2.125047 1.810225 32.124665 159 159 159 0
-2.046880 1.810701 32.133118 155 155 155 0
-1.961873 1.804923 32.030578 153 153 153 0
-1.880927 1.802555 31.988551 154 154 154 0
-1.801168 1.801168 31.963941 151 151 151 0
-1.720659 1.798871 31.923174 144 144 144 0
-1.643047 1.799528 31.934827 139 139 139 0
-1.565775 1.800642 31.954602 133 133 133 0
-1.487598 1.800776 31.956983 131 131 131 0
-1.411846 1.804025 32.014647 123 123 123 0
-1.336997 1.808879 32.100778 126 126 126 0
-1.259432 1.810433 32.128358 129 129 129 0
-1.181458 1.811568 32.148507 134 134 134 0
-1.104560 1.814635 32.202927 136 136 136 0
-1.028886 1.820338 32.304128 142 142 142 0
-0.949768 1.820388 32.305017 143 143 143 0
-0.870434 1.819998 32.298095 144 144 144 0
-0.792251 1.822178 32.336795 141 141 141 0
-0.714340 1.825537 32.396390 140 140 140 0
-0.634538 1.824297 32.374387 136 136 136 0
-0.554961 1.823444 32.359262 134 134 134 0
-0.476087 1.824999 32.386855 129 129 129 0
-0.397901 1.830347 32.481749 128 128 128 0
-0.318892 1.833628 32.539979 125 125 125 0
-0.239140 1.833410 32.536117 121 121 121 0
-0.159564 1.834983 32.564023 121 121 121 0
-0.080111 1.842553 32.698361 119 119 119 0
0.000000 1.844566 32.734084 120 120 120 0
0.080248 1.845703 32.754267 119 119 119 0
0.160777 1.848935 32.811625 119 119 119 0
0.241564 1.851989 32.865821 118 118 118 0
0.322741 1.855761 32.932753 123 123 123 0
0.403871 1.857808 32.969091 125 125 125 0
0.485577 1.861380 33.032474 126 126 126 0
