ply
format ascii 1.0
element vertex 1140
property float x
property float y
property float z
property uchar red
property uchar green
property uchar blue
property uchar alpha
end_header
0.480518 1.729865 39.225964 84 84 84 0
0.578079 1.734238 39.325134 128 128 128 0
0.674287 1.733880 39.317013 131 131 131 0
0.772435 1.737980 39.409972 135 135 135 0
0.867870 1.735741 39.359200 136 136 136 0
0.963286 1.733915 39.317803 137 137 137 0
1.061621 1.737198 39.392236 137 137 137 0
1.158628 1.737942 39.409115 136 136 136 0
1.253715 1.735914 39.363123 135 135 135 0
1.351168 1.737217 39.392667 137 137 137 0
1.451019 1.741223 39.483523 134 134 134 0
1.548849 1.742455 39.511459 138 138 138 0
1.642814 1.739451 39.443323 140 140 140 0
1.743105 1.743105 39.526185 138 138 138 0
1.844124 1.747065 39.615986 141 141 141 0
1.934970 1.741473 39.489175 140 140 140 0
2.030194 1.740166 39.459549 131 131 131 0
2.098880 1.717266 38.940269 119 119 119 0
2.142067 1.676400 38.013607 108 108 108 0
2.217085 1.662814 37.705523 107 107 107 0
2.301122 1.656808 37.569333 106 106 106 0
2.387992 1.653225 37.488100 102 102 102 0
2.475669 1.650446 37.425079 102 102 102 0
2.565134 1.649015 37.392630 102 102 102 0
2.648786 1.644074 37.280592 101 101 101 0
2.743118 1.645871 37.321328 101 101 101 0
2.836461 1.646977 37.346419 99 99 99 0
2.918652 1.641742 37.227707 97 97 97 0
3.010869 1.642292 37.240181 95 95 95 0
3.111561 1.647297 37.353679 99 99 99 0
3.204145 1.647846 37.366120 95 95 95 0
3.297751 1.648876 37.389471 96 96 96 0
3.399582 1.653851 37.502287 94 94 94 0
3.492089 1.654147 37.509010 94 94 94 0
3.595509 1.659466 37.629610 93 93 93 0
3.693625 1.662131 37.690054 91 91 91 0
3.799586 1.668111 37.825640 91 91 91 0
3.912638 1.676845 38.023692 85 85 85 0
4.011432 1.679204 38.077189 78 78 78 0
4.163847 1.703392 38.625666 70 70 70 0
4.382876 1.753151 39.753981 70 70 70 0
4.506560 1.763436 39.987219 94 94 94 0
4.604161 1.763296 39.984030 121 121 121 0
4.702753 1.763532 39.989399 136 136 136 0
4.801686 1.763885 39.997384 137 137 137 0
4.898266 1.763376 39.985849 140 140 140 0
5.000651 1.764936 40.021220 139 139 139 0
5.096448 1.764155 40.003516 135 135 135 0
5.195486 1.764505 40.011442 132 132 132 0
5.291136 1.763712 39.993469 129 129 129 0
5.392541 1.764832 40.018860 125 125 125 0
5.491274 1.765052 40.023862 123 123 123 0
5.594409 1.766655 40.060212 118 118 118 0
5.688600 1.765428 40.032372 116 116 116 0
5.794680 1.767869 40.087723 113 113 113 0
5.896496 1.768949 40.112218 111 111 111 0
6.002197 1.771140 40.161904 104 104 104 0
6.118490 1.776336 40.279720 96 96 96 0
6.232347 1.780670 40.378015 92 92 92 0
6.342972 1.783961 40.452630 95 95 95 0
6.464186 1.790082 40.591434 94 94 94 0
6.575639 1.793356 40.665670 96 96 96 0
6.691611 1.797746 40.765220 95 95 95 0
6.801063 1.800281 40.822704 95 95 95 0
6.924099 1.806287 40.958881 95 95 95 0
7.043492 1.811184 41.069925 95 95 95 0
7.153719 1.813619 41.125145 94 94 94 0
7.281385 1.820346 41.277693 95 95 95 0
7.379943 1.819712 41.263309 98 98 98 0
7.503164 1.825094 41.385353 100 100 100 0
7.706702 1.849608 41.941234 103 103 103 0
8.143174 1.928646 43.733478 105 105 105 0
8.252611 1.929182 43.745620 105 105 105 0
8.531417 1.968789 44.643731 107 107 107 0
8.467363 1.929273 43.747679 110 110 110 0
-6.367323 1.512239 32.486343 130 130 130 0
-6.306035 1.516641 32.580909 130 130 130 0
-6.233263 1.518359 32.617809 132 132 132 0
-6.160396 1.520098 32.655161 133 133 133 0
-6.093657 1.523414 32.726406 139 139 139 0
-6.010389 1.522632 32.709598 139 139 139 0
-5.935801 1.524057 32.740214 141 141 141 0
-6.387578 1.662520 35.714720 148 148 148 0
-6.303411 1.663400 35.733622 150 150 150 0
-6.221826 1.664996 35.767901 153 153 153 0
-6.136196 1.665539 35.779566 153 153 153 0
-6.041524 1.663608 35.738089 154 154 154 0
-5.952290 1.663140 35.728033 154 154 154 0
-5.864714 1.663128 35.727776 149 149 149 0
-5.775806 1.662732 35.719273 148 148 148 0
-5.689111 1.662971 35.724400 146 146 146 0
-5.603287 1.663476 35.735247 148 148 148 0
-5.519312 1.664554 35.758417 150 150 150 0
-5.426440 1.662941 35.723765 154 154 154 0
-5.342063 1.663921 35.744816 152 152 152 0
-5.257680 1.664932 35.766532 154 154 154 0
-5.170519 1.665082 35.769763 155 155 155 0
-5.080665 1.664356 35.754149 156 156 156 0
-4.991127 1.663709 35.740257 161 161 161 0
-4.903253 1.663604 35.737998 158 158 158 0
-4.815380 1.663495 35.735658 160 160 160 0
-4.719050 1.660407 35.669314 164 164 164 0
-4.635244 1.661691 35.696914 160 160 160 0
-4.545047 1.660690 35.675409 158 158 158 0
-4.446674 1.656604 35.587624 156 156 156 0
-4.357759 1.655949 35.573545 161 161 161 0
-4.272043 1.656506 35.585529 156 156 156 0
-4.178245 1.653889 35.529295 157 157 157 0
-4.083004 1.650576 35.458129 155 155 155 0
-4.001094 1.652626 35.502164 156 156 156 0
-3.913397 1.652323 35.495665 148 148 148 0
-3.826076 1.652169 35.492359 135 135 135 0
-3.741435 1.653192 35.514329 119 119 119 0
-3.636573 1.645116 35.340842 112 112 112 0
-3.560174 1.649837 35.442252 122 122 122 0
-3.514342 1.669313 35.860634 156 156 156 0
-3.433781 1.672868 35.937009 163 163 163 0
-3.346483 1.673241 35.945035 157 157 157 0
-3.259006 1.673544 35.951532 154 154 154 0
-3.162766 1.669238 35.859024 154 154 154 0
-3.067743 1.665346 35.775424 156 156 156 0
-2.977991 1.664172 35.750194 152 152 152 0
-2.883702 1.660313 35.667304 155 155 155 0
-2.791661 1.657549 35.607924 154 154 154 0
-2.705599 1.658270 35.623421 160 160 160 0
-2.619809 1.659212 35.643655 159 159 159 0
-2.526507 1.655298 35.559564 157 157 157 0
-2.436941 1.653639 35.523923 156 156 156 0
-2.352509 1.655470 35.563257 156 156 156 0
-2.261980 1.652985 35.509891 158 158 158 0
-2.170445 1.649538 35.435841 155 155 155 0
-2.086331 1.651678 35.481815 152 152 152 0
-1.999062 1.651399 35.475810 153 153 153 0
-1.906484 1.646509 35.370769 153 153 153 0
-1.818776 1.645559 35.350364 150 150 150 0
-1.734021 1.647320 35.388184 151 151 151 0
-1.644108 1.644108 35.319180 151 151 151 0
-1.554576 1.640941 35.251160 150 150 150 0
-1.467592 1.640250 35.236307 151 151 151 0
-1.382320 1.641505 35.263262 152 152 152 0
-1.293017 1.637822 35.184142 155 155 155 0
-1.207402 1.638617 35.201225 147 147 147 0
-1.122379 1.640399 35.239517 137 137 137 0
-1.037462 1.642648 35.287814 126 126 126 0
-0.950844 1.642367 35.281778 118 118 118 0
-0.866157 1.645699 35.353362 112 112 112 0
-0.781622 1.650091 35.447720 103 103 103 0
-0.620491 1.473667 31.657717 93 93 93 0
-0.544784 1.478700 31.765834 84 84 84 0
-0.470269 1.489186 31.991109 87 87 87 0
-0.395024 1.501090 32.246836 80 80 80 0
0.424421 1.612800 34.646627 66 66 66 0
0.578820 1.832929 39.375492 122 122 122 0
0.675507 1.833520 39.388191 130 130 130 0
0.773551 1.837184 39.466902 131 131 131 0
0.869862 1.836375 39.449513 131 131 131 0
0.965183 1.833848 39.395230 132 132 132 0
1.062281 1.834849 39.416736 133 133 133 0
1.159974 1.836626 39.454906 136 136 136 0
1.255243 1.834586 39.411076 136 136 136 0
1.352703 1.835811 39.437405 136 136 136 0
1.452031 1.839240 39.511056 135 135 135 0
1.548125 1.838398 39.492983 137 137 137 0
1.644308 1.837756 39.479179 136 136 136 0
1.743912 1.840796 39.544479 137 137 137 0
1.842217 1.842217 39.575009 138 138 138 0
1.937793 1.840903 39.546799 140 140 140 0
2.036095 1.842181 39.574239 142 142 142 0
2.135812 1.844565 39.625453 138 138 138 0
2.231864 1.843714 39.607174 135 135 135 0
2.318943 1.835830 39.437799 128 128 128 0
2.400413 1.824314 39.190417 115 115 115 0
2.449468 1.789996 38.453188 106 106 106 0
2.523540 1.775824 38.148747 105 105 105 0
2.596970 1.762230 37.856711 101 101 101 0
2.681849 1.757073 37.745934 100 100 100 0
2.773545 1.756579 37.735308 100 100 100 0
2.864945 1.755934 37.721459 99 99 99 0
2.949607 1.751329 37.622538 96 96 96 0
3.047848 1.754822 37.697566 96 96 96 0
3.151165 1.760945 37.829112 98 98 98 0
3.233979 1.755589 37.714041 95 95 95 0
3.333576 1.759387 37.795641 95 95 95 0
3.428604 1.760635 37.822438 95 95 95 0
3.536779 1.768389 37.989029 92 92 92 0
3.645195 1.775864 38.149609 91 91 91 0
3.793173 1.801757 38.705847 92 92 92 0
3.947922 1.829525 39.302361 91 91 91 0
4.094577 1.852309 39.791805 93 93 93 0
4.205474 1.858233 39.919073 101 101 101 0
4.312255 1.862110 40.002368 117 117 117 0
4.409884 1.861951 39.998949 126 126 126 0
4.510604 1.863076 40.023106 131 131 131 0
4.610065 1.863643 40.035302 135 135 135 0
4.709697 1.864255 40.048446 135 135 135 0
4.808458 1.864504 40.053797 137 137 137 0
4.903320 1.863262 40.027103 134 134 134 0
5.004980 1.864600 40.055861 130 130 130 0
5.103660 1.864799 40.060127 125 125 125 0
5.203447 1.865387 40.072750 122 122 122 0
5.303627 1.866091 40.087883 117 117 117 0
5.408431 1.868367 40.136781 116 116 116 0
5.504107 1.867465 40.117399 115 115 115 0
5.606665 1.868888 40.147976 114 114 114 0
5.705971 1.869198 40.154620 115 115 115 0
5.809694 1.870919 40.191590 113 113 113 0
5.914181 1.872824 40.232524 105 105 105 0
6.027553 1.877434 40.331568 96 96 96 0
6.140896 1.881887 40.427229 92 92 92 0
6.264372 1.889255 40.585504 95 95 95 0
6.368595 1.890677 40.616038 94 94 94 0
6.486632 1.896092 40.732380 96 96 96 0
6.610287 1.902961 40.879942 94 94 94 0
6.716478 1.904673 40.916708 93 93 93 0
6.843184 1.912066 41.075535 93 93 93 0
6.960867 1.916760 41.176378 94 94 94 0
7.077985 1.921167 41.271049 97 97 97 0
7.201880 1.927264 41.402013 94 94 94 0
7.314331 1.930171 41.464464 96 96 96 0
7.419195 1.931023 41.482780 98 98 98 0
7.529903 1.933353 41.532836 99 99 99 0
7.647538 1.937376 41.619256 103 103 103 0
8.480848 2.120212 45.546980 106 106 106 0
8.254956 2.036937 43.758050 107 107 107 0
8.020824 1.953791 41.971870 107 107 107 0
8.470745 2.037268 43.765151 105 105 105 0
-6.918070 1.729518 35.296278 136 136 136 0
-6.295618 1.593827 32.527088 134 134 134 0
-6.765481 1.734739 35.402833 133 133 133 0
-6.686711 1.736808 35.445062 132 132 132 0
-6.613115 1.740294 35.516194 137 137 137 0
-6.536476 1.743060 35.572661 134 134 134 0
-5.930832 1.602927 32.712805 138 138 138 0
-6.376337 1.746942 35.651872 141 141 141 0
-6.296224 1.748951 35.692879 150 150 150 0
-6.213468 1.750273 35.719852 151 151 151 0
-6.130128 1.751465 35.744188 151 151 151 0
-6.031654 1.748306 35.679705 154 154 154 0
-5.942248 1.747720 35.667757 147 147 147 0
-5.858868 1.748916 35.692157 150 150 150 0
-5.766310 1.747367 35.660545 153 153 153 0
-5.675016 1.746159 35.635894 148 148 148 0
-5.593113 1.747848 35.670364 146 146 146 0
-5.514013 1.750480 35.724089 153 153 153 0
-5.425912 1.750294 35.720291 155 155 155 0
-5.337921 1.750138 35.717100 152 152 152 0
-5.249646 1.749882 35.711879 152 152 152 0
-5.166813 1.751462 35.744121 149 149 149 0
-5.074958 1.749985 35.713990 154 154 154 0
-4.985188 1.749189 35.697733 156 156 156 0
-4.899934 1.749977 35.713807 154 154 154 0
-4.806930 1.747974 35.672947 159 159 159 0
-4.716213 1.746746 35.647869 160 160 160 0
-4.633920 1.748649 35.686715 158 158 158 0
-4.541341 1.746670 35.646317 158 158 158 0
-4.441580 1.741796 35.546862 156 156 156 0
-4.354180 1.741672 35.544330 157 157 157 0
-4.269436 1.742627 35.563819 154 154 154 0
-4.174657 1.739441 35.498787 155 155 155 0
-4.079155 1.735811 35.424711 155 155 155 0
-3.997905 1.738219 35.473867 154 154 154 0
-3.911202 1.738312 35.475753 145 145 145 0
-3.824382 1.738356 35.476645 134 134 134 0
-3.742672 1.740778 35.526073 120 120 120 0
-3.632155 1.729598 35.297914 113 113 113 0
-3.552965 1.733153 35.370478 121 121 121 0
-3.509649 1.754825 35.812746 146 146 146 0
-3.432059 1.760030 35.918981 160 160 160 0
-3.344917 1.760483 35.928219 161 161 161 0
-3.259584 1.761937 35.957899 156 156 156 0
-3.167150 1.759528 35.908734 154 154 154 0
-3.069134 1.753791 35.791655 154 154 154 0
-2.978716 1.752186 35.758892 153 153 153 0
-2.884891 1.748419 35.682022 154 154 154 0
-2.792161 1.745100 35.614295 155 155 155 0
-2.705152 1.745259 35.617538 158 158 158 0
-2.619601 1.746401 35.640828 161 161 161 0
-2.525605 1.741796 35.546862 156 156 156 0
-2.439157 1.742255 35.556229 156 156 156 0
-2.352843 1.742847 35.568302 158 158 158 0
-2.261984 1.739988 35.509960 157 157 157 0
-2.172214 1.737771 35.464719 156 156 156 0
-2.087045 1.739204 35.493968 154 154 154 0
-1.999940 1.739078 35.491385 151 151 151 0
-1.908103 1.734639 35.400797 151 151 151 0
-1.819644 1.732994 35.367227 150 150 150 0
-1.734583 1.734583 35.399651 148 148 148 0
-1.646027 1.732660 35.360417 150 150 150 0
-1.555648 1.728498 35.275464 150 150 150 0
-1.469266 1.728548 35.276489 149 149 149 0
-1.382885 1.728606 35.277668 150 150 150 0
-1.293717 1.724956 35.203189 150 150 150 0
-1.207303 1.724718 35.198327 145 145 145 0
-1.122065 1.726254 35.229664 137 137 137 0
-1.037296 1.728827 35.282187 125 125 125 0
-0.951284 1.729608 35.298124 122 122 122 0
-0.865722 1.731444 35.335595 119 119 119 0
-0.782292 1.738428 35.478115 107 107 107 0
-0.696484 1.741209 35.534878 94 94 94 0
-0.546661 1.561890 31.875296 91 91 91 0
-0.527780 1.759267 35.903415 81 81 81 0
-0.389083 1.556333 31.761897 75 75 75 0
0.579436 1.931453 39.417402 118 118 118 0
0.676562 1.933035 39.449692 129 129 129 0
0.774557 1.936391 39.518191 130 130 130 0
0.870930 1.935400 39.497968 131 131 131 0
0.965655 1.931311 39.414504 132 132 132 0
1.063765 1.934118 39.471799 130 130 130 0
1.161794 1.936323 39.516796 133 133 133 0
1.256788 1.933520 39.459589 133 133 133 0
1.353352 1.933359 39.456316 135 135 135 0
1.452568 1.936757 39.525657 133 133 133 0
1.549549 1.936936 39.529313 138 138 138 0
1.644342 1.934519 39.479989 135 135 135 0
1.745003 1.938892 39.569224 137 137 137 0
1.842208 1.939166 39.574818 138 138 138 0
1.938017 1.938017 39.551369 138 138 138 0
2.034815 1.937919 39.549377 137 137 137 0
2.137344 1.943040 39.653871 141 141 141 0
2.235089 1.943556 39.664404 140 140 140 0
2.329185 1.940988 39.611996 137 137 137 0
2.429604 1.943683 39.666997 136 136 136 0
2.527518 1.944245 39.678465 130 130 130 0
2.622321 1.942460 39.642047 132 132 132 0
2.717301 1.940929 39.610799 125 125 125 0
2.814991 1.941373 39.619852 124 124 124 0
2.905399 1.936933 39.529240 117 117 117 0
2.995223 1.932402 39.436773 109 109 109 0
3.071823 1.919889 39.181412 109 109 109 0
3.176713 1.925281 39.291447 108 108 108 0
3.274372 1.926101 39.308182 107 107 107 0
3.383817 1.933610 39.461426 110 110 110 0
3.497803 1.943224 39.657626 110 110 110 0
3.602031 1.947044 39.735593 117 117 117 0
3.709409 1.952321 39.843276 124 124 124 0
3.817592 1.957739 39.953863 130 130 130 0
3.918822 1.959411 39.987977 132 132 132 0
4.019357 1.960662 40.013509 137 137 137 0
4.119398 1.961618 40.033021 138 138 138 0
4.214898 1.960418 40.008525 134 134 134 0
4.314550 1.961159 40.023654 133 133 133 0
4.415052 1.962245 40.045819 133 133 133 0
4.514103 1.962653 40.054151 131 131 131 0
4.612887 1.962930 40.059805 133 133 133 0
4.714055 1.964190 40.085504 130 130 130 0
4.811944 1.964059 40.082830 127 127 127 0
4.913068 1.965227 40.106677 124 124 124 0
5.007548 1.963744 40.076415 118 118 118 0
5.113681 1.966800 40.138780 114 114 114 0
5.218172 1.969122 40.186154 116 116 116 0
5.310892 1.966997 40.142797 116 116 116 0
5.418574 1.970391 40.212055 116 116 116 0
5.520635 1.971655 40.237863 118 118 118 0
5.620868 1.972234 40.249683 117 117 117 0
5.716876 1.971336 40.231357 114 114 114 0
5.830423 1.976415 40.334993 101 101 101 0
5.933366 1.977789 40.363034 94 94 94 0
6.056696 1.985802 40.526572 91 91 91 0
6.170553 1.990501 40.622472 92 92 92 0
6.289520 1.996673 40.748432 93 93 93 0
6.405493 2.001716 40.851357 94 94 94 0
6.525859 2.007956 40.978704 93 93 93 0
6.653167 2.016111 41.145128 92 92 92 0
6.756906 2.016987 41.162997 93 93 93 0
6.877228 2.022714 41.279882 92 92 92 0
7.002642 2.029751 41.423494 93 93 93 0
7.115766 2.033076 41.491345 93 93 93 0
7.233309 2.037552 41.582688 94 94 94 0
7.348419 2.041228 41.657704 96 96 96 0
7.504758 2.056098 41.961188 99 99 99 0
7.611140 2.057065 41.980916 102 102 102 0
7.713222 2.056859 41.976720 103 103 103 0
7.790082 2.050022 41.837175 103 103 103 0
8.258243 2.144998 43.775471 105 105 105 0
8.538640 2.189395 44.681528 106 106 106 0
8.648526 2.189500 44.683681 102 102 102 0
-6.913793 1.814871 35.274453 139 139 139 0
-6.836825 1.817384 35.323300 141 141 141 0
-6.762434 1.820655 35.386886 145 145 145 0
-6.683329 1.822726 35.427133 135 135 135 0
-6.603611 1.824682 35.465149 136 136 136 0
-6.529855 1.828359 35.536627 135 135 135 0
-6.443864 1.828664 35.542549 138 138 138 0
-6.370441 1.832593 35.618903 142 142 142 0
-6.286065 1.833436 35.635290 151 151 151 0
-6.206238 1.835648 35.678285 152 152 152 0
-6.117014 1.835104 35.667723 154 154 154 0
-6.019797 1.832112 35.609565 152 152 152 0
-5.931065 1.831652 35.600629 148 148 148 0
-5.847731 1.832871 35.624314 149 149 149 0
-5.755656 1.831345 35.594655 148 148 148 0
-5.670874 1.832129 35.609887 149 149 149 0
-5.592481 1.835033 35.666334 148 148 148 0
-5.505628 1.835209 35.669764 146 146 146 0
-5.417102 1.834825 35.662288 149 149 149 0
-5.328417 1.834373 35.653507 148 148 148 0
-5.251494 1.838023 35.724452 154 154 154 0
-5.161146 1.837018 35.704917 153 153 153 0
-5.066586 1.834454 35.655077 152 152 152 0
-4.979275 1.834470 35.655387 156 156 156 0
-4.894525 1.835447 35.674377 152 152 152 0
-4.800829 1.833044 35.627670 155 155 155 0
-4.712816 1.832762 35.622188 157 157 157 0
-4.630787 1.834840 35.662589 156 156 156 0
-4.538485 1.832850 35.623903 158 158 158 0
-4.438219 1.827502 35.519959 158 158 158 0
-4.352834 1.828190 35.533341 153 153 153 0
-4.266530 1.828513 35.539611 157 157 157 0
-4.172359 1.825407 35.479247 155 155 155 0
-4.077022 1.821648 35.406185 154 154 154 0
-3.993261 1.823010 35.432658 152 152 152 0
-3.907945 1.823707 35.446209 145 145 145 0
-3.821792 1.824037 35.452614 133 133 133 0
-3.736577 1.824840 35.468218 122 122 122 0
-3.634831 1.817415 35.323914 115 115 115 0
-3.544087 1.815264 35.282098 114 114 114 0
-3.501231 1.838146 35.726844 137 137 137 0
-3.431397 1.847676 35.912061 154 154 154 0
-3.344902 1.848498 35.928054 158 158 158 0
-3.261144 1.850920 35.975115 154 154 154 0
-3.171159 1.849843 35.954183 154 154 154 0
-3.076777 1.846066 35.880787 155 155 155 0
-2.979156 1.840067 35.764173 154 154 154 0
-2.886598 1.836926 35.703128 153 153 153 0
-2.791646 1.832018 35.607730 154 154 154 0
-2.706498 1.833434 35.635264 157 157 157 0
-2.620116 1.834081 35.647832 156 156 156 0
-2.525276 1.828648 35.542238 155 155 155 0
-2.437991 1.828493 35.539231 155 155 155 0
-2.353377 1.830405 35.576379 154 154 154 0
-2.262651 1.827526 35.520426 154 154 154 0
-2.172776 1.825132 35.473895 154 154 154 0
-2.087049 1.826168 35.494028 150 150 150 0
-2.001073 1.827067 35.511506 150 150 150 0
-1.909005 1.822232 35.417532 151 151 151 0
-1.820934 1.820934 35.392298 149 149 149 0
-1.735778 1.822566 35.424032 150 150 150 0
-1.647636 1.821072 35.394979 149 149 149 0
-1.557189 1.816721 35.310416 150 150 150 0
-1.469820 1.815660 35.289789 149 149 149 0
-1.384249 1.816826 35.312465 148 148 148 0
-1.295114 1.813159 35.241187 148 148 148 0
-1.208099 1.812148 35.221535 145 145 145 0
-1.123007 1.814088 35.259244 137 137 137 0
-1.037838 1.816216 35.300605 127 127 127 0
-0.951455 1.816415 35.304469 123 123 123 0
-0.866090 1.818788 35.350592 123 123 123 0
-0.781954 1.824560 35.462774 110 110 110 0
-0.697116 1.829930 35.567151 91 91 91 0
-0.541553 1.624658 31.577419 86 86 86 0
-0.468167 1.638583 31.848065 79 79 79 0
-0.389130 1.634345 31.765691 72 72 72 0
0.580493 2.031726 39.489334 115 115 115 0
0.677682 2.033045 39.514964 129 129 129 0
0.775526 2.035757 39.567669 129 129 129 0
0.872654 2.036192 39.576128 129 129 129 0
0.968917 2.034725 39.547614 130 130 130 0
1.065738 2.034590 39.544994 129 129 129 0
1.163739 2.036543 39.582945 129 129 129 0
1.258613 2.033144 39.516887 129 129 129 0
1.354899 2.032348 39.501422 133 133 133 0
1.454278 2.035989 39.572184 133 133 133 0
1.551196 2.035945 39.571334 132 132 132 0
1.645180 2.032281 39.500120 133 133 133 0
1.745322 2.036210 39.576473 132 132 132 0
1.845486 2.039747 39.645236 133 133 133 0
1.940040 2.037042 39.592660 135 135 135 0
2.037621 2.037621 39.603912 138 138 138 0
2.138340 2.041143 39.672353 140 140 140 0
2.235287 2.040914 39.667911 139 139 139 0
2.329371 2.038199 39.615149 136 136 136 0
2.429152 2.040488 39.659627 136 136 136 0
2.530802 2.044109 39.730012 134 134 134 0
2.625082 2.041730 39.683774 134 134 134 0
2.722881 2.042161 39.692148 137 137 137 0
2.823642 2.044706 39.741620 132 132 132 0
2.922325 2.045627 39.759521 128 128 128 0
3.024412 2.048796 39.821098 128 128 128 0
3.124031 2.050145 39.847334 125 125 125 0
3.225752 2.052751 39.897978 130 130 130 0
3.323337 2.052649 39.895998 130 130 130 0
3.427898 2.056739 39.975485 132 132 132 0
3.523307 2.055263 39.946793 135 135 135 0
3.623236 2.056431 39.969511 135 135 135 0
3.722464 2.057151 39.983497 136 136 136 0
3.821087 2.057508 39.990442 140 140 140 0
3.920000 2.058000 40.000000 137 137 137 0
4.019665 2.058853 40.016578 136 136 136 0
4.122243 2.061122 40.060675 133 133 133 0
4.217655 2.059785 40.034692 131 131 131 0
4.316785 2.060284 40.044391 132 132 132 0
4.421391 2.063316 40.103318 129 129 129 0
4.520073 2.063511 40.107121 127 127 127 0
4.619728 2.064134 40.119216 125 125 125 0
4.721151 2.065504 40.145842 124 124 124 0
4.819251 2.065393 40.143699 121 121 121 0
4.918631 2.065825 40.152087 119 119 119 0
5.026286 2.069647 40.226379 119 119 119 0
5.128862 2.071271 40.257944 117 117 117 0
5.228666 2.071736 40.266970 116 116 116 0
5.323303 2.070173 40.236606 117 117 117 0
5.436139 2.075617 40.342404 119 119 119 0
5.531583 2.074344 40.317660 117 117 117 0
5.634438 2.075846 40.346854 110 110 110 0
5.740511 2.078461 40.397685 98 98 98 0
5.866073 2.087924 40.581618 92 92 92 0
5.968475 2.088966 40.601868 91 91 91 0
6.093053 2.097609 40.769846 93 93 93 0
6.210758 2.103644 40.887148 92 92 92 0
6.323218 2.107739 40.966754 92 92 92 0
6.435236 2.111562 41.041048 92 92 92 0
6.567672 2.121863 41.241266 92 92 92 0
6.692626 2.129472 41.389154 90 90 90 0
6.813059 2.135436 41.505081 92 92 92 0
6.925086 2.138629 41.567143 92 92 92 0
7.053166 2.146616 41.722366 94 94 94 0
7.176057 2.152817 41.842901 96 96 96 0
7.285851 2.154970 41.884741 98 98 98 0
7.390900 2.155679 41.898527 98 98 98 0
7.509358 2.160226 41.986903 101 101 101 0
7.614014 2.160734 41.996766 100 100 100 0
7.882124 2.206995 42.895912 101 101 101 0
7.987656 2.207116 42.898261 101 101 101 0
8.263033 2.253554 43.800862 103 103 103 0
8.541604 2.299663 44.697036 101 101 101 0
8.826046 2.346164 45.600860 102 102 102 0
-6.915178 1.901674 35.281523 137 137 137 0
-6.843234 1.905711 35.356415 137 137 137 0
-6.763498 1.907653 35.392453 143 143 143 0
-6.677692 1.907912 35.397254 135 135 135 0
-6.599721 1.910446 35.444258 139 139 139 0
-6.523416 1.913535 35.501581 139 139 139 0
-6.444853 1.916037 35.548005 139 139 139 0
-6.360800 1.916953 35.564996 147 147 147 0
-6.280446 1.919025 35.603437 147 147 147 0
-6.197893 1.920474 35.630315 154 154 154 0
-6.110868 1.920559 35.631885 154 154 154 0
-6.011477 1.916703 35.560346 149 149 149 0
-5.926476 1.917389 35.573085 151 151 151 0
-5.833582 1.915504 35.538116 148 148 148 0
-5.746488 1.915496 35.537960 148 148 148 0
-5.657844 1.914963 35.528062 145 145 145 0
-5.577911 1.917407 35.573413 144 144 144 0
-5.496996 1.919586 35.613841 147 147 147 0
-5.408906 1.919289 35.608336 146 146 146 0
-5.324348 1.920257 35.626281 149 149 149 0
-5.242181 1.922133 35.661092 149 149 149 0
-5.154561 1.922040 35.659362 150 150 150 0
-5.061725 1.919965 35.620865 153 153 153 0
-4.976123 1.920609 35.632816 151 151 151 0
-4.892627 1.922103 35.660546 152 152 152 0
-4.797882 1.919153 35.605802 154 154 154 0
-4.710549 1.919112 35.605054 153 153 153 0
-4.626301 1.920351 35.628040 155 155 155 0
-4.538450 1.920114 35.623628 156 156 156 0
-4.437617 1.914266 35.515139 156 156 156 0
-4.348054 1.913144 35.494317 154 154 154 0
-4.262051 1.913574 35.502297 155 155 155 0
-4.168984 1.910784 35.450547 156 156 156 0
-4.075413 1.907640 35.392207 155 155 155 0
-3.993134 1.909760 35.431531 154 154 154 0
-3.907229 1.910201 35.439716 144 144 144 0
-3.817956 1.908978 35.417036 133 133 133 0
-3.740198 1.913590 35.502590 118 118 118 0
-3.630189 1.901528 35.278807 114 114 114 0
-3.543477 1.901378 35.276027 115 115 115 0
-3.484492 1.916471 35.556046 135 135 135 0
-3.429655 1.934677 35.893826 149 149 149 0
-3.345046 1.936606 35.929606 158 158 158 0
-3.260519 1.938687 35.968222 155 155 155 0
-3.173441 1.939325 35.980052 156 156 156 0
-3.078490 1.935051 35.900756 151 151 151 0
-2.982512 1.929860 35.804460 151 151 151 0
-2.885343 1.923562 35.687601 150 150 150 0
-2.793202 1.920326 35.627573 154 154 154 0
-2.705592 1.920097 35.623328 155 155 155 0
-2.620072 1.921386 35.647241 156 156 156 0
-2.527115 1.917122 35.568126 154 154 154 0
-2.439678 1.916890 35.563826 154 154 154 0
-2.354410 1.918408 35.591991 154 154 154 0
-2.263738 1.915470 35.537482 153 153 153 0
-2.173081 1.912311 35.478876 153 153 153 0
-2.087592 1.913626 35.503273 151 151 151 0
-2.000949 1.913952 35.509306 151 151 151 0
-1.911101 1.911101 35.456413 151 151 151 0
-1.821896 1.908653 35.410997 150 150 150 0
-1.737209 1.910930 35.453250 148 148 148 0
-1.648185 1.908425 35.406770 150 150 150 0
-1.557569 1.903696 35.319027 148 148 148 0
-1.470821 1.903415 35.313822 149 149 149 0
-1.385265 1.904739 35.338381 149 149 149 0
-1.296096 1.900941 35.267924 147 147 147 0
-1.208845 1.899613 35.243288 145 145 145 0
-1.123408 1.901153 35.271851 140 140 140 0
-1.038475 1.903870 35.322269 129 129 129 0
-0.951859 1.903718 35.319435 124 124 124 0
-0.866649 1.906629 35.373444 122 122 122 0
-0.782402 1.912537 35.483068 112 112 112 0
-0.619949 1.704859 31.630028 94 94 94 0
-0.543656 1.708635 31.700084 83 83 83 0
-0.469170 1.720288 31.916296 74 74 74 0
-0.391151 1.721066 31.930719 71 71 71 0
0.581597 2.132524 39.564448 115 115 115 0
0.679240 2.134754 39.605818 126 126 126 0
0.777165 2.137205 39.651293 126 126 126 0
0.874265 2.137093 39.649221 127 127 127 0
0.970047 2.134103 39.593749 127 127 127 0
1.067448 2.134897 39.608479 126 126 126 0
1.166282 2.138184 39.669465 127 127 127 0
1.260651 2.133409 39.580874 129 129 129 0
1.357091 2.132571 39.565329 130 130 130 0
1.456131 2.135659 39.622623 129 129 129 0
1.553844 2.136536 39.638885 131 131 131 0
1.647768 2.132406 39.562264 130 130 130 0
1.747678 2.136051 39.629898 131 131 131 0
1.846734 2.138323 39.672045 131 131 131 0
1.942182 2.136400 39.636367 131 131 131 0
2.038313 2.135376 39.617361 131 131 131 0
2.140115 2.140115 39.705286 135 135 135 0
2.236399 2.139164 39.687644 131 131 131 0
2.331608 2.137308 39.653202 132 132 132 0
2.430265 2.138633 39.677799 135 135 135 0
2.530433 2.141136 39.724227 133 133 133 0
2.627660 2.141056 39.722745 135 135 135 0
2.722666 2.139237 39.689006 133 133 133 0
2.827121 2.144713 39.790587 120 120 120 0
2.924736 2.144807 39.792329 125 125 125 0
3.024673 2.146542 39.824532 128 128 128 0
3.123398 2.147336 39.839262 128 128 128 0
3.225891 2.150594 39.899704 132 132 132 0
3.326912 2.152708 39.938917 132 132 132 0
3.425067 2.152899 39.942472 133 133 133 0
3.522458 2.152613 39.937161 134 134 134 0
3.627681 2.156999 40.018539 135 135 135 0
3.724241 2.156140 40.002593 135 135 135 0
3.822341 2.156193 40.003572 136 136 136 0
3.920082 2.156045 40.000841 136 136 136 0
4.017660 2.155817 39.996613 132 132 132 0
4.120197 2.158198 40.040788 129 129 129 0
4.218925 2.158520 40.046753 126 126 126 0
4.324601 2.162300 40.116889 127 127 127 0
4.425906 2.163776 40.144276 122 122 122 0
4.527176 2.165171 40.170147 124 124 124 0
4.620811 2.162933 40.128624 122 122 122 0
4.728661 2.167303 40.209702 121 121 121 0
4.830795 2.168928 40.239856 120 120 120 0
4.928522 2.168550 40.232831 116 116 116 0
5.032753 2.170992 40.278138 117 117 117 0
5.140031 2.174629 40.345613 114 114 114 0
5.239521 2.174896 40.350566 117 117 117 0
5.335475 2.173712 40.328606 119 119 119 0
5.448020 2.179208 40.430577 119 119 119 0
5.550423 2.180523 40.454979 109 109 109 0
5.659030 2.184187 40.522947 95 95 95 0
5.775386 2.190664 40.643110 91 91 91 0
5.884177 2.194100 40.706862 93 93 93 0
6.014232 2.205218 40.913142 90 90 90 0
6.121386 2.207713 40.959426 90 90 90 0
6.248254 2.217122 41.133995 89 89 89 0
6.376308 2.226647 41.310711 92 92 92 0
6.499456 2.234188 41.450612 92 92 92 0
6.611038 2.237582 41.513581 91 91 91 0
6.729950 2.243317 41.619978 93 93 93 0
6.885284 2.260839 41.945074 92 92 92 0
6.983704 2.259434 41.918992 91 91 91 0
7.091416 2.261031 41.948628 94 94 94 0
7.212527 2.266794 42.055550 96 96 96 0
7.333855 2.272462 42.160708 99 99 99 0
7.427215 2.269427 42.104396 98 98 98 0
7.356557 2.217044 41.132550 99 99 99 0
7.649289 2.274113 42.191337 100 100 100 0
7.748471 2.272885 42.168550 100 100 100 0
7.993395 2.313878 42.929083 103 103 103 0
8.266763 2.361932 43.820636 103 103 103 0
8.545727 2.410333 44.718611 101 101 101 0
8.830656 2.459170 45.624677 99 99 99 0
-6.920638 1.989684 35.309380 133 133 133 0
-6.837758 1.990740 35.328120 139 139 139 0
-6.765612 1.994988 35.403516 150 150 150 0
-6.672670 1.993135 35.370632 141 141 141 0
-6.597811 1.996706 35.434002 139 139 139 0
-6.514011 1.997630 35.450399 143 143 143 0
-6.440436 2.001757 35.523643 144 144 144 0
-6.356619 2.002770 35.541623 149 149 149 0
-6.274700 2.004418 35.570861 151 151 151 0
-6.196209 2.007223 35.620634 153 153 153 0
-6.103752 2.005518 35.590389 151 151 151 0
-6.003136 2.001045 35.511008 151 151 151 0
-5.918159 2.001730 35.523163 149 149 149 0
-5.829484 2.001166 35.513150 143 143 143 0
-5.731936 1.997493 35.447962 148 148 148 0
-5.651333 1.999702 35.487178 143 143 143 0
-5.569353 2.001486 35.518831 145 145 145 0
-5.485955 2.002809 35.542306 146 146 146 0
-5.400595 2.003447 35.553621 147 147 147 0
-5.317988 2.005143 35.583724 148 148 148 0
-5.234673 2.006625 35.610023 146 146 146 0
-5.142387 2.004659 35.575144 149 149 149 0
-5.051198 2.003061 35.546786 151 151 151 0
-4.969768 2.005345 35.587312 148 148 148 0
-4.888043 2.007589 35.627135 151 151 151 0
-4.792203 2.004012 35.563658 154 154 154 0
-4.705562 2.004221 35.567364 156 156 156 0
-4.620024 2.004916 35.579698 157 157 157 0
-4.530838 2.004025 35.563880 157 157 157 0
-4.433707 1.999515 35.483846 156 156 156 0
-4.348770 2.000434 35.500165 154 154 154 0
-4.262051 2.000554 35.502297 156 156 156 0
-4.164061 1.995279 35.408679 156 156 156 0
-4.074127 1.993722 35.381044 156 156 156 0
-3.989389 1.994694 35.398303 155 155 155 0
-3.904197 1.995478 35.412218 145 145 145 0
-3.815666 1.994553 35.395793 133 133 133 0
-3.731249 1.995784 35.417648 121 121 121 0
-3.646776 1.997044 35.440004 112 112 112 0
-3.542909 1.987486 35.270374 114 114 114 0
-3.477283 1.999438 35.482477 123 123 123 0
-3.419149 2.016421 35.783873 142 142 142 0
-3.344716 2.024433 35.926055 161 161 161 0
-3.261650 2.027512 35.980692 159 159 159 0
-3.175515 2.028801 36.003570 155 155 155 0
-3.088090 2.029317 36.012716 154 154 154 0
-2.989724 2.022460 35.891040 151 151 151 0
-2.891784 2.015486 35.767272 149 149 149 0
-2.795117 2.008990 35.651999 153 153 153 0
-2.708427 2.009478 35.660662 153 153 153 0
-2.620860 2.009326 35.657959 152 152 152 0
-2.527525 2.004589 35.573896 153 153 153 0
-2.440525 2.004717 35.576171 154 154 154 0
-2.354159 2.005395 35.588201 151 151 151 0
-2.265684 2.004259 35.568031 151 151 151 0
-2.173850 1.999942 35.491424 151 151 151 0
-2.088651 2.001624 35.521276 151 151 151 0
-2.004410 2.004410 35.570715 151 151 151 0
-1.912936 1.999888 35.490472 151 151 151 0
-1.822718 1.996310 35.426980 150 150 150 0
-1.738662 1.999462 35.482906 150 150 150 0
-1.649746 1.997060 35.440290 149 149 149 0
-1.558924 1.991959 35.349755 148 148 148 0
-1.472449 1.992137 35.352927 149 149 149 0
-1.385564 1.991748 35.346015 147 147 147 0
-1.297368 1.989297 35.302525 147 147 147 0
-1.209538 1.987098 35.263490 146 146 146 0
-1.123984 1.988587 35.289925 142 142 142 0
-1.039120 1.991646 35.344205 132 132 132 0
-0.951799 1.990126 35.317230 122 122 122 0
-0.866459 1.992856 35.365680 123 123 123 0
-0.782415 1.999506 35.483684 110 110 110 0
-0.620756 1.784675 31.671245 89 89 89 0
-0.545236 1.791491 31.792203 82 82 82 0
-0.469551 1.799946 31.942247 73 73 73 0
-0.381664 1.755653 31.156219 69 69 69 0
0.583516 2.236813 39.694990 116 116 116 0
0.680532 2.236034 39.681176 122 122 122 0
0.778654 2.238629 39.727227 123 123 123 0
0.877046 2.241339 39.775324 124 124 124 0
0.972117 2.235870 39.678256 124 124 124 0
1.070688 2.238712 39.728696 124 124 124 0
1.168079 2.238818 39.730574 125 125 125 0
1.264028 2.236357 39.686911 125 125 125 0
1.360309 2.234793 39.659145 127 127 127 0
1.458900 2.236981 39.697969 129 129 129 0
1.557112 2.238348 39.722243 128 128 128 0
1.650544 2.233089 39.628906 128 128 128 0
1.750968 2.237348 39.704495 128 128 128 0
1.848663 2.237855 39.713494 128 128 128 0
1.943524 2.235053 39.663759 132 132 132 0
2.040206 2.234512 39.654157 130 130 130 0
2.141055 2.238375 39.722722 129 129 129 0
2.239233 2.239233 39.737937 128 128 128 0
2.336378 2.239029 39.734325 128 128 128 0
2.433367 2.238698 39.728440 126 126 126 0
2.533467 2.241144 39.771855 125 125 125 0
2.629894 2.240280 39.756525 122 122 122 0
2.728732 2.241458 39.777428 120 120 120 0
2.828458 2.243260 39.809405 120 120 120 0
2.928257 2.244997 39.840234 126 126 126 0
3.027126 2.245932 39.856823 129 129 129 0
3.125706 2.246601 39.868694 130 130 130 0
3.228527 2.250186 39.932309 131 131 131 0
3.326389 2.250205 39.932645 132 132 132 0
3.425890 2.251299 39.952068 131 131 131 0
3.526169 2.252830 39.979238 132 132 132 0
3.625729 2.253832 39.997013 131 131 131 0
3.725593 2.254964 40.017106 133 133 133 0
3.827180 2.257055 40.054216 130 130 130 0
3.926243 2.257590 40.063707 130 130 130 0
4.024944 2.257895 40.069126 128 128 128 0
4.128410 2.260796 40.120604 126 126 126 0
4.225777 2.260299 40.111786 122 122 122 0
4.329092 2.262935 40.158555 121 121 121 0
4.430671 2.264565 40.187495 120 120 120 0
4.535550 2.267775 40.244452 117 117 117 0
4.632288 2.266864 40.228295 118 118 118 0
4.738741 2.270647 40.295420 116 116 116 0
4.842678 2.273094 40.338846 115 115 115 0
4.941042 2.272879 40.335038 114 114 114 0
5.041782 2.273745 40.350398 115 115 115 0
5.151346 2.278480 40.434430 117 117 117 0
5.253609 2.279868 40.459062 118 118 118 0
5.347720 2.277733 40.421167 116 116 116 0
5.459097 2.282895 40.512781 108 108 108 0
5.558552 2.282977 40.514227 94 94 94 0
5.676255 2.290418 40.646291 89 89 89 0
5.816949 2.306721 40.935601 87 87 87 0
5.936876 2.314375 41.071435 88 88 88 0
6.065480 2.325101 41.261769 89 89 89 0
6.197998 2.336950 41.472048 89 89 89 0
6.302565 2.338048 41.491541 88 88 88 0
6.457304 2.357429 41.835467 90 90 90 0
6.575052 2.362909 41.932730 89 89 89 0
5.850709 2.070251 36.739148 92 92 92 0
6.832580 2.381050 42.254667 92 92 92 0
6.941672 2.382962 42.288589 95 95 95 0
7.052377 2.385363 42.331194 95 95 95 0
7.145103 2.381701 42.266209 98 98 98 0
7.268378 2.388181 42.381210 96 96 96 0
7.372698 2.388339 42.384006 99 99 99 0
7.493218 2.393667 42.478559 100 100 100 0
7.578597 2.387777 42.374040 101 101 101 0
7.682070 2.387670 42.372146 101 101 101 0
7.790032 2.388943 42.394734 101 101 101 0
7.910508 2.393969 42.483930 99 99 99 0
8.272597 2.471035 43.851559 99 99 99 0
8.550261 2.521231 44.742340 97 97 97 0
8.315894 2.421083 42.965095 97 97 97 0
-6.923622 2.077087 35.324600 138 138 138 0
-6.846810 2.080044 35.374891 145 145 145 0
-6.762396 2.080737 35.386690 145 145 145 0
-6.675640 2.080719 35.386377 140 140 140 0
-6.594486 2.082469 35.416142 144 144 144 0
-6.522415 2.087173 35.496136 145 145 145 0
-6.440611 2.088847 35.524606 154 154 154 0
-6.349012 2.087346 35.499088 149 149 149 0
-6.268884 2.089628 35.537889 151 151 151 0
-6.185763 2.090962 35.560580 153 153 153 0
-6.090059 2.088020 35.510549 152 152 152 0
-5.990966 2.083814 35.439018 152 152 152 0
-5.902685 2.083301 35.430282 153 153 153 0
-5.817455 2.083865 35.439874 144 144 144 0
-5.722542 2.080924 35.389872 148 148 148 0
-5.643840 2.083879 35.440125 146 146 146 0
-5.559698 2.084887 35.457260 146 146 146 0
-5.473059 2.084975 35.458758 142 142 142 0
-5.383484 2.083929 35.440973 143 143 143 0
-5.303247 2.086523 35.485093 145 145 145 0
-5.227289 2.090916 35.559790 149 149 149 0
-5.136190 2.089298 35.532271 149 149 149 0
-5.046630 2.088261 35.514638 148 148 148 0
-4.966365 2.091101 35.562942 149 149 149 0
-4.881883 2.092236 35.582241 150 150 150 0
-4.787077 2.088906 35.525620 152 152 152 0
-4.702412 2.089961 35.543556 153 153 153 0
-4.617499 2.090943 35.560257 152 152 152 0
-4.526695 2.089244 35.531355 155 155 155 0
-4.430677 2.085025 35.459601 156 156 156 0
-4.346034 2.086096 35.477825 156 156 156 0
-4.259830 2.086447 35.483799 158 158 158 0
-4.162601 2.081300 35.396267 157 157 157 0
-4.073450 2.080059 35.375160 159 159 159 0
-3.987719 2.080549 35.383490 158 158 158 0
-3.902033 2.081084 35.392590 148 148 148 0
-3.814577 2.080679 35.385689 130 130 130 0
-3.744081 2.089720 35.539453 121 121 121 0
-3.641872 2.081070 35.392346 120 120 120 0
-3.541776 2.073235 35.259098 114 114 114 0
-3.462177 2.077306 35.328338 121 121 121 0
-3.413954 2.100895 35.729506 134 134 134 0
-3.344516 2.112326 35.923905 155 155 155 0
-3.263101 2.116606 35.996704 159 159 159 0
-3.179051 2.119367 36.043663 158 158 158 0
-3.087119 2.116881 36.001386 156 156 156 0
-2.995478 2.114455 35.960125 148 148 148 0
-2.898203 2.107784 35.846667 152 152 152 0
-2.797206 2.097905 35.678651 150 150 150 0
-2.708487 2.096893 35.661451 151 151 151 0
-2.620945 2.096756 35.659121 152 152 152 0
-2.527506 2.091729 35.573619 151 151 151 0
-2.440670 2.092003 35.578277 153 153 153 0
-2.355975 2.094200 35.615651 152 152 152 0
-2.267276 2.092870 35.593032 152 152 152 0
-2.176191 2.089143 35.529644 151 151 151 0
-2.090502 2.090502 35.552752 153 153 153 0
-2.004335 2.091480 35.569394 151 151 151 0
-1.912904 2.086804 35.489863 152 152 152 0
-1.824241 2.084847 35.456577 150 150 150 0
-1.739152 2.086983 35.492901 151 151 151 0
-1.652366 2.087199 35.496584 152 152 152 0
-1.560320 2.080427 35.381409 149 149 149 0
-1.473178 2.079780 35.370413 149 149 149 0
-1.387475 2.081212 35.394768 146 146 146 0
-1.298398 2.077437 35.330564 147 147 147 0
-1.210135 2.074517 35.280904 146 146 146 0
-1.124845 2.076637 35.316958 143 143 143 0
-1.039763 2.079525 35.366073 135 135 135 0
-0.952433 2.078035 35.340735 124 124 124 0
-0.866842 2.080420 35.381291 120 120 120 0
-0.782538 2.086767 35.489231 104 104 104 0
-0.699450 2.098349 35.686208 85 85 85 0
-0.545192 1.869229 31.789613 78 78 78 0
-0.467998 1.871993 31.836621 74 74 74 0
-0.387581 1.860389 31.639264 68 68 68 0
0.485399 2.329915 39.624397 72 72 72 0
0.584800 2.339199 39.782298 116 116 116 0
0.682797 2.341020 39.813265 120 120 120 0
0.780563 2.341690 39.824661 121 121 121 0
0.878043 2.341447 39.820535 122 122 122 0
0.974838 2.339612 39.789315 123 123 123 0
1.071673 2.338195 39.765229 123 123 123 0
1.170409 2.340818 39.809837 123 123 123 0
1.266724 2.338567 39.771545 123 123 123 0
1.362733 2.336113 39.729821 125 125 125 0
1.461907 2.339052 39.779795 126 126 126 0
1.559454 2.339181 39.781982 124 124 124 0
1.653410 2.334226 39.697729 125 125 125 0
1.753829 2.338439 39.769365 124 124 124 0
1.852349 2.339810 39.792685 125 125 125 0
1.949565 2.339478 39.787038 126 126 126 0
2.044753 2.336861 39.742530 122 122 122 0
2.146230 2.341342 39.818741 123 123 123 0
2.243091 2.340617 39.806415 124 124 124 0
2.339764 2.339764 39.791900 123 123 123 0
2.439591 2.342007 39.830055 122 122 122 0
2.538510 2.343240 39.851025 122 122 122 0
2.636359 2.343430 39.854257 120 120 120 0
2.734253 2.343645 39.857910 118 118 118 0
2.834403 2.345713 39.893073 120 120 120 0
2.933492 2.346794 39.911460 124 124 124 0
3.035402 2.349989 39.965792 126 126 126 0
3.132575 2.349432 39.956319 126 126 126 0
3.231382 2.350096 39.967624 126 126 126 0
3.328020 2.349191 39.952222 128 128 128 0
3.428669 2.351087 39.984475 127 127 127 0
3.532058 2.354705 40.046010 127 127 127 0
3.629293 2.354136 40.036327 127 127 127 0
3.731523 2.356751 40.080804 126 126 126 0
3.830777 2.357401 40.091853 126 126 126 0
3.929356 2.357614 40.095470 125 125 125 0
4.028694 2.358260 40.106458 122 122 122 0
4.134523 2.362584 40.180005 118 118 118 0
4.231088 2.361538 40.162205 115 115 115 0
4.335260 2.364687 40.215773 115 115 115 0
4.440849 2.368453 40.279808 116 116 116 0
4.545745 2.371693 40.334920 115 115 115 0
4.643023 2.370906 40.321522 115 115 115 0
4.748069 2.374034 40.374735 113 113 113 0
4.853506 2.377227 40.429038 115 115 115 0
4.952248 2.377079 40.426517 117 117 117 0
5.054643 2.378656 40.453328 118 118 118 0
5.162696 2.382783 40.523519 115 115 115 0
5.266073 2.384637 40.555047 110 110 110 0
5.374693 2.388752 40.625038 98 98 98 0
5.486801 2.394241 40.718376 87 87 87 0
4.716771 2.021473 34.378798 88 88 88 0
5.732771 2.413798 41.050991 88 88 88 0
5.901549 2.442020 41.530956 86 86 86 0
6.024953 2.450828 41.680752 86 86 86 0
6.135194 2.454078 41.736014 88 88 88 0
6.296453 2.477293 42.130835 91 91 91 0
6.394363 2.475237 42.095875 92 92 92 0
6.541512 2.492004 42.381027 90 90 90 0
6.647767 2.492912 42.396470 93 93 93 0
6.759699 2.495889 42.447087 94 94 94 0
6.893244 2.506634 42.629831 94 94 94 0
7.000362 2.507592 42.646126 96 96 96 0
7.090553 2.502548 42.560340 98 98 98 0
7.205268 2.506180 42.622109 97 97 97 0
7.318578 2.509227 42.673922 96 96 96 0
7.428918 2.511184 42.707205 96 96 96 0
7.561263 2.520421 42.864304 98 98 98 0
7.632090 2.509180 42.673136 101 101 101 0
7.725165 2.505459 42.609847 100 100 100 0
7.893480 2.525914 42.957716 101 101 101 0
8.166466 2.578884 43.858569 98 98 98 0
8.275258 2.579301 43.865666 98 98 98 0
8.557795 2.633168 44.781764 96 96 96 0
8.492023 2.579855 43.875084 95 95 95 0
-6.921310 2.162909 35.312806 140 140 140 0
-6.843366 2.165622 35.357099 140 140 140 0
-6.767944 2.169213 35.415720 140 140 140 0
-6.685234 2.170530 35.437232 143 143 143 0
-6.607948 2.173667 35.488440 155 155 155 0
-6.529982 2.176661 35.537317 159 159 159 0
-6.445302 2.177467 35.550478 156 156 156 0
-6.354170 2.176086 35.527930 154 154 154 0
-6.263105 2.174689 35.505132 149 149 149 0
-6.178381 2.175486 35.518142 153 153 153 0
-6.075994 2.169998 35.428539 152 152 152 0
-5.980397 2.166811 35.376501 149 149 149 0
-5.900056 2.169138 35.414504 149 149 149 0
-5.805192 2.166117 35.365168 146 146 146 0
-5.715668 2.165026 35.347358 147 147 147 0
-5.634395 2.167075 35.380815 144 144 144 0
-5.551692 2.168630 35.406197 142 142 142 0
-5.472158 2.171491 35.452919 144 144 144 0
-5.373644 2.166792 35.376194 143 143 143 0
-5.299880 2.172082 35.462559 144 144 144 0
-5.218269 2.174279 35.498427 147 147 147 0
-5.124812 2.171530 35.453557 145 145 145 0
-5.044482 2.174346 35.499522 148 148 148 0
-4.962759 2.176648 35.537118 150 150 150 0
-4.874155 2.175962 35.525913 149 149 149 0
-4.782714 2.173961 35.493239 150 150 150 0
-4.696181 2.174158 35.496456 152 152 152 0
-4.613028 2.175957 35.525824 151 151 151 0
-4.524338 2.175162 35.512853 155 155 155 0
-4.427668 2.170425 35.435516 156 156 156 0
-4.343960 2.171980 35.460897 158 158 158 0
-4.255260 2.171051 35.445729 155 155 155 0
-4.158824 2.166054 35.364150 160 160 160 0
-4.071493 2.165688 35.358168 157 157 157 0
-3.988092 2.167442 35.386801 161 161 161 0
-3.900067 2.166704 35.374761 152 152 152 0
-3.814665 2.167423 35.386505 132 132 132 0
-3.734409 2.171168 35.447638 121 121 121 0
-3.649201 2.172143 35.463564 116 116 116 0
-3.532037 2.153681 35.162137 120 120 120 0
-3.459329 2.162080 35.299272 118 118 118 0
-3.417447 2.190671 35.766060 137 137 137 0
-3.350296 2.204142 35.985994 160 160 160 0
-3.262322 2.204272 35.988109 164 164 164 0
-3.175153 2.204967 35.999469 160 160 160 0
-3.090167 2.207262 36.036933 155 155 155 0
-3.001059 2.206661 36.027113 160 160 160 0
-2.902385 2.198777 35.898393 152 152 152 0
-2.801946 2.189020 35.739110 152 152 152 0
-2.708707 2.184441 35.664351 152 152 152 0
-2.623580 2.186317 35.694967 153 153 153 0
-2.529982 2.181019 35.608469 153 153 153 0
-2.441500 2.179910 35.590372 153 153 153 0
-2.356093 2.181567 35.617427 155 155 155 0
-2.267072 2.179877 35.589825 154 154 154 0
-2.176453 2.176453 35.533922 154 154 154 0
-2.090468 2.177571 35.552183 153 153 153 0
-2.005290 2.179664 35.586344 153 153 153 0
-1.914369 2.175419 35.517053 152 152 152 0
-1.824471 2.171989 35.461050 152 152 152 0
-1.740263 2.175328 35.515562 152 152 152 0
-1.652754 2.174676 35.504919 151 151 151 0
-1.560719 2.167665 35.390453 151 151 151 0
-1.473789 2.167337 35.385091 149 149 149 0
-1.388370 2.169327 35.417592 149 149 149 0
-1.299360 2.165599 35.356722 148 148 148 0
-1.210789 2.162123 35.299963 147 147 147 0
-1.125930 2.165249 35.351006 142 142 142 0
-1.040046 2.166762 35.375699 137 137 137 0
-0.952955 2.165806 35.360100 127 127 127 0
-0.867597 2.168993 35.412127 114 114 114 0
-0.783449 2.176247 35.530558 95 95 95 0
-0.621995 1.943735 31.734445 81 81 81 0
-0.548281 1.958146 31.969734 72 72 72 0
-0.421859 1.757746 28.697901 70 70 70 0
0.487121 2.435605 39.764980 80 80 80 0
0.586352 2.443134 39.887899 118 118 118 0
0.684626 2.445094 39.919906 119 119 119 0
0.782604 2.445637 39.928766 118 118 118 0
0.880534 2.445929 39.933536 119 119 119 0
0.977169 2.442923 39.884452 121 121 121 0
1.075506 2.444332 39.907468 121 121 121 0
1.172856 2.443450 39.893060 120 120 120 0
1.269501 2.441349 39.858760 121 121 121 0
1.368345 2.443473 39.893432 121 121 121 0
1.465008 2.441681 39.864171 118 118 118 0
1.563518 2.442997 39.885669 119 119 119 0
1.658716 2.439288 39.825113 118 118 118 0
1.757610 2.441125 39.855105 120 120 120 0
1.855456 2.441389 39.859412 120 120 120 0
1.952772 2.440965 39.852484 120 120 120 0
2.048261 2.438406 39.810706 120 120 120 0
2.150964 2.444277 39.906571 118 118 118 0
2.247082 2.442480 39.877227 120 120 120 0
2.345769 2.443509 39.894029 117 117 117 0
2.445639 2.445639 39.928806 117 117 117 0
2.545723 2.447810 39.964247 120 120 120 0
2.643013 2.447235 39.954850 118 118 118 0
2.741476 2.447746 39.963207 117 117 117 0
2.840005 2.448280 39.971920 119 119 119 0
2.938428 2.448690 39.978614 122 122 122 0
3.041140 2.452532 40.041339 122 122 122 0
3.138647 2.452068 40.033768 121 121 121 0
3.237187 2.452414 40.039418 121 121 121 0
3.337244 2.453856 40.062951 121 121 121 0
3.438378 2.455985 40.097707 118 118 118 0
3.538856 2.457539 40.123081 121 121 121 0
3.635493 2.456414 40.104718 119 119 119 0
3.740402 2.460791 40.176172 117 117 117 0
3.837062 2.459655 40.157630 119 119 119 0
3.938626 2.461641 40.190058 114 114 114 0
4.038259 2.462353 40.201681 114 114 114 0
4.144406 2.466908 40.276053 113 113 113 0
4.241645 2.466073 40.262413 111 111 111 0
4.347171 2.469983 40.326258 109 109 109 0
4.450773 2.472652 40.369826 113 113 113 0
4.555600 2.475870 40.422360 113 113 113 0
4.651841 2.474383 40.398094 114 114 114 0
4.762463 2.480449 40.497135 115 115 115 0
4.865644 2.482472 40.530150 120 120 120 0
4.967399 2.483699 40.550196 120 120 120 0
5.063943 2.482325 40.527753 110 110 110 0
5.182231 2.491457 40.676849 96 96 96 0
5.290803 2.495662 40.745502 87 87 87 0
5.420844 2.509650 40.973878 82 82 82 0
5.576025 2.534557 41.380518 84 84 84 0
5.730430 2.558228 41.766984 86 86 86 0
5.895643 2.585808 42.217279 87 87 87 0
5.997228 2.585012 42.204278 90 90 90 0
6.131308 2.598012 42.416522 91 91 91 0
6.237086 2.598786 42.429155 93 93 93 0
6.361416 2.607138 42.565513 92 92 92 0
6.488574 2.616360 42.716087 93 93 93 0
6.606517 2.621634 42.802187 93 93 93 0
6.715170 2.623113 42.826338 93 93 93 0
6.835627 2.629087 42.923877 93 93 93 0
6.954555 2.634301 43.008998 98 98 98 0
7.042702 2.627874 42.904065 99 99 99 0
7.166439 2.634720 43.015842 99 99 99 0
7.272295 2.634889 43.018602 93 93 93 0
7.396018 2.641435 43.125471 98 98 98 0
7.488686 2.636861 43.050796 99 99 99 0
7.606173 2.641032 43.118897 99 99 99 0
7.720804 2.644111 43.169159 98 98 98 0
7.811615 2.639059 43.086680 97 97 97 0
7.922381 2.640794 43.114996 98 98 98 0
8.029826 2.641390 43.124739 96 96 96 0
8.284875 2.689894 43.916644 96 96 96 0
8.562594 2.744421 44.806874 95 95 95 0
8.674020 2.744943 44.815399 95 95 95 0
-6.926826 2.251219 35.340951 136 136 136 0
-6.848867 2.254058 35.385520 136 136 136 0
-6.780623 2.260208 35.482066 151 151 151 0
-6.702397 2.263147 35.528211 160 160 160 0
-6.616567 2.263562 35.534731 159 159 159 0
-6.530964 2.264067 35.542660 157 157 157 0
-6.435032 2.260957 35.493832 155 155 155 0
-6.342838 2.259093 35.464571 155 155 155 0
-6.257583 2.259683 35.473828 153 153 153 0
-6.161183 2.256208 35.419278 156 156 156 0
-6.059107 2.250526 35.330071 149 149 149 0
-5.971200 2.250018 35.322097 152 152 152 0
-5.885607 2.250379 35.327776 152 152 152 0
