ply
format ascii 1.0
element vertex 1125
property float x
property float y
property float z
property uchar red
property uchar green
property uchar blue
property uchar alpha
end_header
6.237617 6.051420 37.999495 131 132 132 0
6.331094 6.051781 38.001762 129 129 129 0
6.574094 6.192987 38.888459 128 128 128 0
6.523143 6.057204 38.035819 128 128 128 0
6.457873 5.912137 37.124879 125 125 125 0
6.716638 6.063631 38.076177 127 127 127 0
6.798672 6.053612 38.013265 128 128 128 0
6.911304 6.070740 38.120817 133 133 133 0
7.637819 6.619443 41.566361 130 130 130 0
7.103676 6.075512 38.150783 128 128 128 0
8.180753 6.905830 43.364711 126 126 126 0
8.459205 7.049337 44.265855 129 129 129 0
8.744639 7.194956 45.180259 132 132 132 0
-6.761016 5.577838 34.494978 151 151 151 0
-6.671435 5.573604 34.468792 152 152 152 0
-6.581408 5.568884 34.439602 150 150 150 0
-6.500207 5.571606 34.456437 148 148 148 0
-6.415456 5.571317 34.454652 149 149 149 0
-6.320918 5.562408 34.399555 146 146 146 0
-6.237350 5.563042 34.403475 146 146 146 0
-6.155029 5.564821 34.414475 147 147 147 0
-6.071898 5.565906 34.421188 151 151 151 0
-5.982703 5.561386 34.393232 153 153 153 0
-5.899221 5.562122 34.397787 146 146 146 0
-5.826488 5.573162 34.466061 138 138 138 0
-5.741994 5.573112 34.465751 141 141 141 0
-5.662029 5.577521 34.493016 136 136 136 0
-5.584626 5.584626 34.536954 136 136 136 0
-5.512606 5.597415 34.616051 141 141 141 0
-5.435530 5.605391 34.665373 137 137 137 0
-5.348100 5.602771 34.649174 136 136 136 0
-5.271542 5.611641 34.704029 135 135 135 0
-5.194000 5.619738 34.754099 135 135 135 0
-5.118286 5.630115 34.818273 138 138 138 0
-5.033775 5.631002 34.823763 140 140 140 0
-4.956201 5.639815 34.878264 144 144 144 0
-4.874119 5.643716 34.902390 147 147 147 0
-4.793608 5.649610 34.938836 147 147 147 0
-4.711006 5.653208 34.961087 147 147 147 0
-4.625983 5.653979 34.965858 142 142 142 0
-4.544267 5.658898 34.996277 148 148 148 0
-4.459769 5.660476 35.006036 150 150 150 0
-4.374859 5.661582 35.012875 149 149 149 0
-4.291613 5.664929 35.033574 151 151 151 0
-4.204689 5.663459 35.024483 146 146 146 0
-4.121287 5.666770 35.044961 148 148 148 0
-4.039137 5.671980 35.077179 150 150 150 0
-3.955100 5.674709 35.094059 148 148 148 0
-3.866771 5.671264 35.072755 146 146 146 0
-3.786030 5.679045 35.120873 143 143 143 0
-3.701598 5.681523 35.136194 144 144 144 0
-3.617992 5.685416 35.160275 147 147 147 0
-3.527650 5.678657 35.118471 147 147 147 0
-3.442499 5.680123 35.127537 148 148 148 0
-3.359738 5.685711 35.162097 145 145 145 0
-3.275603 5.689205 35.183703 142 142 142 0
-3.185891 5.682941 35.144965 140 140 140 0
-3.105790 5.693949 35.213044 139 139 139 0
-3.021883 5.698408 35.240615 138 138 138 0
-2.935164 5.697671 35.236060 135 135 135 0
-2.848668 5.697335 35.233983 134 134 134 0
-2.765607 5.704065 35.275601 133 133 133 0
-2.683179 5.712574 35.328224 129 129 129 0
-2.596349 5.711969 35.324482 129 129 129 0
-2.511162 5.715058 35.343590 128 128 128 0
-2.427215 5.721292 35.382138 127 127 127 0
-2.346593 5.736116 35.473813 124 124 124 0
-2.260488 5.738162 35.486466 125 125 125 0
-2.172887 5.736421 35.475700 120 120 120 0
-2.090923 5.750038 35.559911 121 121 121 0
-2.007739 5.761338 35.629795 120 120 120 0
-1.922560 5.767680 35.669018 120 120 120 0
-1.834236 5.764742 35.650848 118 118 118 0
-1.752927 5.784658 35.774013 116 116 116 0
-1.667264 5.791549 35.816628 118 118 118 0
-1.581435 5.798593 35.860193 117 117 117 0
-1.495831 5.807344 35.914313 116 116 116 0
-1.410936 5.820112 35.993269 115 115 115 0
-1.324546 5.828000 36.042055 114 114 114 0
-1.237948 5.836039 36.091772 117 117 117 0
-1.151956 5.848390 36.168151 117 117 117 0
-1.066068 5.863375 36.260824 117 117 117 0
-0.976795 5.860771 36.244716 119 119 119 0
-0.889137 5.868302 36.291294 119 119 119 0
-0.802158 5.882493 36.379052 120 120 120 0
-0.714284 5.892844 36.443066 123 123 123 0
-0.625012 5.892967 36.443829 125 125 125 0
-0.536194 5.898136 36.475797 126 126 126 0
-0.447961 5.913079 36.568205 128 128 128 0
-0.358506 5.915353 36.582271 131 131 131 0
-0.268684 5.911054 36.555681 129 129 129 0
-0.179311 5.917265 36.594094 130 130 130 0
-0.089876 5.931816 36.684082 131 131 131 0
0.000000 5.931413 36.681590 132 132 132 0
0.089802 5.926933 36.653886 131 131 131 0
0.179987 5.939567 36.732018 132 132 132 0
0.270235 5.945169 36.766658 132 132 132 0
0.360154 5.942536 36.750380 133 133 133 0
0.450095 5.941258 36.742472 132 132 132 0
0.541187 5.953055 36.815431 134 134 134 0
0.631412 5.953313 36.817028 134 134 134 0
0.721698 5.954005 36.821302 132 132 132 0
0.812041 5.954966 36.827250 133 133 133 0
0.903230 5.961317 36.866524 136 136 136 0
0.994209 5.965255 36.890877 131 131 131 0
1.084728 5.966005 36.895519 132 132 132 0
1.176053 5.970731 36.924742 130 130 130 0
1.267527 5.975483 36.954133 129 129 129 0
1.358158 5.975894 36.956673 128 128 128 0
1.449369 5.978646 36.973694 129 129 129 0
1.541109 5.983129 37.001418 130 130 130 0
1.632707 5.986593 37.022841 129 129 129 0
1.723730 5.987693 37.029639 127 127 127 0
1.815988 5.992761 37.060986 129 129 129 0
1.906733 5.992588 37.059915 126 126 126 0
1.998545 5.995636 37.078765 127 127 127 0
2.091766 6.002459 37.120959 127 127 127 0
2.183523 6.004687 37.134738 126 126 126 0
2.273327 6.001583 37.115541 127 127 127 0
2.367194 6.009032 37.161608 125 125 125 0
2.461253 6.016396 37.207149 126 126 126 0
2.552875 6.017490 37.213916 125 125 125 0
2.643094 6.015317 37.200477 123 123 123 0
2.736543 6.020395 37.231880 122 122 122 0
2.833225 6.032027 37.303813 123 123 123 0
2.924972 6.032755 37.308319 125 125 125 0
3.014834 6.029667 37.289222 121 121 121 0
3.111424 6.039822 37.352024 122 122 122 0
3.205366 6.044405 37.380362 121 121 121 0
3.295497 6.041745 37.363917 119 119 119 0
3.392315 6.051157 37.422120 120 120 120 0
3.488929 6.059719 37.475068 118 118 118 0
3.584025 6.065273 37.509416 120 120 120 0
3.672823 6.060158 37.477786 119 119 119 0
3.774114 6.075403 37.572067 121 121 121 0
3.868965 6.079803 37.599275 122 122 122 0
3.960490 6.078892 37.593642 123 123 123 0
4.050207 6.075310 37.571492 122 122 122 0
4.154621 6.093444 37.683636 122 122 122 0
4.249952 6.097757 37.710311 122 122 122 0
4.341625 6.096751 37.704085 121 121 121 0
4.430588 6.092059 37.675069 121 121 121 0
4.536829 6.110831 37.791163 122 122 122 0
4.626830 6.107416 37.770044 123 123 123 0
4.723579 6.112867 37.803752 123 123 123 0
4.820616 6.118475 37.838434 121 121 121 0
4.918463 6.124878 37.878035 123 123 123 0
5.012347 6.126201 37.886218 123 123 123 0
5.108753 6.130503 37.912823 120 120 120 0
5.205752 6.135351 37.942799 122 122 122 0
5.303999 6.141472 37.980657 126 126 126 0
5.397647 6.142150 37.984851 125 125 125 0
5.497616 6.149875 38.032623 125 125 125 0
5.594543 6.153998 38.058118 127 127 127 0
5.685784 6.151832 38.044724 127 127 127 0
5.777718 6.150474 38.036325 128 128 128 0
5.870833 6.150397 38.035849 133 133 133 0
5.966478 6.152930 38.051517 132 132 132 0
6.057787 6.150984 38.039482 133 133 133 0
6.156145 6.156145 38.071396 133 133 133 0
6.244849 6.151643 38.043554 133 133 133 0
6.331325 6.145110 38.003152 129 129 129 0
6.574493 6.288646 38.890821 127 127 127 0
6.517843 6.145395 38.004914 129 129 129 0
6.919183 6.431917 39.776852 127 127 127 0
7.174530 6.576653 40.671939 128 128 128 0
7.433093 6.720331 41.560488 130 130 130 0
6.731744 6.003988 37.130414 130 130 130 0
6.984995 6.146796 38.013579 128 128 128 0
7.079163 6.147695 38.019138 128 128 128 0
7.675830 6.579283 40.688204 129 129 129 0
7.266409 6.148500 38.024116 132 132 132 0
8.570828 7.160439 44.282245 132 132 132 0
-6.765398 5.666021 34.517337 152 152 152 0
-6.674386 5.660556 34.484043 149 149 149 0
-6.584176 5.655639 34.454089 147 147 147 0
-6.504986 5.660183 34.481772 147 147 147 0
-6.421519 5.661076 34.487214 145 145 145 0
-6.327464 5.652534 34.435178 145 145 145 0
-6.243883 5.653245 34.439508 141 141 141 0
-6.163637 5.657037 34.462605 141 141 141 0
-6.079875 5.657662 34.466413 144 144 144 0
-5.987051 5.649752 34.418227 140 140 140 0
-5.906684 5.653541 34.441308 143 143 143 0
-5.827679 5.658761 34.473111 138 138 138 0
-5.744766 5.660284 34.482387 137 137 137 0
-5.663147 5.663147 34.499827 135 135 135 0
-5.581799 5.666372 34.519477 136 136 136 0
-5.511611 5.681199 34.609805 139 139 139 0
-5.432679 5.687336 34.647190 134 134 134 0
-5.350490 5.690204 34.664661 134 134 134 0
-5.270896 5.695968 34.699776 134 134 134 0
-5.197161 5.708358 34.775252 137 137 137 0
-5.119344 5.716601 34.825469 139 139 139 0
-5.034058 5.716642 34.825718 140 140 140 0
-4.949892 5.717978 34.833862 147 147 147 0
-4.871512 5.726163 34.883723 145 145 145 0
-4.788457 5.729046 34.901287 147 147 147 0
-4.703778 5.730056 34.907440 148 148 148 0
-4.622926 5.735852 34.942750 145 145 145 0
-4.539154 5.738175 34.956902 148 148 148 0
-4.456153 5.741581 34.977651 147 147 147 0
-4.372954 5.744861 34.997633 144 144 144 0
-4.291317 5.750364 35.031155 145 145 145 0
-4.206478 5.751715 35.039383 145 145 145 0
-4.119981 5.750806 35.033848 144 144 144 0
-4.038190 5.756568 35.068951 146 146 146 0
-3.956854 5.763244 35.109617 143 143 143 0
-3.868532 5.759814 35.088724 139 139 139 0
-3.783427 5.761127 35.096724 140 140 140 0
-3.702687 5.769303 35.146531 143 143 143 0
-3.618711 5.772705 35.167257 143 143 143 0
-3.530302 5.769030 35.144870 141 141 141 0
-3.446161 5.772320 35.164908 143 143 143 0
-3.361954 5.775665 35.185290 141 141 141 0
-3.278627 5.780736 35.216182 137 137 137 0
-3.189174 5.774990 35.181178 135 135 135 0
-3.106812 5.782122 35.224622 136 136 136 0
-3.023809 5.788434 35.263078 137 137 137 0
-2.938661 5.790891 35.278045 134 134 134 0
-2.851065 5.788526 35.263636 131 131 131 0
-2.769474 5.798587 35.324927 129 129 129 0
-2.687155 5.807721 35.380575 130 130 130 0
-2.601515 5.810050 35.394761 127 127 127 0
-2.515155 5.810874 35.399782 127 127 127 0
-2.430964 5.816950 35.436797 125 125 125 0
-2.349779 5.830934 35.521985 125 125 125 0
-2.264275 5.834862 35.545918 124 124 124 0
-2.175746 5.830998 35.522378 120 120 120 0
-2.095568 5.850129 35.638920 119 119 119 0
-2.010967 5.858033 35.687074 119 119 119 0
-1.926677 5.867609 35.745407 118 118 118 0
-1.839632 5.869303 35.755727 116 116 116 0
-1.756271 5.883509 35.842272 116 116 116 0
-1.671110 5.892861 35.899247 116 116 116 0
-1.584481 5.897789 35.929268 115 115 115 0
-1.498960 5.907668 35.989446 117 117 117 0
-1.413398 5.918606 36.056082 115 115 115 0
-1.326185 5.923628 36.086678 114 114 114 0
-1.240294 5.935691 36.160162 113 113 113 0
-1.153048 5.942631 36.202443 117 117 117 0
-1.067621 5.960885 36.313647 119 119 119 0
-0.978586 5.960478 36.311169 117 117 117 0
-0.891033 5.969919 36.368680 120 120 120 0
-0.803391 5.980796 36.434945 123 123 123 0
-0.715470 5.992064 36.503590 123 123 123 0
-0.625968 5.991405 36.499572 126 126 126 0
-0.536632 5.992393 36.505592 127 127 127 0
-0.448330 6.007622 36.598364 127 127 127 0
-0.359008 6.013379 36.633437 129 129 129 0
-0.269171 6.011476 36.621844 128 128 128 0
-0.179559 6.015220 36.644653 127 127 127 0
-0.089942 6.026120 36.711055 130 130 130 0
0.000000 6.030463 36.737516 128 128 128 0
0.089951 6.026689 36.714522 129 129 129 0
0.180143 6.034782 36.763828 128 128 128 0
0.270440 6.039831 36.794585 131 131 131 0
0.360598 6.040024 36.795760 130 130 130 0
0.450752 6.040076 36.796076 130 130 130 0
0.541682 6.048781 36.849106 132 132 132 0
0.632415 6.053114 36.875504 131 131 131 0
0.722552 6.051375 36.864910 131 131 131 0
0.813034 6.052585 36.872284 133 133 133 0
0.905009 6.063557 36.939125 131 131 131 0
0.995309 6.062336 36.931686 129 129 129 0
1.086549 6.066563 36.957436 128 128 128 0
1.177130 6.066747 36.958556 129 129 129 0
1.267899 6.067804 36.964996 128 128 128 0
1.359821 6.073868 37.001936 127 127 127 0
1.451264 6.077168 37.022039 128 128 128 0
1.544072 6.085460 37.072558 130 130 130 0
1.634930 6.085573 37.073245 129 129 129 0
1.725899 6.086065 37.076244 127 127 127 0
1.818528 6.092068 37.112809 128 128 128 0
1.910676 6.095966 37.136560 127 127 127 0
2.001219 6.094622 37.128371 126 126 126 0
2.094683 6.101903 37.172729 126 126 126 0
2.187329 6.106292 37.199465 125 125 125 0
2.277170 6.102816 37.178291 126 126 126 0
2.370624 6.108915 37.215445 127 127 127 0
2.463852 6.114004 37.246446 125 125 125 0
2.556197 6.116613 37.262340 126 126 126 0
2.647176 6.115890 37.257936 125 125 125 0
2.741458 6.122589 37.298742 125 125 125 0
2.837765 6.133234 37.363596 125 125 125 0
2.927582 6.129624 37.341604 123 123 123 0
3.021081 6.133710 37.366493 122 122 122 0
3.116371 6.141084 37.411416 122 122 122 0
3.212379 6.149411 37.462145 122 122 122 0
3.301939 6.145276 37.436953 119 119 119 0
3.396359 6.150164 37.466732 121 121 121 0
3.494414 6.161204 37.533986 122 122 122 0
3.591750 6.170442 37.590266 123 123 123 0
3.678277 6.161115 37.533442 124 124 124 0
3.780221 6.177435 37.632867 123 123 123 0
3.877944 6.186244 37.686528 123 123 123 0
3.970119 6.185999 37.685041 124 124 124 0
4.055951 6.176108 37.624781 121 121 121 0
4.160961 6.195208 37.741141 123 123 123 0
4.256615 6.199852 37.769432 123 123 123 0
4.343057 6.191166 37.716514 120 120 120 0
4.444949 6.204408 37.797187 120 120 120 0
4.541199 6.209395 37.827564 120 120 120 0
4.639083 6.216371 37.870064 121 121 121 0
4.728572 6.212045 37.843712 121 121 121 0
4.827587 6.220160 37.893145 122 122 122 0
4.927548 6.229165 37.948004 123 123 123 0
5.022083 6.231103 37.959812 123 123 123 0
5.117570 6.234131 37.978256 125 125 125 0
5.216560 6.241241 38.021574 124 124 124 0
5.309358 6.240824 38.019033 124 124 124 0
5.401452 6.239608 38.011626 127 127 127 0
5.501398 6.247350 38.058786 126 126 126 0
5.600470 6.253858 38.098435 127 127 127 0
5.692098 6.251976 38.086971 129 129 129 0
5.790123 6.257069 38.117995 129 129 129 0
5.882669 6.256172 38.112528 131 131 131 0
5.975434 6.255533 38.108636 131 131 131 0
6.069652 6.256411 38.113985 133 133 133 0
6.289019 6.384307 38.893130 132 132 132 0
6.249223 6.249223 38.070197 133 133 133 0
6.342171 6.248904 38.068253 128 128 128 0
6.576099 6.385488 38.900320 127 127 127 0
6.822560 6.530164 39.781690 127 127 127 0
6.920376 6.530496 39.783710 128 128 128 0
6.728112 6.260882 38.141227 127 127 127 0
7.433773 6.822778 41.564289 132 132 132 0
6.732266 6.095430 37.133295 129 129 129 0
7.639187 6.824340 41.573806 129 129 129 0
7.577437 6.680109 40.695151 131 131 131 0
7.216276 6.279098 38.252194 132 132 132 0
8.460875 7.267675 44.274597 132 132 132 0
8.746311 7.417758 45.188899 132 132 132 0
-6.771600 5.755860 34.548977 146 146 146 0
-6.686484 5.755454 34.546545 144 144 144 0
-6.593444 5.748130 34.502584 145 145 145 0
-6.512715 5.751489 34.522741 144 144 144 0
-6.428386 5.751714 34.524092 143 143 143 0
-6.341010 5.749183 34.508900 140 140 140 0
-6.251194 5.744341 34.479836 138 138 138 0
-6.169529 5.746958 34.495547 139 139 139 0
-6.090901 5.752518 34.528919 140 140 140 0
-6.000821 5.747266 34.497393 138 138 138 0
-5.909586 5.740741 34.458228 142 142 142 0
-5.836571 5.751983 34.525706 139 139 139 0
-5.753206 5.753206 34.533051 135 135 135 0
-5.669845 5.754470 34.540633 136 136 136 0
-5.587311 5.756623 34.553561 135 135 135 0
-5.513165 5.767619 34.619560 130 130 130 0
-5.436647 5.776438 34.672495 133 133 133 0
-5.352358 5.777148 34.676761 133 133 133 0
-5.275807 5.786369 34.732109 135 135 135 0
-5.195331 5.791517 34.763005 138 138 138 0
-5.120608 5.803355 34.834065 141 141 141 0
-5.029433 5.796635 34.793726 144 144 144 0
-4.950498 5.804032 34.838128 145 145 145 0
-4.870550 5.810481 34.876834 146 146 146 0
-4.788457 5.814554 34.901287 144 144 144 0
-4.705062 5.817167 34.916971 141 141 141 0
-4.623393 5.822050 34.946280 140 140 140 0
-4.541834 5.827259 34.977546 146 146 146 0
-4.459368 5.831481 35.002887 143 143 143 0
-4.373673 5.831563 35.003381 141 141 141 0
-4.291446 5.836366 35.032210 141 141 141 0
-4.206748 5.837936 35.041632 139 139 139 0
-4.123763 5.841998 35.066014 141 141 141 0
-4.040167 5.845348 35.086120 138 138 138 0
-3.959406 5.853035 35.132262 136 136 136 0
-3.873688 5.853574 35.135496 136 136 136 0
-3.788401 5.854802 35.142869 137 137 137 0
-3.706223 5.861003 35.180092 138 138 138 0
-3.621858 5.863961 35.197847 141 141 141 0
-3.532479 5.858745 35.166537 142 142 142 0
-3.449321 5.863846 35.197156 139 138 139 0
-3.363879 5.865224 35.205427 138 138 138 0
-3.281305 5.871809 35.244953 135 135 135 0
-3.193002 5.868220 35.223409 133 133 133 0
-3.108361 5.871349 35.242188 133 133 133 0
-3.027743 5.882472 35.308953 133 133 133 0
-2.941733 5.883465 35.314916 132 132 132 0
-2.855163 5.883367 35.314327 129 129 129 0
-2.770433 5.887170 35.337157 128 128 128 0
-2.691194 5.903265 35.433765 127 127 127 0
-2.604645 5.903863 35.437353 124 124 124 0
-2.517237 5.902486 35.429089 123 123 123 0
-2.434493 5.912339 35.488230 122 122 122 0
-2.353609 5.927607 35.579876 123 123 123 0
-2.268740 5.933627 35.616011 121 121 121 0
-2.179134 5.927245 35.577704 118 118 118 0
-2.098410 5.945496 35.687252 118 118 118 0
-2.014181 5.954969 35.744109 117 117 117 0
-1.929201 5.962986 35.792233 117 117 117 0
-1.843326 5.968866 35.827525 114 114 114 0
-1.758669 5.979473 35.891196 118 118 118 0
-1.674503 5.992957 35.972134 117 117 117 0
-1.587398 5.996839 35.995430 113 113 113 0
-1.501853 6.007413 36.058901 116 116 116 0
-1.416447 6.019900 36.133854 115 115 115 0
-1.329896 6.028863 36.187654 115 115 115 0
-1.242196 6.033524 36.215632 116 116 116 0
-1.155630 6.044835 36.283521 117 117 117 0
-1.070021 6.063450 36.395259 119 119 119 0
-0.980198 6.059406 36.370985 118 118 118 0
-0.891732 6.063777 36.397221 121 121 121 0
-0.804605 6.079236 36.490009 124 124 124 0
-0.716360 6.089060 36.548981 123 123 123 0
-0.626427 6.085292 36.526362 126 126 126 0
-0.537732 6.094296 36.580406 126 126 126 0
-0.448861 6.104510 36.641717 127 127 127 0
-0.359530 6.112005 36.686704 126 126 126 0
-0.269400 6.106402 36.653072 128 128 128 0
-0.179805 6.113376 36.694935 127 127 127 0
-0.090073 6.124931 36.764291 129 129 129 0
0.000000 6.126037 36.770931 128 128 128 0
0.090062 6.124231 36.760090 128 128 128 0
0.180331 6.131249 36.802217 128 128 128 0
0.270833 6.138891 36.848085 127 127 127 0
0.361196 6.140325 36.856695 129 129 129 0
0.451457 6.139815 36.853632 128 128 128 0
0.542618 6.149668 36.912774 127 127 127 0
0.632920 6.148363 36.904941 130 130 130 0
0.723268 6.147780 36.901443 130 130 130 0
0.814846 6.156615 36.954473 129 129 129 0
0.905794 6.159401 36.971194 127 127 127 0
0.996544 6.160456 36.977529 128 128 128 0
1.087467 6.162314 36.988681 127 127 127 0
1.179523 6.169814 37.033700 126 126 126 0
1.270617 6.171568 37.044225 128 128 128 0
1.362700 6.177574 37.080277 128 128 128 0
1.454216 6.180420 37.097356 128 128 128 0
1.545847 6.183389 37.115178 128 128 128 0
1.637493 6.186086 37.131369 127 127 127 0
1.729885 6.191166 37.161859 126 126 126 0
1.822283 6.195763 37.189452 128 128 128 0
1.914517 6.199389 37.211217 128 128 128 0
2.003535 6.192745 37.171341 126 126 126 0
2.097941 6.202607 37.230533 127 127 127 0
2.190223 6.205633 37.248699 126 126 126 0
2.281289 6.205105 37.245530 127 127 127 0
2.373586 6.207841 37.261948 124 124 124 0
2.468531 6.217040 37.317169 125 125 125 0
2.560919 6.219375 37.331180 125 125 125 0
2.651245 6.216712 37.315195 126 126 126 0
2.745279 6.222632 37.350732 126 126 126 0
2.843906 6.238246 37.444452 124 124 124 0
2.933004 6.232632 37.410759 124 124 124 0
3.025080 6.233498 37.415956 123 123 123 0
3.120909 6.241818 37.465892 124 124 124 0
3.219628 6.255278 37.546686 121 121 121 0
3.305952 6.244577 37.482453 122 122 122 0
3.401469 6.251349 37.523103 124 124 124 0
3.502886 6.268323 37.624985 123 123 123 0
3.596824 6.271385 37.643370 122 122 122 0
3.685620 6.265553 37.608363 124 124 124 0
3.786232 6.279604 37.692703 122 122 122 0
3.880686 6.283015 37.713175 124 124 124 0
3.974751 6.285653 37.729008 122 122 122 0
4.067570 6.286245 37.732562 123 123 123 0
4.170119 6.301513 37.824211 122 122 122 0
4.260346 6.297902 37.802536 120 120 120 0
4.356365 6.302827 37.832092 121 121 121 0
4.451848 6.306785 37.855850 123 123 123 0
4.552921 6.318339 37.925207 121 121 121 0
4.647713 6.320890 37.940515 121 121 121 0
4.741117 6.321489 37.944115 120 120 120 0
4.839007 6.327933 37.982788 121 121 121 0
4.934680 6.331288 38.002930 122 122 122 0
5.027659 6.331126 38.001958 123 123 123 0
5.135235 6.349018 38.109353 123 123 123 0
5.224582 6.344135 38.080040 127 127 127 0
5.317691 6.343913 38.078707 125 125 125 0
5.416037 6.349836 38.114262 125 125 125 0
5.508379 6.348640 38.107081 127 127 127 0
5.603624 6.350774 38.119891 125 125 125 0
5.694785 6.348285 38.104952 128 128 128 0
5.797645 6.358708 38.167512 131 131 131 0
5.883091 6.350003 38.115264 131 131 131 0
5.979243 6.352946 38.132928 131 131 131 0
6.072695 6.352973 38.133092 133 133 133 0
6.173075 6.360138 38.176096 130 130 130 0
6.256682 6.350066 38.115641 129 129 129 0
6.353169 6.353169 38.134267 126 126 126 0
6.576532 6.481220 38.902881 127 127 127 0
6.369253 6.187275 37.138503 129 129 129 0
6.920208 6.627804 39.782740 129 129 129 0
7.176175 6.777499 40.681266 131 131 131 0
6.841176 6.372602 38.250915 131 131 131 0
7.537375 6.926237 41.574051 129 129 129 0
7.640626 6.927501 41.581639 129 129 129 0
7.128545 6.378172 38.284345 131 131 131 0
8.184206 7.227611 43.383018 133 133 133 0
8.462062 7.377182 44.280804 132 132 132 0
8.746493 7.528627 45.189837 134 134 134 0
-6.777961 5.845992 34.581436 140 140 140 0
-6.694723 5.847290 34.589113 139 139 139 0
-6.603608 5.841654 34.555774 139 139 139 0
-6.518868 5.841583 34.555358 138 138 138 0
-6.440453 5.847254 34.588900 139 139 139 0
-6.350691 5.842636 34.561585 139 139 139 0
-6.259105 5.836193 34.523470 139 139 139 0
-6.180529 5.841870 34.557051 141 141 141 0
-6.095522 5.841542 34.555112 142 142 142 0
-6.010138 5.840838 34.550950 143 143 143 0
-5.920539 5.835960 34.522095 140 140 140 0
-5.841369 5.841369 34.554089 140 140 140 0
-5.757761 5.842434 34.560388 136 136 136 0
-5.674326 5.843709 34.567932 134 134 134 0
-5.591590 5.845753 34.580023 132 132 132 0
-5.518202 5.857784 34.651192 131 131 131 0
-5.441362 5.866469 34.702565 131 131 131 0
-5.356617 5.866771 34.704353 132 132 132 0
-5.279096 5.875123 34.753760 136 136 136 0
-5.198870 5.880689 34.786687 139 138 139 0
-5.120626 5.888720 34.834193 140 140 140 0
-5.034058 5.887288 34.825718 140 140 140 0
-4.952741 5.892054 34.853911 141 141 141 0
-4.871367 5.896918 34.882686 138 138 138 0
-4.790483 5.902560 34.916060 140 140 140 0
-4.708599 5.907151 34.943218 139 139 139 0
-4.624702 5.909341 34.956175 138 138 138 0
-4.543232 5.914773 34.988307 140 140 140 0
-4.457019 5.914121 34.984447 138 138 138 0
-4.377203 5.922099 35.031639 138 138 138 0
-4.292000 5.922960 35.036734 136 136 136 0
-4.209661 5.927890 35.065896 134 134 134 0
-4.127082 5.932680 35.094235 137 137 137 0
-4.041904 5.933859 35.101208 135 135 135 0
-3.963233 5.944849 35.166219 135 135 135 0
-3.875643 5.942652 35.153222 133 133 133 0
-3.792794 5.947790 35.183616 137 137 137 0
-3.709377 5.952256 35.210031 138 138 138 0
-3.625384 5.955988 35.232108 139 139 139 0
-3.535832 5.950546 35.199919 141 141 141 0
-3.452600 5.955735 35.230609 138 138 138 0
-3.368382 5.959446 35.252563 134 134 134 0
-3.284276 5.963555 35.276868 132 132 132 0
-3.197784 5.963435 35.276163 132 132 132 0
-3.113196 5.966960 35.297011 131 131 131 0
-3.031310 5.976011 35.350555 129 129 129 0
-2.945784 5.978210 35.363559 129 129 129 0
-2.858981 5.977869 35.361542 125 125 125 0
-2.775561 5.984803 35.402562 126 126 126 0
-2.694879 5.998280 35.482284 125 125 125 0
-2.609607 6.002096 35.504859 125 125 125 0
-2.522108 6.000878 35.497649 121 121 121 0
-2.439072 6.010570 35.554983 119 119 119 0
-2.356670 6.022602 35.626159 121 121 121 0
-2.272678 6.031338 35.677836 117 117 117 0
-2.184028 6.027918 35.657604 117 117 117 0
-2.103405 6.047290 35.772200 116 116 116 0
-2.018590 6.055769 35.822354 117 117 117 0
-1.934005 6.065743 35.881352 116 116 116 0
-1.847051 6.068881 35.899918 114 114 114 0
-1.762781 6.081594 35.975120 114 114 114 0
-1.677724 6.092787 36.041332 114 114 114 0
-1.590561 6.097151 36.067145 116 116 116 0
-1.503856 6.103888 36.106998 115 115 115 0
-1.419507 6.121626 36.211924 116 116 116 0
-1.332002 6.127207 36.244939 116 116 116 0
-1.243848 6.130395 36.263799 118 118 118 0
-1.157961 6.146100 36.356702 118 118 118 0
-1.071503 6.161145 36.445694 120 120 120 0
-0.981701 6.157942 36.426752 122 122 122 0
-0.893149 6.162725 36.455042 122 122 122 0
-0.806037 6.179617 36.554965 122 122 122 0
-0.717414 6.187695 36.602748 125 125 125 0
-0.627600 6.186346 36.594769 123 123 123 0
-0.538088 6.188010 36.604614 125 125 125 0
-0.449534 6.203570 36.696656 126 126 126 0
-0.360095 6.211630 36.744339 123 123 123 0
-0.269833 6.206163 36.711994 127 127 127 0
-0.180122 6.214216 36.759634 125 125 125 0
-0.090183 6.222594 36.809192 126 126 126 0
0.000000 6.226331 36.831301 125 125 125 0
0.090186 6.222855 36.810739 127 127 127 0
0.180660 6.232780 36.869448 124 124 124 0
0.271169 6.236890 36.893757 125 125 125 0
0.361855 6.241998 36.923978 127 127 127 0
0.452435 6.243600 36.933454 127 127 127 0
0.543161 6.246354 36.949742 128 128 128 0
0.634018 6.249603 36.968960 128 128 128 0
0.724757 6.251028 36.977389 128 128 128 0
0.816116 6.256888 37.012055 130 130 130 0
0.907243 6.259977 37.030328 128 128 128 0
0.997547 6.257340 37.014730 128 128 128 0
1.089331 6.263653 37.052076 130 130 130 0
1.180774 6.267187 37.072979 127 127 127 0
1.271695 6.267642 37.075669 128 128 128 0
1.363722 6.273120 37.108076 127 127 127 0
1.456070 6.279304 37.144654 129 129 129 0
1.548497 6.285075 37.178794 129 129 129 0
1.638555 6.281128 37.155447 126 126 126 0
1.731652 6.288630 37.199822 126 126 126 0
1.825214 6.296987 37.249257 128 128 128 0
1.916780 6.297990 37.255192 127 127 127 0
2.006633 6.293531 37.228813 124 124 124 0
2.102549 6.307647 37.312316 126 126 126 0
2.194165 6.308223 37.315723 125 125 125 0
2.284121 6.304175 37.291778 123 123 123 0
2.377065 6.308365 37.316566 127 127 127 0
2.475590 6.326508 37.423885 125 125 125 0
2.564136 6.318764 37.378080 126 126 126 0
2.656023 6.319502 37.382442 124 124 124 0
2.749635 6.324160 37.409997 124 124 124 0
2.849847 6.343207 37.522667 123 123 123 0
2.936878 6.332642 37.460173 124 124 124 0
3.030023 6.335502 37.477092 122 122 122 0
3.125703 6.343339 37.523449 124 124 124 0
3.222579 6.353084 37.581097 124 124 124 0
3.312491 6.348941 37.556586 124 124 124 0
3.408197 6.355826 37.597317 123 123 123 0
3.506250 6.366613 37.661121 124 124 124 0
3.603020 6.374575 37.708221 125 125 125 0
3.691299 6.367490 37.666311 123 123 123 0
3.792065 6.381768 37.750769 121 121 121 0
3.889479 6.389858 37.798626 122 122 122 0
3.981465 6.388862 37.792734 121 121 121 0
4.073468 6.387939 37.787276 120 120 120 0
4.172517 6.397859 37.845955 121 121 121 0
4.273060 6.409590 37.915349 119 119 119 0
4.365696 6.409213 37.913118 121 121 121 0
4.464940 6.418351 37.967176 124 124 124 0
4.558862 6.419622 37.974696 122 122 122 0
4.652648 6.420654 37.980796 122 122 122 0
4.749075 6.425220 38.007806 123 123 123 0
4.847666 6.432480 38.050752 121 121 121 0
4.941281 6.432988 38.053758 123 123 123 0
5.040643 6.440821 38.100096 123 123 123 0
5.135664 6.442924 38.112534 125 125 125 0
5.232581 6.447287 38.138344 126 126 126 0
5.325612 6.446793 38.135424 125 125 125 0
5.421566 6.449795 38.153177 127 127 127 0
5.521853 6.457761 38.200300 129 129 129 0
5.612764 6.454678 38.182067 127 127 127 0
5.706632 6.455042 38.184220 129 129 129 0
5.808749 6.464576 38.240614 129 129 129 0
5.892946 6.454179 38.179115 130 130 130 0
5.993063 6.461271 38.221065 129 129 129 0
6.086873 6.461450 38.222125 130 130 130 0
6.185488 6.466647 38.252863 128 128 128 0
6.267011 6.454086 38.178564 127 127 127 0
6.482346 6.577674 38.909638 126 126 126 0
6.577941 6.577941 38.911213 128 128 128 0
6.557232 6.463558 38.234591 126 126 126 0
7.075339 6.876034 40.674556 128 128 128 0
7.020387 6.727871 39.798114 128 128 128 0
7.276854 6.878122 40.686908 128 128 128 0
6.733299 6.278347 37.138992 128 128 128 0
7.640779 7.029517 41.582473 130 130 130 0
7.137314 6.479930 38.331439 130 130 130 0
7.677477 6.879817 40.696935 131 131 131 0
8.290598 7.333991 43.383559 131 131 131 0
8.572769 7.487608 44.292268 133 133 133 0
-6.791579 5.942632 34.650915 137 137 137 0
-6.705050 5.941184 34.642470 136 136 136 0
-6.614290 5.935901 34.611670 136 136 136 0
-6.530044 5.936404 34.614598 135 135 135 0
-6.447127 5.938143 34.624742 137 137 137 0
-6.360399 5.936372 34.614416 137 137 137 0
-6.272051 5.933022 34.594878 137 137 137 0
-6.188307 5.933993 34.600540 137 137 137 0
-6.107354 5.937706 34.622190 139 139 139 0
-6.021801 5.936987 34.617998 137 137 137 0
-5.928568 5.928568 34.568907 137 137 137 0
-5.849072 5.933841 34.599658 136 136 136 0
-5.767493 5.937125 34.618804 136 136 136 0
-5.680483 5.934833 34.605442 134 134 134 0
-5.600258 5.939668 34.633633 133 133 133 0
-5.521474 5.946203 34.671735 129 129 129 0
-5.449432 5.960316 34.754030 134 134 134 0
-5.362704 5.958560 34.743788 131 131 131 0
-5.278879 5.960025 34.752332 135 135 135 0
-5.202702 5.970313 34.812322 137 137 137 0
-5.123113 5.976966 34.851111 139 139 139 0
-5.039091 5.978583 34.860541 137 137 137 0
-4.955909 5.981270 34.876209 135 135 135 0
-4.875950 5.988009 34.915501 135 135 135 0
-4.793539 5.991924 34.938332 136 136 136 0
-4.710247 5.994859 34.955448 136 136 136 0
-4.626685 5.997555 34.971165 136 136 136 0
-4.547799 6.006527 35.023483 134 134 134 0
-4.462416 6.007098 35.026813 135 135 135 0
-4.380425 6.012348 35.057424 133 133 133 0
-4.297542 6.016558 35.081972 132 132 132 0
-4.213923 6.019891 35.101402 129 129 129 0
-4.131166 6.024618 35.128966 129 129 129 0
-4.046696 6.026994 35.142821 130 130 130 0
-3.969400 6.040391 35.220940 131 131 131 0
-3.881117 6.037294 35.202880 135 135 135 0
-3.796007 6.039101 35.213420 139 139 139 0
-3.712732 6.043982 35.241879 138 138 138 0
-3.629646 6.049409 35.273525 138 138 138 0
-3.540678 6.045061 35.248168 138 138 138 0
-3.455159 6.046529 35.256729 135 135 135 0
-3.373542 6.055076 35.306565 134 134 134 0
-3.290052 6.060621 35.338900 131 131 131 0
-3.201538 6.056964 35.317575 129 129 129 0
-3.117216 6.061254 35.342587 128 128 128 0
-3.035221 6.070441 35.396159 128 128 128 0
-2.951694 6.077017 35.434502 124 124 124 0
-2.865651 6.078653 35.444039 125 125 125 0
-2.780174 6.081631 35.461406 123 123 123 0
-2.700087 6.096971 35.550849 122 122 122 0
-2.614735 6.101049 35.574629 121 121 121 0
-2.526922 6.099467 35.565404 117 117 117 0
-2.443385 6.108463 35.617861 117 117 117 0
-2.361100 6.121371 35.693126 119 119 119 0
-2.278113 6.133381 35.763155 118 118 118 0
-2.189900 6.131721 35.753473 115 115 115 0
-2.104913 6.139330 35.797843 115 115 115 0
-2.022553 6.155596 35.892691 115 115 115 0
-1.937515 6.164821 35.946476 115 115 115 0
-1.850700 6.169000 35.970848 113 113 113 0
-1.765809 6.180333 36.036927 114 114 114 0
-1.679662 6.188228 36.082963 114 114 114 0
-1.593283 6.196101 36.128868 114 114 114 0
-1.507466 6.207212 36.193653 114 114 114 0
-1.423653 6.228481 36.317675 115 115 115 0
-1.335554 6.232585 36.341603 116 116 116 0
-1.245945 6.229726 36.324935 118 118 118 0
-1.159858 6.245390 36.416267 118 118 118 0
-1.072690 6.257361 36.486068 122 122 122 0
-0.983968 6.261615 36.510876 122 122 122 0
-0.894542 6.261794 36.511920 121 121 121 0
-0.807436 6.280056 36.618403 122 122 122 0
-0.718705 6.288673 36.668646 123 123 123 0
-0.628501 6.285011 36.647295 123 123 123 0
-0.539590 6.295215 36.706791 122 122 122 0
-0.449767 6.296733 36.715646 126 126 126 0
-0.360506 6.308858 36.786345 124 124 124 0
-0.270302 6.307038 36.775730 125 125 125 0
-0.180425 6.314881 36.821461 127 127 127 0
-0.090324 6.322701 36.867062 125 125 125 0
0.000000 6.324899 36.879878 128 128 128 0
0.090369 6.325824 36.885271 128 128 128 0
0.180845 6.329584 36.907194 126 126 126 0
0.271548 6.336114 36.945271 127 127 127 0
0.362346 6.341050 36.974051 129 129 129 0
0.452844 6.339813 36.966839 128 128 128 0
0.544017 6.346861 37.007936 128 128 128 0
0.635283 6.352834 37.042762 128 128 128 0
0.725884 6.351487 37.034912 129 129 129 0
0.817487 6.358235 37.074257 126 126 126 0
0.907868 6.355078 37.055851 129 129 129 0
0.999407 6.359863 37.083747 128 128 128 0
1.091305 6.365948 37.119231 128 128 128 0
1.182990 6.369947 37.142548 128 128 128 0
1.272791 6.363954 37.107605 125 125 125 0
1.365610 6.372846 37.159451 127 127 127 0
1.458719 6.381897 37.212226 126 126 126 0
1.550698 6.385229 37.231655 129 129 129 0
1.641365 6.383087 37.219168 127 127 127 0
1.734341 6.389678 37.257597 126 126 126 0
1.828163 6.398569 37.309440 127 127 127 0
1.920996 6.403321 37.337151 126 126 126 0
2.009777 6.394744 37.287136 125 125 125 0
2.104906 6.406237 37.354150 126 126 126 0
2.198671 6.412790 37.392363 125 125 125 0
2.289304 6.410052 37.376398 125 125 125 0
2.381425 6.411529 37.385011 126 126 126 0
2.478117 6.424748 37.462090 125 125 125 0
2.569063 6.422658 37.449902 124 124 124 0
2.659853 6.420335 37.436356 125 125 125 0
2.752568 6.422659 37.449905 126 126 126 0
2.853934 6.444366 37.576479 125 125 125 0
2.943462 6.438823 37.544159 125 125 125 0
3.034578 6.436984 37.533437 123 123 123 0
3.131555 6.447319 37.593698 121 121 121 0
3.229749 6.459499 37.664717 124 124 124 0
3.317350 6.450403 37.611678 122 122 122 0
3.416211 6.463101 37.685720 124 124 124 0
3.514728 6.474498 37.752176 124 124 124 0
3.610451 6.480297 37.785985 122 122 122 0
3.699017 6.473280 37.745075 122 122 122 0
3.797199 6.483022 37.801877 122 122 122 0
3.894396 6.490660 37.846416 120 120 120 0
3.986734 6.490032 37.842750 121 121 121 0
4.080259 6.491321 37.850268 119 119 119 0
4.180960 6.503716 37.922540 121 121 121 0
4.275180 6.505708 37.934158 120 120 120 0
4.371846 6.511259 37.966527 123 123 123 0
4.465093 6.511593 37.968474 122 122 122 0
4.563247 6.518925 38.011222 124 124 124 0
4.658393 6.521751 38.027701 124 124 124 0
4.760180 6.533581 38.096681 124 124 124 0
4.857714 6.539231 38.129627 123 123 123 0
4.951732 6.540024 38.134249 124 124 124 0
5.047237 6.542714 38.149938 125 125 125 0
5.147265 6.551064 38.198625 125 125 125 0
5.241434 6.551793 38.202875 125 125 125 0
5.331962 6.548023 38.180894 126 126 126 0
5.435859 6.560519 38.253757 126 126 126 0
5.528840 6.559641 38.248636 128 128 128 0
5.618036 6.554375 38.217931 127 127 127 0
5.712848 6.555727 38.225814 129 129 129 0
5.820007 6.570975 38.314725 129 129 129 0
5.904317 6.560352 38.252784 128 128 128 0
5.996819 6.559021 38.245019 130 130 130 0
6.094318 6.563111 38.268870 128 128 128 0
6.187361 6.562352 38.264444 129 129 129 0
6.278111 6.559220 38.246180 129 129 129 0
6.374725 6.562217 38.263658 129 129 129 0
6.578602 6.673944 38.915126 127 127 127 0
6.826230 6.826230 39.803090 128 128 128 0
6.651433 6.557751 38.237613 129 129 129 0
7.021394 6.826355 39.803819 129 129 129 0
6.849146 6.567675 38.295479 130 130 130 0
7.539296 7.131766 41.584644 130 130 130 0
7.152205 6.675392 38.923567 128 128 128 0
7.143755 6.579775 38.366033 130 130 130 0
8.185859 7.441690 43.391781 132 132 132 0
8.464109 7.595995 44.291516 130 130 130 0
7.360500 6.521962 38.028933 134 134 134 0
-6.805025 6.039460 34.719516 136 136 136 0
-6.718518 6.038162 34.712054 136 136 136 0
-6.635186 6.039720 34.721013 135 135 135 0
-6.540532 6.030880 34.670193 134 134 134 0
-6.459210 6.034262 34.689634 137 137 137 0
-6.374146 6.034191 34.689229 135 135 135 0
-6.283859 6.029108 34.660006 135 135 135 0
-6.197347 6.027557 34.651088 138 138 138 0
-6.119348 6.034357 34.690179 134 134 134 0
-6.030799 6.030799 34.669726 136 136 136 0
-5.939401 6.024250 34.632076 135 135 135 0
-5.857334 6.027112 34.648530 134 134 134 0
-5.779972 6.034971 34.693712 132 132 132 0
-5.690550 6.030285 34.666770 131 131 131 0
-5.605822 6.030505 34.668037 129 129 129 0
-5.526240 6.036354 34.701662 132 132 132 0
-5.450253 6.046375 34.759268 131 131 131 0
-5.368388 6.050088 34.780613 133 133 133 0
-5.288882 6.056623 34.818186 134 134 134 0
-5.205406 6.058751 34.830418 135 135 135 0
-5.128362 6.068562 34.886816 135 135 135 0
-5.043559 6.069368 34.891453 135 135 135 0
-4.960542 6.072388 34.908813 133 133 133 0
-4.879669 6.078185 34.942136 134 134 134 0
-4.800742 6.086655 34.990830 133 133 133 0
-4.714608 6.086131 34.987816 132 132 132 0
-4.633122 6.091697 35.019818 130 130 130 0
-4.552167 6.098185 35.057116 129 129 129 0
-4.469588 6.102707 35.083108 129 129 129 0
-4.387022 6.107423 35.110223 127 127 127 0
-4.305797 6.114232 35.149363 126 126 126 0
-4.219889 6.114533 35.151095 129 129 129 0
-4.138456 6.121467 35.190956 128 128 128 0
-4.053337 6.123126 35.200492 130 130 130 0
-3.974364 6.134344 35.264985 133 133 133 0
-3.887513 6.133631 35.260887 136 136 136 0
-3.800042 6.131886 35.250851 136 136 136 0
-3.717755 6.138619 35.289558 136 136 136 0
-3.635339 6.145454 35.328855 135 135 135 0
-3.544862 6.138664 35.289819 134 134 134 0
-3.458614 6.139040 35.291978 133 133 133 0
-3.377503 6.148788 35.348017 130 130 130 0
-3.294466 6.155450 35.386320 129 129 129 0
-3.206725 6.153446 35.374795 127 127 127 0
-3.121331 6.155958 35.389237 124 124 124 0
-3.040188 6.167239 35.454093 124 124 124 0
-2.956491 6.173850 35.492095 124 124 124 0
-2.869526 6.173829 35.491976 121 121 121 0
-2.784433 6.177961 35.515730 119 119 119 0
-2.703698 6.192340 35.598391 120 120 120 0
-2.621803 6.204933 35.670785 118 118 118 0
-2.533114 6.201763 35.652560 120 120 120 0
-2.448149 6.207806 35.687304 117 117 117 0
-2.366116 6.222008 35.768948 119 119 119 0
-2.282433 6.232799 35.830980 118 118 118 0
-2.195785 6.236030 35.849553 116 116 116 0
-2.109861 6.241671 35.881982 117 117 117 0
-2.026944 6.257087 35.970604 116 116 116 0
-1.940945 6.263960 36.010115 114 114 114 0
-1.855231 6.272448 36.058914 115 115 115 0
-1.770331 6.284675 36.129205 116 116 116 0
-1.683955 6.292674 36.175188 113 113 113 0
-1.597194 6.300042 36.217548 115 115 115 0
-1.510416 6.308209 36.264495 117 117 117 0
-1.426345 6.329405 36.386344 116 116 116 0
-1.337228 6.329545 36.387151 119 119 119 0
-1.248847 6.333437 36.409524 118 118 118 0
-1.161347 6.342739 36.463000 120 120 120 0
-1.074681 6.358532 36.553790 120 120 120 0
-0.985948 6.363847 36.584345 122 122 122 0
-0.896444 6.364751 36.589544 124 124 124 0
-0.808073 6.374801 36.647321 121 120 121 0
-0.719935 6.389422 36.731370 123 123 123 0
-0.629509 6.385021 36.706071 122 122 122 0
-0.540350 6.394139 36.758486 123 123 123 0
-0.450867 6.402315 36.805489 124 124 124 0
-0.361108 6.409659 36.847706 124 124 124 0
-0.270737 6.407452 36.835019 125 125 125 0
-0.180661 6.413449 36.869498 127 127 127 0
-0.090467 6.423185 36.925468 130 130 130 0
0.000000 6.425190 36.936991 126 126 126 0
0.090484 6.424329 36.932041 127 127 127 0
0.181161 6.431199 36.971539 128 128 128 0
0.272007 6.437498 37.007748 127 127 127 0
0.362545 6.435179 36.994420 130 130 130 0
0.453889 6.445227 37.052182 131 131 131 0
0.544569 6.444068 37.045520 131 131 131 0
0.635819 6.449021 37.073991 131 131 131 0
0.726759 6.449984 37.079530 129 129 129 0
0.818560 6.457526 37.122888 126 126 126 0
0.909253 6.455695 37.112362 127 127 127 0
1.000874 6.460187 37.138183 126 126 126 0
1.093051 6.467221 37.178622 127 127 127 0
1.185325 6.473696 37.215841 126 126 126 0
1.275022 6.466185 37.172663 126 126 126 0
1.368122 6.475778 37.227815 129 129 129 0
1.461195 6.484055 37.275393 128 128 128 0
1.553176 6.486793 37.291138 127 127 127 0
1.642426 6.478459 37.243225 125 125 125 0
1.736507 6.489053 37.304127 125 125 125 0
1.830774 6.499249 37.362744 127 127 127 0
1.922106 6.498550 37.358721 127 127 127 0
2.012701 6.495535 37.341391 126 126 126 0
2.108567 6.509055 37.419114 126 126 126 0
2.203519 6.518745 37.474819 126 126 126 0
2.292548 6.510836 37.429351 127 127 127 0
2.383524 6.508855 37.417965 126 126 126 0
2.481871 6.526401 37.518834 127 127 127 0
2.573553 6.525795 37.515349 125 125 125 0
2.665112 6.524930 37.510374 125 124 125 0
2.759048 6.529746 37.538065 122 122 122 0
2.856311 6.541874 37.607784 124 124 124 0
2.947103 6.538884 37.590595 123 123 123 0
3.038874 6.538183 37.586563 122 122 122 0
3.139704 6.556440 37.691520 123 123 123 0
3.233990 6.560380 37.714171 124 124 124 0
3.326048 6.559706 37.710294 121 121 121 0
3.419866 6.562445 37.726042 121 121 121 0
3.516015 6.569397 37.766007 121 121 121 0
3.611198 6.574232 37.793804 125 125 125 0
3.704853 6.576114 37.804622 121 121 121 0
3.801946 6.583858 37.849142 120 120 120 0
3.899818 6.592549 37.899103 121 121 121 0
3.995049 6.596476 37.921676 122 122 122 0
4.093330 6.605146 37.971522 122 122 122 0
4.189459 6.610035 37.999628 121 121 121 0
4.288760 6.619608 38.054659 122 122 122 0
4.377657 6.613057 38.016999 122 122 122 0
4.480000 6.626666 38.095237 124 124 124 0
4.571854 6.624524 38.082919 123 123 123 0
4.667924 6.628452 38.105499 124 124 124 0
4.765276 6.634012 38.137463 125 125 125 0
4.863288 6.640259 38.173375 124 124 124 0
4.959220 6.643483 38.191912 125 125 125 0
5.059439 6.652225 38.242169 127 127 127 0
5.151264 6.649813 38.228302 125 125 125 0
5.245551 6.650610 38.232881 124 124 124 0
5.341594 6.653564 38.249865 125 125 125 0
5.441399 6.661023 38.292743 126 126 126 0
5.538952 6.665519 38.318591 127 127 127 0
5.623704 6.654716 38.256488 128 127 127 0
5.721842 6.659849 38.285996 129 129 129 0
5.825059 6.670632 38.347987 128 128 128 0
5.911060 6.661671 38.296471 128 128 128 0
6.003048 6.659632 38.284747 127 127 127 0
6.104264 6.667734 38.331326 129 129 129 0
6.293920 6.770732 38.923436 130 130 130 0
6.288022 6.663427 38.306564 129 129 129 0
6.483952 6.770009 38.919279 126 126 126 0
6.431058 6.617466 38.042345 127 127 127 0
6.372765 6.463804 37.158977 126 126 126 0
6.923580 6.923580 39.802127 128 128 128 0
7.180310 7.080584 40.704708 128 128 128 0
6.859423 6.671494 38.352941 128 128 128 0
6.957251 6.675200 38.374247 129 129 129 0
7.642439 7.234842 41.591504 130 130 130 0
7.084260 6.618191 38.046511 132 132 132 0
7.238080 6.674073 38.367769 129 129 129 0
8.464885 7.705215 44.295576 131 131 131 0
7.018517 6.307781 36.262037 132 132 132 0
-6.815467 6.133920 34.772791 136 136 136 0
-6.730969 6.134554 34.776383 134 134 134 0
-6.645614 6.134413 34.775582 138 138 138 0
-6.555778 6.130078 34.751009 136 136 136 0
-6.470066 6.129536 34.747936 138 138 138 0
-6.386128 6.130683 34.754440 135 135 135 0
-6.297567 6.127363 34.735616 135 135 135 0
-6.208661 6.123611 34.714350 134 134 134 0
-6.128951 6.128951 34.744618 133 133 133 0
-6.042310 6.127413 34.735902 133 133 133 0
-5.952409 6.122478 34.707926 132 132 132 0
-5.868675 6.123835 34.715619 133 133 133 0
-5.791565 6.132245 34.763292 133 133 133 0
-5.701058 6.126510 34.730783 130 130 130 0
-5.615641 6.126154 34.728765 131 131 131 0
-5.535921 6.132097 34.762452 129 129 129 0
-5.458088 6.140349 34.809233 127 127 127 0
-5.374956 6.142807 34.823168 129 129 129 0
-5.293223 6.146969 34.846764 130 130 130 0
-5.211225 6.150954 34.869356 133 133 133 0
-5.133612 6.160334 34.922531 133 133 133 0
-5.049238 6.161782 34.930739 134 134 134 0
-4.965717 6.164338 34.945226 133 133 133 0
-4.886797 6.172796 34.993173 133 133 133 0
-4.802647 6.174832 35.004719 131 131 131 0
-4.721944 6.181454 35.042257 129 129 129 0
-4.641079 6.188105 35.079963 127 127 127 0
-4.557075 6.190744 35.094921 127 127 127 0
-4.476141 6.197733 35.134542 127 127 127 0
-4.391693 6.200037 35.147604 127 127 127 0
-4.313314 6.211172 35.210727 126 126 126 0
-4.229494 6.214766 35.231100 126 126 126 0
-4.143081 6.214622 35.230284 128 128 128 0
-4.061369 6.221671 35.270245 130 130 130 0
-3.979072 6.228113 35.306765 133 133 133 0
-3.893808 6.230093 35.317990 135 135 135 0
-3.804640 6.225775 35.293507 134 134 134 0
-3.722235 6.232579 35.332083 134 134 134 0
-3.640018 6.240031 35.374323 132 132 132 0
-3.551811 6.237326 35.358993 131 131 131 0
-3.464378 6.235881 35.350798 128 128 128 0
-3.382495 6.244606 35.400259 127 127 127 0
-3.299581 6.251838 35.441261 125 125 125 0
-3.213711 6.253709 35.451863 124 124 124 0
-3.126574 6.253147 35.448681 120 119 119 0
-3.047210 6.268546 35.535973 122 122 122 0
-2.963012 6.274613 35.570371 124 124 124 0
-2.876284 6.275528 35.575556 122 122 122 0
-2.792790 6.283777 35.622319 120 120 120 0
-2.708020 6.289595 35.655300 121 121 121 0
-2.626433 6.303440 35.733788 118 118 118 0
-2.540018 6.306253 35.749732 117 117 117 0
-2.454222 6.310858 35.775837 119 119 119 0
-2.372144 6.325717 35.860072 116 116 116 0
-2.285623 6.329418 35.881054 118 118 118 0
-2.201184 6.339411 35.937702 116 116 116 0
-2.116488 6.349465 35.994700 115 115 115 0
-2.031236 6.358653 36.046785 114 114 114 0
-1.944519 6.363881 36.076422 113 113 113 0
-1.858002 6.370293 36.112774 112 112 112 0
-1.776229 6.394424 36.249568 115 115 115 0
-1.688439 6.398295 36.271514 117 117 117 0
-1.601160 6.404640 36.307481 117 117 117 0
-1.514671 6.415076 36.366646 117 117 117 0
-1.429054 6.430744 36.455463 117 117 117 0
-1.340466 6.434235 36.475258 118 118 118 0
-1.250514 6.431217 36.458147 118 118 118 0
-1.164141 6.447550 36.550739 119 119 119 0
-1.077438 6.464628 36.647553 119 119 119 0
-0.987897 6.466234 36.656658 122 122 122 0
-0.897637 6.462986 36.638244 122 122 122 0
-0.809628 6.477020 36.717801 123 123 123 0
-0.720948 6.488531 36.783054 121 121 121 0
-0.631193 6.492273 36.804271 122 122 122 0
-0.541221 6.494650 36.817745 123 123 123 0
-0.451472 6.501190 36.854820 125 125 125 0
-0.361590 6.508627 36.896979 124 124 124 0
-0.271326 6.511818 36.915071 125 125 125 0
-0.181005 6.516184 36.939818 127 127 127 0
-0.090531 6.518242 36.951486 126 126 126 0
0.000000 6.525239 36.991149 128 128 128 0
0.090676 6.528639 37.010425 128 128 128 0
0.181571 6.536550 37.055273 130 130 130 0
0.272367 6.536813 37.056761 130 130 130 0
0.363056 6.535002 37.046495 129 129 129 0
0.454573 6.545856 37.108027 129 129 129 0
0.545682 6.548182 37.121212 128 128 128 0
0.636660 6.548499 37.123011 128 128 128 0
0.727570 6.548128 37.120909 129 129 129 0
0.820168 6.561345 37.195831 127 127 127 0
0.911025 6.559378 37.184683 131 131 131 0
1.001981 6.558419 37.179245 130 130 130 0
1.094376 6.566253 37.223657 127 127 127 0
1.187332 6.575994 37.278879 127 127 127 0
1.277397 6.569469 37.241889 127 127 127 0
1.369675 6.574439 37.270064 128 128 128 0
1.462846 6.582805 37.317489 128 128 128 0
1.555630 6.588552 37.350065 125 125 125 0
1.646440 6.585760 37.334243 127 127 127 0
1.739493 6.591761 37.368262 126 125 126 0
1.833401 6.600245 37.416354 123 123 123 0
1.925907 6.603109 37.432589 125 125 125 0
2.016228 6.598565 37.406833 125 125 125 0
2.111849 6.611006 37.477360 127 127 127 0
2.205910 6.617731 37.515481 126 126 126 0
2.297286 6.616183 37.506706 126 126 126 0
2.386451 6.608634 37.463913 126 126 126 0
2.486627 6.631006 37.590735 128 128 128 0
2.577729 6.628445 37.576221 127 127 127 0
2.667894 6.623736 37.549523 122 122 122 0
2.763711 6.632907 37.601513 123 123 123 0
2.861602 6.646302 37.677450 124 124 124 0
2.953089 6.644451 37.666954 123 123 123 0
3.045874 6.645544 37.673150 122 122 122 0
3.141818 6.653261 37.716900 121 121 121 0
3.239299 6.663701 37.776081 120 120 120 0
3.332749 6.665498 37.786272 120 120 120 0
3.426407 6.667602 37.798197 120 120 120 0
3.524749 6.678472 37.859817 119 119 119 0
3.619855 6.682808 37.884402 120 120 120 0
3.712817 6.683070 37.885884 120 120 120 0
3.811210 6.692857 37.941368 122 122 122 0
3.913208 6.708356 38.029229 121 121 121 0
4.000956 6.699275 37.977751 122 122 122 0
4.098012 6.705838 38.014952 123 123 123 0
4.197345 6.715752 38.071156 122 122 122 0
4.294984 6.722584 38.109885 124 124 124 0
4.387151 6.720742 38.099443 124 124 124 0
4.485289 6.727933 38.140212 122 122 122 0
4.582396 6.733316 38.170728 123 123 123 0
4.676618 6.734330 38.176474 123 123 123 0
4.773559 6.739142 38.203755 124 124 124 0
4.871232 6.744783 38.235734 124 124 124 0
4.963036 6.742237 38.221299 123 123 123 0
5.058878 6.745170 38.237928 125 125 125 0
5.165148 6.761648 38.331338 125 125 125 0
5.253931 6.755054 38.293958 127 127 127 0
5.348327 6.755782 38.298084 126 126 126 0
5.450915 6.766653 38.359711 126 126 126 0
5.548470 6.771014 38.384433 127 127 127 0
5.638205 6.765846 38.355137 128 128 128 0
5.728423 6.761417 38.330031 128 128 128 0
5.833867 6.774813 38.405968 128 128 128 0
5.927310 6.774068 38.401747 127 127 127 0
6.010867 6.762226 38.334613 127 127 127 0
6.111846 6.770045 38.378942 131 131 131 0
6.213925 6.778828 38.428728 127 127 127 0
6.100999 6.556298 37.167221 129 129 129 0
6.484299 6.865728 38.921360 129 129 129 0
6.581339 6.867485 38.931319 128 128 128 0
6.676907 6.867675 38.932400 127 127 127 0
6.924584 7.022113 39.807896 128 128 128 0
