ply
format ascii 1.0
element vertex 1104
property float x
property float y
property float z
property uchar red
property uchar green
property uchar blue
property uchar alpha
end_header
-3.767061 -4.101911 34.168352 144 144 144 0
-3.678683 -4.096715 34.125074 147 147 147 0
-3.591590 -4.092743 34.091983 151 151 151 0
-3.502748 -4.086539 34.040308 154 154 154 0
-3.418088 -4.085032 34.027752 157 157 157 0
-3.334155 -4.084340 34.021988 156 156 156 0
-3.251276 -4.084937 34.026962 153 153 153 0
-3.169322 -4.086757 34.042123 147 147 147 0
-3.085295 -4.085931 34.035241 150 150 150 0
-3.004817 -4.089890 34.068225 152 152 152 0
-2.921695 -4.090373 34.072247 155 155 155 0
-2.837356 -4.089131 34.061897 160 160 160 0
-2.754683 -4.090287 34.071526 163 163 163 0
-2.672273 -4.091918 34.085116 163 163 163 0
-2.587384 -4.089736 34.066942 161 161 161 0
-2.500851 -4.084724 34.025190 159 159 159 0
-2.415709 -4.081716 34.000132 161 160 161 0
-2.330857 -4.079000 33.977508 162 162 162 0
-2.246556 -4.077083 33.961540 160 160 160 0
-2.163358 -4.077099 33.961671 155 155 155 0
-2.080712 -4.078196 33.970810 154 154 154 0
-1.996793 -4.076785 33.959062 155 155 155 0
-1.915199 -4.080206 33.987553 151 151 151 0
-1.830888 -4.077886 33.968232 153 153 153 0
-1.747836 -4.078283 33.971540 153 153 153 0
-1.666288 -4.082406 34.005883 152 152 152 0
-1.582700 -4.081700 34.000000 150 150 150 0
-1.499805 -4.082803 34.009186 147 147 147 0
-1.417958 -4.087054 34.044600 140 140 140 0
-1.335744 -4.090716 34.075098 128 128 128 0
-1.116375 -3.646825 30.377549 117 117 117 0
-1.042761 -3.649662 30.401184 115 114 115 0
-0.971810 -3.662975 30.512078 117 117 117 0
-0.900969 -3.678957 30.645206 106 106 106 0
-0.829094 -3.693237 30.764158 108 108 108 0
-0.755751 -3.703182 30.846998 113 113 113 0
-0.681812 -3.712086 30.921168 114 114 114 0
-0.607172 -3.718929 30.978168 128 128 128 0
-0.531750 -3.722247 31.005804 137 137 137 0
-0.513949 -4.197252 34.962532 138 138 138 0
-0.380785 -3.731697 31.084520 133 133 133 0
-0.304227 -3.726785 31.043604 126 126 126 0
-0.226318 -3.696531 30.791599 127 127 127 0
-0.152014 -3.724351 31.023334 133 133 133 0
-0.086550 -4.240958 35.326593 146 146 146 0
0.000000 -4.250978 35.410063 162 162 162 0
0.086730 -4.249747 35.399810 162 162 162 0
0.173025 -4.239112 35.311224 163 163 163 0
0.259655 -4.241027 35.327168 160 160 160 0
0.345281 -4.229692 35.232752 158 158 158 0
0.431325 -4.226981 35.210174 152 152 152 0
0.517792 -4.228637 35.223965 150 150 150 0
0.601239 -4.208675 35.057688 150 150 150 0
0.685777 -4.200387 34.988645 150 150 150 0
0.770881 -4.197021 34.960612 151 151 151 0
0.855020 -4.189599 34.898787 153 153 153 0
0.940291 -4.188571 34.890222 153 153 153 0
1.024017 -4.181402 34.830500 153 153 153 0
1.108460 -4.178043 34.802524 156 156 156 0
1.192827 -4.174893 34.776285 158 158 158 0
1.279201 -4.178723 34.808185 159 159 159 0
1.362081 -4.171374 34.746974 158 158 158 0
1.445825 -4.167379 34.713691 155 155 155 0
1.532406 -4.171550 34.748442 150 150 150 0
1.618536 -4.174120 34.769847 142 141 142 0
1.701860 -4.169557 34.731839 130 130 130 0
1.791752 -4.180756 34.825120 119 119 119 0
1.882456 -4.192743 34.924975 111 111 111 0
1.707332 -3.637360 30.298711 108 108 108 0
1.787550 -3.649581 30.400505 107 107 107 0
1.866921 -3.659165 30.480341 110 110 110 0
1.941032 -3.658100 30.471466 106 106 106 0
2.002782 -3.634678 30.276366 97 97 97 0
2.445192 -4.279086 35.644202 112 112 112 0
2.537600 -4.287669 35.715691 132 132 132 0
2.630313 -4.296177 35.786565 139 139 139 0
2.717849 -4.295955 35.784713 141 141 141 0
2.808959 -4.301219 35.828562 141 141 141 0
2.900761 -4.307190 35.878304 139 139 139 0
2.989344 -4.308172 35.886478 137 137 137 0
3.076830 -4.307562 35.881398 137 137 137 0
3.171244 -4.316415 35.955142 132 132 132 0
3.259195 -4.316231 35.953614 131 131 131 0
3.349959 -4.319684 35.982374 131 131 131 0
3.446969 -4.330808 36.075032 127 127 127 0
3.539831 -4.336294 36.120729 123 123 123 0
3.631211 -4.339740 36.149436 111 111 111 0
3.733240 -4.355447 36.280272 90 90 90 0
4.366576 -4.552388 37.920768 84 84 84 0
4.449303 -4.541996 37.834206 111 110 111 0
4.516046 -4.516046 37.618042 118 118 118 0
4.582756 -4.491101 37.410253 129 129 129 0
4.658139 -4.475467 37.280023 132 132 132 0
4.749177 -4.475186 37.277681 136 136 136 0
4.833410 -4.468625 37.223029 136 136 136 0
4.921718 -4.466003 37.201195 133 133 133 0
5.012925 -4.466061 37.201672 131 131 131 0
5.099598 -4.462148 37.169083 128 128 128 0
5.200049 -4.470218 37.236298 121 121 121 0
5.288394 -4.467781 37.216002 117 117 117 0
4.975366 -4.132084 34.419689 112 112 112 0
5.495800 -4.488237 37.386397 135 135 135 0
5.601613 -4.499656 37.481518 147 147 147 0
5.685541 -4.493412 37.429502 142 142 142 0
5.791482 -4.504486 37.521752 147 147 147 0
5.892615 -4.511533 37.580452 151 151 151 0
5.961094 -4.493748 37.432302 148 147 148 0
5.990386 -4.447408 37.046294 148 148 148 0
6.226572 -4.553762 37.932210 146 146 146 0
6.464634 -4.658339 38.803323 146 146 146 0
6.301108 -4.474700 37.273634 147 147 147 0
6.406036 -4.484225 37.352978 145 145 145 0
6.442516 -4.446244 37.036599 147 147 147 0
7.000497 -4.764227 39.685358 146 146 146 0
6.621935 -4.444861 37.025078 146 146 146 0
7.357178 -4.871645 40.580131 148 148 148 0
6.642808 -4.339968 36.151336 145 145 145 0
6.936384 -4.472143 37.252332 145 145 145 0
8.161991 -5.193994 43.265258 142 142 142 0
7.148255 -4.490571 37.405836 140 140 140 0
7.224154 -4.480804 37.324483 135 135 135 0
-3.663792 -3.663792 31.154691 74 74 74 0
-3.952900 -4.037004 34.328269 125 125 125 0
-3.859490 -4.027294 34.245696 142 142 142 0
-3.763984 -4.014916 34.140441 148 148 148 0
-3.677493 -4.011810 34.114031 150 150 150 0
-3.589941 -4.007376 34.076330 151 151 151 0
-3.501929 -4.002205 34.032352 154 154 154 0
-3.415875 -3.999074 34.005729 153 153 153 0
-3.333636 -4.000364 34.016698 148 148 148 0
-3.252111 -4.002599 34.035702 148 148 148 0
-3.167387 -4.000909 34.021338 146 146 146 0
-3.086401 -4.003980 34.047451 149 149 149 0
-3.006300 -4.008399 34.085029 152 152 152 0
-2.921642 -4.006824 34.071629 156 156 156 0
-2.837937 -4.006499 34.068868 161 161 161 0
-2.753505 -4.005098 34.056955 166 166 166 0
-2.672939 -4.009408 34.093610 162 162 162 0
-2.585726 -4.003704 34.045105 160 160 160 0
-2.500435 -4.000696 34.019526 159 159 159 0
-2.416856 -4.000314 34.016275 161 161 161 0
-2.330202 -3.994633 33.967966 161 161 161 0
-2.247294 -3.995188 33.972691 160 160 160 0
-2.163843 -3.994787 33.969275 157 157 157 0
-2.080028 -3.993654 33.959640 154 154 154 0
-1.997820 -3.995640 33.976528 154 154 154 0
-1.914518 -3.995516 33.975479 151 151 151 0
-1.830638 -3.994120 33.963603 152 152 152 0
-1.748778 -3.997206 33.989850 152 152 152 0
-1.666280 -3.999071 34.005706 151 151 151 0
-1.583283 -3.999873 34.012521 151 151 151 0
-1.500172 -4.000457 34.017494 151 151 151 0
-1.417861 -4.003373 34.042288 142 142 142 0
-1.334644 -4.003932 34.047039 130 130 130 0
-1.116942 -3.574213 30.392967 117 117 117 0
-1.044760 -3.582035 30.459482 115 115 115 0
-0.973837 -3.595704 30.575716 111 111 111 0
-0.899113 -3.596452 30.582074 108 108 108 0
-0.827419 -3.610558 30.702021 110 110 110 0
-0.753822 -3.618345 30.768237 113 113 113 0
-0.681587 -3.635128 30.910953 116 116 116 0
-0.606329 -3.637974 30.935152 126 126 126 0
-0.598986 -4.107333 34.926303 135 135 135 0
-0.455641 -3.645130 30.996003 138 138 138 0
-0.428931 -4.117733 35.014737 135 135 135 0
-0.304433 -3.653195 31.064581 126 126 126 0
-0.225731 -3.611700 30.711736 126 126 126 0
-0.171590 -4.118149 35.018271 134 134 134 0
-0.086405 -4.147456 35.267485 145 145 145 0
0.000000 -4.164449 35.411978 161 161 161 0
0.086740 -4.163507 35.403974 162 162 162 0
0.173425 -4.162196 35.392822 161 161 161 0
0.260028 -4.160442 35.377910 159 159 159 0
0.345787 -4.149438 35.284338 151 151 151 0
0.430829 -4.135963 35.169754 151 151 151 0
0.515617 -4.124936 35.075990 147 147 147 0
0.600392 -4.116971 35.008258 151 151 151 0
0.685668 -4.114005 34.983038 151 151 151 0
0.769910 -4.106185 34.916540 151 151 151 0
0.854425 -4.101240 34.874490 155 155 155 0
0.939659 -4.100332 34.866768 154 154 154 0
1.024017 -4.096070 34.830527 158 158 158 0
1.107684 -4.089909 34.778134 157 157 157 0
1.192116 -4.087256 34.755574 159 159 159 0
1.279268 -4.093657 34.810007 160 160 160 0
1.362151 -4.086454 34.748761 160 160 160 0
1.445950 -4.082684 34.716697 159 159 159 0
1.531345 -4.083588 34.724385 153 153 153 0
1.618775 -4.089537 34.774970 144 144 144 0
1.701144 -4.082745 34.717223 135 135 135 0
1.792197 -4.096451 34.833769 117 117 117 0
1.883751 -4.110003 34.949006 108 108 108 0
1.706152 -3.560666 30.277769 106 106 106 0
2.064616 -4.129233 35.112523 105 105 105 0
1.863852 -3.578595 30.430232 110 110 110 0
1.937221 -3.576408 30.411630 105 105 105 0
2.005074 -3.564576 30.311023 95 95 95 0
2.434928 -4.174162 35.494572 120 120 120 0
2.540174 -4.204426 35.751920 134 134 134 0
2.631590 -4.210544 35.803946 143 143 143 0
2.715645 -4.204869 35.755691 143 143 143 0
2.810142 -4.215213 35.843651 140 140 140 0
2.901601 -4.220510 35.888689 138 138 138 0
2.988844 -4.219545 35.880484 139 139 139 0
3.078090 -4.221381 35.896095 136 136 136 0
3.170851 -4.227801 35.950692 132 132 132 0
3.261048 -4.230549 35.974058 135 135 135 0
3.350076 -4.231675 35.983632 135 135 135 0
3.444734 -4.239672 36.051633 132 132 132 0
3.536416 -4.243699 36.085874 130 130 130 0
3.626293 -4.245416 36.100477 125 125 125 0
3.721716 -4.253390 36.168282 117 116 117 0
3.824496 -4.269205 36.302763 101 101 101 0
3.934945 -4.292668 36.502276 72 72 72 0
4.364462 -4.457323 37.902408 100 100 100 0
4.430588 -4.430588 37.675069 115 114 115 0
4.507976 -4.415977 37.550821 121 121 121 0
4.580402 -4.397185 37.391033 131 130 131 0
4.655568 -4.381711 37.259449 133 133 133 0
4.740414 -4.375767 37.208905 139 139 139 0
4.828896 -4.373340 37.188267 135 135 135 0
4.916498 -4.370220 37.161739 134 133 134 0
4.998657 -4.362464 37.095786 132 132 132 0
5.090569 -4.363345 37.103273 127 127 127 0
5.184572 -4.365956 37.125473 119 119 119 0
4.770418 -3.947933 33.570855 117 117 117 0
4.849861 -3.945649 33.551440 113 113 113 0
5.488296 -4.390637 37.335347 122 122 122 0
5.598133 -4.405088 37.458233 146 146 146 0
5.689246 -4.404578 37.453892 143 143 143 0
5.782549 -4.405751 37.463872 148 148 148 0
5.539411 -4.154558 35.327876 150 150 150 0
5.956719 -4.398808 37.404832 149 149 149 0
6.046891 -4.397739 37.395739 148 148 148 0
6.081227 -4.356700 37.046769 147 147 147 0
6.171517 -4.356365 37.043918 148 148 148 0
6.302701 -4.384487 37.283057 146 146 146 0
6.807460 -4.667972 39.693642 145 145 145 0
6.902785 -4.666671 39.682580 145 145 145 0
6.578112 -4.385408 37.290883 144 144 144 0
7.255746 -4.770901 40.568888 146 146 146 0
6.714803 -4.355548 37.036971 145 145 145 0
7.621053 -4.877474 41.475120 144 144 144 0
7.722498 -4.877367 41.474212 145 145 145 0
6.985879 -4.354834 37.030899 142 142 142 0
7.077282 -4.355250 37.034441 138 138 138 0
6.995230 -4.250267 36.141723 135 135 135 0
-6.485819 -3.810418 33.090912 77 77 77 0
-4.036168 -3.952081 34.321156 97 97 97 0
-3.950529 -3.950529 34.307676 136 136 136 0
-3.856926 -3.940772 34.222946 145 144 144 0
-3.761680 -3.928866 34.119550 151 151 151 0
-3.676184 -3.926833 34.101894 149 149 149 0
-3.588999 -3.922859 34.067383 151 151 151 0
-3.500257 -3.916955 34.016105 154 154 154 0
-3.416447 -3.916415 34.011419 151 151 151 0
-3.332205 -3.915341 34.002093 148 148 148 0
-3.250511 -3.917283 34.018957 146 146 146 0
-3.168518 -3.918956 34.033491 150 150 150 0
-3.087685 -3.922194 34.061611 151 151 151 0
-3.006560 -3.925231 34.087980 151 151 151 0
-2.922975 -3.925137 34.087167 155 155 155 0
-2.839316 -3.924937 34.085431 161 161 161 0
-2.755367 -3.924311 34.079994 164 164 164 0
-2.672997 -3.925965 34.094352 162 162 162 0
-2.587426 -3.922871 34.067485 160 160 160 0
-2.501313 -3.918724 34.031469 159 159 159 0
-2.416702 -3.916724 34.014105 161 161 161 0
-2.331181 -3.913054 33.982228 160 160 160 0
-2.247172 -3.911744 33.970855 159 159 159 0
-2.163834 -3.911546 33.969139 155 155 155 0
-2.081203 -3.912661 33.978818 155 155 155 0
-1.997941 -3.912635 33.978589 154 154 154 0
-1.914436 -3.912108 33.974013 153 153 153 0
-1.831925 -3.913659 33.987482 153 153 153 0
-1.748339 -3.912949 33.981317 151 151 151 0
-1.666149 -3.915450 34.003043 151 151 151 0
-1.582658 -3.914996 33.999098 153 153 153 0
-1.500733 -3.918581 34.030227 153 153 153 0
-1.416563 -3.916381 34.011127 144 144 144 0
-1.334761 -3.920862 34.050035 133 133 133 0
-1.115075 -3.493902 30.342184 121 121 121 0
-1.043369 -3.502739 30.418922 118 118 118 0
-0.973156 -3.518334 30.554352 112 112 112 0
-0.898547 -3.519309 30.562825 109 109 109 0
-0.824807 -3.524175 30.605076 112 112 112 0
-0.751937 -3.534104 30.691303 111 111 111 0
-0.679448 -3.548227 30.813952 116 116 116 0
-0.606950 -3.565834 30.966862 122 122 122 0
-0.530961 -3.565024 30.959824 131 131 131 0
-0.455547 -3.568454 30.989615 136 136 136 0
-0.380007 -3.572064 31.020960 133 133 133 0
-0.304190 -3.574228 31.039754 128 128 128 0
-0.225483 -3.532572 30.677999 122 122 122 0
-0.151677 -3.564415 30.954540 135 135 135 0
-0.086219 -4.052282 35.191336 146 146 146 0
0.000000 -4.073342 35.374223 160 160 160 0
0.086803 -4.079749 35.429867 162 162 162 0
0.173381 -4.074451 35.383860 158 158 158 0
0.260062 -4.074307 35.382606 160 160 160 0
0.345688 -4.061831 35.274259 154 154 154 0
0.429765 -4.039789 35.082844 149 149 149 0
0.514854 -4.033023 35.024082 150 150 150 0
0.599966 -4.028341 34.983425 152 152 152 0
0.685009 -4.024430 34.949458 152 152 152 0
0.769661 -4.019340 34.905250 153 153 153 0
0.853735 -4.012553 34.846311 155 155 155 0
0.940225 -4.017325 34.887754 154 154 154 0
1.023752 -4.009697 34.821510 159 159 159 0
1.107791 -4.005092 34.781520 158 158 158 0
1.192106 -4.002071 34.755286 160 160 160 0
1.279760 -4.009916 34.823413 160 160 160 0
1.362883 -4.003469 34.767422 158 158 158 0
1.445696 -3.996926 34.710599 157 157 157 0
1.531406 -3.998671 34.725759 155 155 155 0
1.619317 -4.005679 34.786621 150 150 150 0
1.702573 -4.001048 34.746398 139 139 139 0
1.789963 -4.006107 34.790332 120 120 120 0
1.628140 -3.478299 30.206681 110 110 110 0
1.704530 -3.483171 30.248986 106 106 106 0
1.788275 -3.502039 30.412841 107 107 107 0
1.867540 -3.510974 30.490441 108 108 108 0
1.943255 -3.512807 30.506358 105 105 105 0
1.999678 -3.480921 30.229451 99 99 99 0
2.439416 -4.094734 35.560004 119 119 119 0
2.541814 -4.119491 35.774998 133 133 133 0
2.633810 -4.126303 35.834156 143 143 143 0
2.720775 -4.125046 35.823240 141 141 141 0
2.813848 -4.132840 35.890923 141 141 141 0
2.901460 -4.132383 35.886954 142 142 142 0
2.990380 -4.133761 35.898921 139 139 139 0
3.079653 -4.135534 35.914325 137 137 137 0
3.168827 -4.137080 35.927743 137 137 137 0
3.260040 -4.141131 35.962931 134 134 134 0
3.350778 -4.144383 35.991167 138 138 138 0
3.441461 -4.147401 36.017379 137 137 137 0
3.534058 -4.152519 36.061821 134 134 134 0
3.622362 -4.152463 36.061339 129 129 129 0
3.714117 -4.156274 36.094435 126 126 126 0
3.810338 -4.164788 36.168373 118 118 118 0
3.909627 -4.176192 36.267409 102 102 102 0
3.452963 -3.606428 31.319392 73 73 73 0
4.348438 -4.348438 37.763252 87 87 87 0
4.421772 -4.329652 37.600101 116 116 116 0
4.502946 -4.319152 37.508917 124 124 124 0
4.573601 -4.299185 37.335521 131 131 131 0
4.647870 -4.283331 37.197837 137 137 137 0
4.738821 -4.283165 37.196400 137 137 137 0
4.821916 -4.276039 37.134507 139 139 139 0
4.909002 -4.272650 37.105083 137 137 137 0
4.992062 -4.265944 37.046842 133 133 133 0
5.086208 -4.268782 37.071486 131 131 131 0
5.176425 -4.268280 37.067131 125 125 125 0
5.273759 -4.273563 37.113009 117 117 117 0
5.334101 -4.249199 36.901424 115 115 115 0
5.454092 -4.272372 37.102664 114 114 114 0
5.564759 -4.287601 37.234918 119 119 119 0
5.673259 -4.300697 37.348647 133 133 133 0
5.777686 -4.310337 37.432370 137 137 137 0
5.538400 -4.067263 35.321431 140 140 140 0
5.949347 -4.301835 37.358534 142 142 142 0
6.132076 -4.366781 37.922547 145 145 145 0
6.131633 -4.301295 37.353840 147 147 147 0
6.025037 -4.164364 36.164689 148 148 148 0
6.557950 -4.467010 38.792963 145 145 145 0
6.400818 -4.297692 37.322552 145 145 145 0
6.903864 -4.570163 39.688783 146 146 146 0
6.579199 -4.294755 37.297045 145 145 145 0
7.415110 -4.774112 41.459939 145 145 145 0
6.771767 -4.300987 37.351167 144 144 144 0
6.641884 -4.162247 36.146306 141 141 141 0
6.940648 -4.292243 37.275229 143 143 143 0
6.985607 -4.263942 37.029456 140 140 140 0
6.909778 -4.163584 36.157920 137 137 137 0
7.222381 -4.296860 37.315326 135 135 135 0
-6.480466 -3.726268 33.063600 111 111 111 0
-6.413315 -3.734335 33.135185 100 100 100 0
-6.359577 -3.750520 33.278791 86 86 86 0
-4.037579 -3.869347 34.333158 113 113 113 0
-3.949446 -3.865415 34.298268 142 142 142 0
-3.853582 -3.853582 34.193278 147 147 147 0
-3.760726 -3.844297 34.110891 149 149 149 0
-3.672557 -3.839491 34.068246 151 151 151 0
-3.586121 -3.836315 34.040062 152 152 152 0
-3.499123 -3.832373 34.005081 153 153 153 0
-3.414313 -3.830693 33.990174 149 149 149 0
-3.333168 -3.833143 34.011917 147 147 147 0
-3.248838 -3.831962 34.001439 143 143 143 0
-3.166932 -3.833654 34.016454 147 147 147 0
-3.085699 -3.836274 34.039702 147 147 147 0
-3.004426 -3.838989 34.063788 151 151 151 0
-2.923159 -3.841866 34.089321 157 157 157 0
-2.840111 -3.842503 34.094973 159 159 159 0
-2.757819 -3.844232 34.110313 164 164 164 0
-2.673716 -3.843466 34.103514 163 163 163 0
-2.587652 -3.839742 34.070473 159 159 159 0
-2.502209 -3.836721 34.043664 161 161 161 0
-2.417094 -3.834011 34.019617 159 159 159 0
-2.331115 -3.829689 33.981273 160 160 160 0
-2.247897 -3.829750 33.981808 162 162 162 0
-2.164129 -3.828843 33.973763 155 155 155 0
-2.081323 -3.829634 33.980779 150 150 150 0
-1.997166 -3.827902 33.965413 152 152 152 0
-1.914837 -3.829673 33.981131 152 152 152 0
-1.832188 -3.830939 33.992362 151 151 151 0
-1.748773 -3.830645 33.989754 151 151 151 0
-1.665294 -3.830175 33.985583 154 154 154 0
-1.583616 -3.834018 34.019677 153 153 153 0
-1.499917 -3.833120 34.011714 152 152 152 0
-1.416958 -3.834122 34.020608 146 146 146 0
-1.334075 -3.835465 34.032523 137 137 137 0
-1.251773 -3.838769 34.061841 124 124 124 0
-1.043918 -3.430015 30.434919 116 116 116 0
-0.970614 -3.434481 30.474539 113 113 113 0
-0.897575 -3.440704 30.529757 110 110 110 0
-0.824930 -3.449706 30.609641 112 112 112 0
-0.750929 -3.454275 30.650178 112 112 112 0
-0.678778 -3.469308 30.783571 113 112 113 0
-0.605789 -3.483290 30.907627 116 116 116 0
-0.530866 -3.488550 30.954301 129 129 129 0
-0.455297 -3.490610 30.972580 133 132 133 0
-0.380441 -3.500056 31.056399 134 134 134 0
-0.303871 -3.494516 31.007242 123 123 123 0
-0.225669 -3.460264 30.703315 122 122 122 0
-0.171452 -3.943401 34.990249 136 136 136 0
-0.086217 -3.965994 35.190722 147 147 147 0
0.000000 -3.986590 35.373474 159 159 159 0
0.086903 -3.997533 35.470571 165 165 165 0
0.173557 -3.991822 35.419892 158 158 158 0
0.260169 -3.989260 35.397157 153 153 153 0
0.345178 -3.969545 35.222230 152 152 152 0
0.429168 -3.948342 35.034089 151 151 151 0
0.514509 -3.944566 35.000589 152 152 152 0
0.599654 -3.940581 34.965224 151 151 151 0
0.684580 -3.936334 34.927540 155 155 155 0
0.769404 -3.932509 34.893601 153 153 153 0
0.853768 -3.927333 34.847678 155 155 155 0
0.939329 -3.928102 34.854499 157 157 157 0
1.023682 -3.924113 34.819101 161 161 161 0
1.107132 -3.917543 34.760807 160 160 160 0
1.191909 -3.916271 34.749522 157 157 157 0
1.279127 -3.922657 34.806187 161 161 161 0
1.362574 -3.917401 34.759551 158 158 158 0
1.446228 -3.913322 34.723352 158 158 158 0
1.532782 -3.917111 34.756970 156 156 156 0
1.618665 -3.918873 34.772608 149 149 149 0
1.702751 -3.916328 34.750027 141 141 141 0
1.791199 -3.923579 34.814362 127 127 127 0
1.878205 -3.927155 34.846096 108 108 108 0
1.704957 -3.409913 30.256551 105 105 105 0
1.785574 -3.422350 30.366899 106 106 106 0
1.865503 -3.432526 30.457192 105 105 105 0
1.947717 -3.445960 30.576401 100 100 100 0
2.011789 -3.427492 30.412525 99 99 99 0
2.445173 -4.017070 35.643921 120 120 120 0
2.544446 -4.036018 35.812047 137 137 137 0
2.635020 -4.040363 35.850607 142 142 142 0
2.723784 -4.041744 35.862860 146 146 146 0
2.814264 -4.045505 35.896229 145 145 145 0
2.903157 -4.046826 35.907946 144 144 144 0
2.991484 -4.047301 35.912168 142 142 142 0
3.078224 -4.045666 35.897661 137 137 137 0
3.170926 -4.051738 35.951538 139 139 139 0
3.259195 -4.051972 35.953614 141 141 141 0
3.347786 -4.052583 35.959031 138 138 138 0
3.443253 -4.061273 36.036141 138 138 138 0
3.530026 -4.059530 36.020671 135 135 135 0
3.621183 -4.062790 36.049604 133 133 133 0
3.714117 -4.067843 36.094435 129 129 129 0
3.806559 -4.072133 36.132500 124 124 124 0
3.903456 -4.080886 36.210165 121 121 121 0
3.414613 -3.490493 30.971544 95 95 95 0
4.412611 -4.228753 37.522205 107 107 107 0
4.495798 -4.220545 37.449382 126 126 126 0
4.567386 -4.201995 37.284783 132 131 131 0
4.645149 -4.189742 37.176062 136 135 136 0
4.732865 -4.186765 37.149646 139 139 139 0
4.819375 -4.182854 37.114941 139 139 139 0
4.900175 -4.174223 37.038357 140 140 140 0
4.992213 -4.175306 37.047966 139 139 139 0
5.078058 -4.171262 37.012084 134 134 134 0
5.167537 -4.170293 37.003486 131 131 131 0
5.259466 -4.171300 37.012425 125 125 125 0
4.973519 -3.877659 34.406909 118 118 118 0
5.426690 -4.160462 36.916255 115 115 115 0
5.553824 -4.188129 37.161751 115 114 115 0
5.644331 -4.187730 37.158205 119 119 119 0
5.752325 -4.200110 37.268061 124 124 124 0
5.867609 -4.217344 37.420974 132 132 132 0
5.938638 -4.202728 37.291290 139 139 139 0
6.273563 -4.372483 38.797544 140 140 140 0
6.224540 -4.273565 37.919828 142 142 142 0
6.316671 -4.273042 37.915194 144 144 144 0
6.298274 -4.198849 37.256871 144 144 144 0
6.352679 -4.174617 37.041858 143 143 143 0
6.903166 -4.472473 39.684769 142 142 142 0
6.582027 -4.205184 37.313080 145 145 145 0
6.623214 -4.173532 37.032229 143 143 143 0
6.776927 -4.212684 37.379630 141 141 141 0
6.806425 -4.174607 37.041767 140 140 140 0
6.896786 -4.174370 37.039666 139 139 139 0
6.986192 -4.173569 37.032558 140 140 140 0
7.078132 -4.174283 37.038891 137 137 137 0
7.170422 -4.175182 37.046870 134 134 134 0
-6.472158 -3.640589 33.021214 126 125 126 0
-6.406559 -3.649306 33.100278 122 121 122 0
-6.328951 -3.651318 33.118529 113 113 113 0
-6.258158 -3.657365 33.173378 100 100 100 0
-6.196050 -3.668714 33.276315 83 82 83 0
-4.121583 -3.785127 34.332220 75 75 75 0
-4.036788 -3.784488 34.326426 126 126 126 0
-3.942697 -3.774922 34.239659 143 143 143 0
-3.849670 -3.765981 34.158561 148 148 148 0
-3.759438 -3.759438 34.099215 150 150 150 0
-3.671660 -3.755107 34.059930 151 151 151 0
-3.582979 -3.749629 34.010244 151 151 151 0
-3.499118 -3.749055 34.005034 151 151 151 0
-3.414783 -3.747933 33.994853 149 149 149 0
-3.331397 -3.747822 33.993850 142 142 142 0
-3.249365 -3.749267 34.006955 143 143 143 0
-3.167449 -3.750927 34.022010 143 143 143 0
-3.085699 -3.752877 34.039702 144 144 144 0
-3.004426 -3.755533 34.063788 147 147 147 0
-2.922592 -3.757618 34.082701 153 152 153 0
-2.840357 -3.759296 34.097923 160 160 160 0
-2.754972 -3.756780 34.075105 164 164 164 0
-2.673634 -3.759798 34.102475 163 163 163 0
-2.587235 -3.755664 34.064979 160 160 160 0
-2.502622 -3.753933 34.049281 159 159 159 0
-2.416502 -3.749745 34.011292 157 157 157 0
-2.332134 -3.748072 33.996118 160 160 160 0
-2.247172 -3.745287 33.970860 159 159 159 0
-2.163378 -3.744307 33.961972 156 156 156 0
-2.079660 -3.743389 33.953641 151 151 151 0
-1.997487 -3.745288 33.970862 151 151 151 0
-1.915326 -3.747378 33.989820 151 151 151 0
-1.831529 -3.746309 33.980130 152 152 152 0
-1.748244 -3.746236 33.979467 152 152 152 0
-1.666148 -3.748833 34.003020 151 151 151 0
-1.582700 -3.748500 34.000000 152 152 152 0
-1.499728 -3.749319 34.007432 153 153 153 0
-1.416100 -3.748500 34.000000 148 148 148 0
-1.334543 -3.753401 34.044454 139 139 139 0
-1.251315 -3.753946 34.049396 128 128 128 0
-1.043312 -3.353504 30.417270 120 120 120 0
-0.971337 -3.362320 30.497235 115 115 115 0
-0.897990 -3.367463 30.543883 113 113 113 0
-0.824470 -3.372831 30.592567 108 108 108 0
-0.753223 -3.389505 30.743814 115 115 115 0
-0.680000 -3.399999 30.838996 115 114 115 0
-0.605399 -3.405370 30.887713 114 114 114 0
-0.530436 -3.409947 30.929222 124 123 124 0
-0.454431 -3.408231 30.913660 130 130 130 0
-0.380440 -3.423962 31.056345 128 128 128 0
-0.302686 -3.405219 30.886340 126 126 126 0
-0.225695 -3.385421 30.706764 124 124 124 0
-0.171598 -3.860965 35.020090 136 136 136 0
-0.086343 -3.885456 35.242229 144 144 144 0
0.000000 -3.898293 35.358666 159 159 159 0
0.086921 -3.911458 35.478076 167 167 167 0
0.173602 -3.906043 35.428963 159 159 159 0
0.260024 -3.900359 35.377402 153 153 153 0
0.344769 -3.878651 35.180506 153 153 153 0
0.429161 -3.862451 35.033565 152 152 152 0
0.514147 -3.856105 34.976010 151 151 151 0
0.599283 -3.852533 34.943611 155 155 155 0
0.684090 -3.848007 34.902558 151 151 151 0
0.768887 -3.844435 34.870156 155 155 155 0
0.853201 -3.839404 34.824524 157 157 157 0
0.939690 -3.844186 34.867897 159 159 159 0
1.023960 -3.839850 34.828568 160 160 160 0
1.108421 -3.836843 34.801295 161 161 161 0
1.192312 -3.832432 34.761291 158 158 158 0
1.279238 -3.837713 34.809191 156 156 156 0
1.362401 -3.831752 34.755118 157 157 157 0
1.447473 -3.831546 34.753252 157 157 157 0
1.532846 -3.832114 34.758402 158 158 158 0
1.619258 -3.835085 34.785355 153 153 153 0
1.702930 -3.831593 34.753677 147 147 147 0
1.788011 -3.831452 34.752396 135 135 135 0
1.879542 -3.844517 34.870907 116 116 116 0
1.704285 -3.334471 30.244630 105 105 105 0
1.784356 -3.345668 30.346197 103 103 103 0
1.860567 -3.349021 30.376610 105 105 105 0
1.926670 -3.334621 30.245992 101 101 101 0
2.004418 -3.340697 30.301107 103 103 103 0
2.449453 -3.936621 35.706312 119 119 119 0
2.542682 -3.945541 35.787220 139 139 139 0
2.637202 -3.955804 35.880306 145 145 145 0
2.722705 -3.952314 35.848649 148 148 148 0
2.814624 -3.958065 35.900817 146 146 146 0
2.905472 -3.962007 35.936570 145 145 145 0
2.993019 -3.961348 35.930596 143 143 143 0
3.078436 -3.957989 35.900124 143 143 143 0
3.168827 -3.961034 35.927747 140 140 140 0
3.258334 -3.962838 35.944112 139 139 139 0
3.349254 -3.966222 35.974804 141 141 141 0
3.438223 -3.967180 35.983492 140 140 140 0
3.527220 -3.968123 35.992041 134 134 134 0
3.620031 -3.973204 36.038134 133 133 133 0
3.707705 -3.972541 36.032117 129 129 129 0
3.802342 -3.979195 36.092470 127 127 127 0
3.895327 -3.983857 36.134761 123 123 123 0
3.984305 -3.984305 36.138819 117 117 117 0
3.488318 -3.412485 30.952244 82 82 82 0
4.379556 -4.105834 37.241124 80 80 80 0
4.490474 -4.123904 37.405029 126 126 126 0
4.564933 -4.108440 37.264759 132 132 132 0
4.637569 -4.091973 37.115400 136 136 136 0
4.724687 -4.088672 37.085459 140 140 140 0
4.810933 -4.084755 37.049930 139 139 139 0
4.894803 -4.079003 36.997756 142 142 142 0
4.985142 -4.078753 36.995490 142 142 142 0
5.072020 -4.075731 36.968078 138 138 138 0
5.158785 -4.072725 36.940815 136 136 136 0
5.252953 -4.075567 36.966595 133 133 133 0
5.345041 -4.076726 36.977105 125 125 125 0
5.436624 -4.077468 36.983839 118 118 118 0
5.539634 -4.086615 37.066805 115 115 115 0
5.630496 -4.086650 37.067122 117 116 117 0
5.740488 -4.100349 37.191371 121 121 121 0
5.942794 -4.178527 37.900471 128 127 128 0
5.928107 -4.104074 37.225164 131 131 131 0
6.023122 -4.106674 37.248744 137 136 137 0
6.223813 -4.180173 37.915402 137 137 137 0
6.463454 -4.277286 38.796241 141 141 141 0
6.298274 -4.107570 37.256871 142 142 142 0
6.404101 -4.116922 37.341697 142 142 142 0
7.056486 -4.472421 40.566172 145 145 145 0
6.581892 -4.113683 37.312315 144 144 144 0
6.622407 -4.082306 37.027718 144 144 144 0
6.769185 -4.116396 37.336927 140 140 140 0
7.785326 -4.671195 42.369119 137 137 137 0
7.557687 -4.474946 40.589080 140 140 140 0
7.034971 -4.111347 37.291127 140 140 140 0
6.911539 -3.987426 36.167133 136 136 136 0
5.781372 -3.293187 29.870173 132 132 132 0
-6.467330 -3.557032 32.996583 131 131 131 0
-6.393993 -3.561211 33.035354 130 130 130 0
-6.327532 -3.569377 33.111102 126 125 125 0
-6.251532 -3.572304 33.138258 125 125 125 0
-6.182661 -3.579435 33.204409 117 116 116 0
-6.109844 -3.584442 33.250850 106 106 106 0
-6.044128 -3.593806 33.337719 96 96 96 0
-5.965416 -3.595593 33.354298 82 82 82 0
-5.897665 -3.604129 33.433477 76 76 76 0
-5.798835 -3.593644 33.336217 73 73 73 0
-5.742210 -3.609389 33.482272 72 72 72 0
-5.661058 -3.609950 33.487478 73 73 73 0
-5.578398 -3.609552 33.483782 75 75 75 0
-5.512774 -3.620329 33.583760 77 77 77 0
-5.430083 -3.620055 33.581216 76 76 76 0
-4.886206 -3.307585 30.682610 72 72 72 0
-4.121156 -3.700630 34.328663 83 83 83 0
-4.035647 -3.699343 34.316730 134 134 134 0
-3.942267 -3.690633 34.235930 145 145 145 0
-3.848738 -3.681402 34.150295 146 146 146 0
-3.758122 -3.674609 34.087278 149 149 149 0
-3.668743 -3.668743 34.032868 150 150 150 0
-3.582494 -3.665808 34.005640 152 152 152 0
-3.495556 -3.662011 33.970420 151 151 151 0
-3.410061 -3.659577 33.947843 148 148 148 0
-3.328700 -3.661570 33.966325 142 142 142 0
-3.249636 -3.666256 34.009797 142 142 142 0
-3.165724 -3.665575 34.003478 142 142 142 0
-3.085308 -3.669015 34.035388 145 145 145 0
-3.005386 -3.673249 34.074670 145 145 145 0
-2.922186 -3.673605 34.077966 154 154 154 0
-2.840749 -3.676263 34.102629 160 160 160 0
-2.757062 -3.676083 34.100957 162 162 162 0
-2.675718 -3.679112 34.129057 163 163 163 0
-2.588377 -3.673826 34.080018 161 161 161 0
-2.503070 -3.671169 34.055368 159 159 159 0
-2.416506 -3.666422 34.011339 158 158 158 0
-2.332235 -3.664940 33.997593 159 159 159 0
-2.247300 -3.662267 33.972793 160 160 160 0
-2.164140 -3.662391 33.973943 155 155 155 0
-2.080276 -3.661285 33.963684 152 152 152 0
-1.996504 -3.660258 33.954156 149 149 149 0
-1.915804 -3.665017 33.998301 151 151 151 0
-1.831101 -3.662202 33.972192 152 152 152 0
-1.748836 -3.664228 33.990980 152 152 152 0
-1.665562 -3.664236 33.991059 152 152 152 0
-1.582972 -3.665830 34.005841 152 152 152 0
-1.499923 -3.666477 34.011850 153 153 153 0
-1.417272 -3.668234 34.028143 150 150 150 0
-1.333693 -3.667656 34.022787 141 141 141 0
-1.251524 -3.671138 34.055081 132 132 132 0
-1.042703 -3.277068 30.399516 125 124 125 0
-0.969022 -3.279766 30.424546 118 118 118 0
-0.896250 -3.286251 30.484701 112 112 112 0
-0.824034 -3.296137 30.576408 113 113 113 0
-0.750505 -3.302222 30.632856 110 110 110 0
-0.678057 -3.314946 30.750886 119 119 119 0
-0.605498 -3.330239 30.892754 115 115 115 0
-0.529221 -3.326535 30.858391 122 122 122 0
-0.454433 -3.332505 30.913777 120 120 120 0
-0.379750 -3.341800 31.000000 127 127 127 0
-0.302664 -3.329303 30.884071 123 123 123 0
-0.255228 -3.743338 34.724842 124 124 124 0
-0.171411 -3.771041 34.981832 135 135 135 0
-0.086374 -3.800455 35.254683 147 147 147 0
0.000000 -3.814808 35.387831 157 157 157 0
0.086845 -3.821185 35.446985 163 163 163 0
0.173742 -3.822322 35.457528 155 155 155 0
0.259930 -3.812303 35.364587 155 155 155 0
0.344535 -3.789887 35.156648 154 154 154 0
0.428782 -3.773280 35.002600 154 154 154 0
0.513979 -3.769182 34.964584 150 150 150 0
0.599293 -3.766982 34.944175 153 153 153 0
0.684152 -3.762833 34.905691 155 155 155 0
0.768244 -3.755859 34.840991 155 155 155 0
0.853175 -3.753968 34.823451 156 156 156 0
0.939479 -3.757916 34.860077 159 159 159 0
1.023515 -3.752888 34.813436 160 160 160 0
1.107809 -3.749509 34.782086 160 160 160 0
1.193595 -3.751299 34.798689 160 160 160 0
1.279372 -3.752824 34.812835 158 158 158 0
1.362943 -3.748092 34.768942 159 159 159 0
1.447404 -3.746221 34.751588 159 159 159 0
1.532995 -3.747322 34.761802 158 158 158 0
1.620133 -3.751887 34.804149 154 154 154 0
1.703162 -3.746957 34.758418 149 149 149 0
1.788372 -3.747066 34.759425 139 139 139 0
1.879048 -3.758095 34.861737 126 125 125 0
1.968076 -3.765015 34.925929 105 105 105 0
1.780086 -3.263491 30.273568 102 102 102 0
1.861029 -3.275411 30.384143 102 102 102 0
1.931674 -3.268986 30.324546 100 100 100 0
2.009053 -3.274012 30.371170 99 99 99 0
2.447328 -3.845801 35.675330 124 124 124 0
2.546210 -3.863215 35.836877 141 141 141 0
2.638676 -3.870058 35.900357 149 149 149 0
2.724715 -3.867337 35.875112 149 149 149 0
2.816301 -3.872414 35.922204 149 149 149 0
2.902996 -3.870661 35.905950 145 145 145 0
2.994365 -3.875061 35.946764 146 146 146 0
3.079639 -3.871547 35.914162 144 144 144 0
3.167069 -3.870862 35.907810 140 140 140 0
3.257322 -3.873573 35.932955 138 138 138 0
3.344279 -3.872323 35.921363 140 140 140 0
3.438064 -3.878841 35.981828 141 141 141 0
3.524341 -3.876775 35.962658 136 136 136 0
3.617572 -3.882273 36.013662 133 133 133 0
3.711201 -3.887924 36.066089 130 130 130 0
3.801586 -3.889995 36.085299 126 126 126 0
3.888992 -3.888992 36.075993 125 125 125 0
3.985845 -3.897270 36.152787 121 121 121 0
4.089276 -3.911481 36.284613 109 109 109 0
3.563431 -3.335978 30.945992 68 68 68 0
4.465043 -4.009427 37.193198 110 109 110 0
4.559020 -4.011938 37.216491 134 134 134 0
4.638941 -4.002224 37.126382 138 138 138 0
4.725080 -3.998145 37.088542 142 141 141 0
4.811975 -3.994847 37.057949 145 145 145 0
4.893332 -3.987159 36.986635 143 143 143 0
4.981207 -3.984965 36.966283 141 141 141 0
5.066845 -3.981093 36.930360 141 141 141 0
5.158406 -3.981927 36.938102 139 139 139 0
5.247685 -3.981003 36.929524 135 134 134 0
5.342730 -3.984409 36.961118 131 130 130 0
5.431473 -3.983080 36.948793 127 127 127 0
5.533337 -3.991259 37.024671 122 122 122 0
5.623801 -3.991084 37.023045 118 117 118 0
5.715446 -3.991740 37.029129 120 120 120 0
5.532089 -3.803311 35.281179 123 123 123 0
5.616491 -3.801933 35.268391 129 129 129 0
6.018325 -4.012216 37.219076 131 131 131 0
6.223625 -4.087157 37.914256 135 135 135 0
6.022975 -3.897219 36.152310 136 136 136 0
6.288865 -4.010291 37.201212 139 139 139 0
6.351399 -3.992308 37.034398 142 142 142 0
6.903181 -4.278028 39.684857 142 142 142 0
6.579009 -4.020506 37.295970 142 142 142 0
7.256731 -4.373920 40.574395 142 142 142 0
6.716121 -3.993370 37.044244 139 139 139 0
6.857654 -4.023157 37.320567 136 136 136 0
8.055622 -4.663781 43.263274 139 139 139 0
7.042723 -4.024413 37.332221 138 138 138 0
8.444211 -4.763401 44.187392 136 136 136 0
5.781277 -3.219952 29.869683 127 127 127 0
-6.465777 -3.475355 32.988659 135 135 135 0
-6.394195 -3.480385 33.036401 132 132 132 0
-6.321847 -3.485121 33.081355 131 131 131 0
-6.242210 -3.485910 33.088843 133 133 133 0
-6.178514 -3.495738 33.182138 135 135 135 0
-6.099118 -3.496828 33.192481 130 130 130 0
-6.027867 -3.502680 33.248026 126 126 126 0
-5.948224 -3.503748 33.258170 122 122 122 0
-5.875553 -3.509011 33.308123 121 120 121 0
-5.801470 -3.513567 33.351368 116 116 116 0
-5.723397 -3.515801 33.372579 112 112 112 0
-5.644289 -3.517456 33.388284 111 111 111 0
-5.569324 -3.521779 33.429317 111 111 111 0
-5.493446 -3.525644 33.466012 111 111 111 0
-5.416448 -3.528898 33.496896 113 113 113 0
-5.338917 -3.531899 33.525379 108 108 108 0
-5.258460 -3.533028 33.536095 98 98 98 0
-5.184677 -3.538748 33.590392 82 82 82 0
-4.125107 -3.619992 34.361574 93 93 93 0
-4.033067 -3.612956 34.294790 136 136 136 0
-3.941666 -3.606205 34.230711 145 145 145 0
-3.845717 -3.594909 34.123486 147 147 147 0
-3.755496 -3.588585 34.063453 149 148 149 0
-3.667847 -3.584487 34.024555 150 150 150 0
-3.580804 -3.580804 33.989596 150 150 150 0
-3.495195 -3.578414 33.966914 150 150 150 0
-3.408913 -3.575201 33.936411 147 147 147 0
-3.328852 -3.578516 33.967877 140 140 140 0
-3.245639 -3.578525 33.967965 137 137 137 0
-3.165218 -3.581694 33.998046 139 139 139 0
-3.083321 -3.583319 34.013468 141 141 141 0
-3.002259 -3.586031 34.039215 143 143 143 0
-2.922392 -3.590367 34.080369 153 153 153 0
-2.841403 -3.593539 34.110478 162 162 162 0
-2.757929 -3.593665 34.111672 163 163 163 0
-2.675717 -3.595495 34.129048 162 162 162 0
-2.589865 -3.592394 34.099607 160 160 160 0
-2.503070 -3.587733 34.055368 160 160 160 0
-2.416691 -3.583370 34.013951 161 161 161 0
-2.331105 -3.579912 33.981125 161 161 161 0
-2.247887 -3.579969 33.981668 161 161 161 0
-2.162910 -3.577120 33.954631 155 155 155 0
-2.080167 -3.577887 33.961908 151 151 151 0
-1.996970 -3.577904 33.962069 147 147 147 0
-1.914208 -3.578737 33.969978 150 150 150 0
-1.831288 -3.579335 33.975655 153 153 153 0
-1.748778 -3.580831 33.989850 151 151 151 0
-1.666292 -3.582527 34.005951 151 151 151 0
-1.582921 -3.582401 34.004758 152 152 152 0
-1.499920 -3.583142 34.011790 152 152 152 0
-1.416521 -3.582964 34.010102 149 149 149 0
-1.333703 -3.584328 34.023042 142 142 142 0
-1.250424 -3.584549 34.025143 133 133 133 0
-1.041738 -3.199624 30.371373 125 125 125 0
-1.088276 -3.599684 34.168806 117 117 117 0
-0.894899 -3.206720 30.438729 119 119 119 0
-0.822129 -3.213775 30.505698 114 114 114 0
-0.751089 -3.229683 30.656693 117 117 117 0
-0.678269 -3.240619 30.760507 110 110 110 0
-0.604383 -3.248559 30.835875 115 115 115 0
-0.527969 -3.243239 30.785376 118 118 118 0
-0.454358 -3.256234 30.908719 120 120 120 0
-0.379646 -3.264958 30.991534 121 121 121 0
-0.340389 -3.659182 34.733572 120 120 120 0
-0.226702 -3.249390 30.843761 128 128 128 0
-0.171661 -3.690705 35.032794 139 139 139 0
-0.086442 -3.716987 35.282273 150 150 150 0
0.000000 -3.724218 35.350904 156 156 156 0
0.086789 -3.731928 35.424095 160 160 160 0
0.173686 -3.734248 35.446111 156 156 156 0
0.259570 -3.720503 35.315641 153 153 153 0
0.343433 -3.691904 35.044177 151 151 151 0
0.428593 -3.685898 34.987169 154 154 154 0
0.513309 -3.678714 34.918975 152 152 152 0
0.598742 -3.677986 34.912061 151 151 151 0
0.683788 -3.675358 34.887122 154 154 154 0
0.767655 -3.667686 34.814296 158 158 158 0
0.852879 -3.667379 34.811384 156 156 156 0
0.939479 -3.672509 34.860077 158 158 158 0
1.023699 -3.668255 34.819694 162 162 162 0
1.107684 -3.663876 34.778134 158 158 158 0
1.194111 -3.667628 34.813745 157 157 157 0
1.280484 -3.670719 34.843089 156 156 156 0
1.362681 -3.662206 34.762276 160 160 160 0
1.447173 -3.660497 34.746057 159 159 159 0
1.533612 -3.663628 34.775773 160 160 160 0
1.620657 -3.667802 34.815395 156 156 156 0
1.702771 -3.660958 34.750433 155 155 155 0
1.788455 -3.662075 34.761032 144 144 144 0
1.877688 -3.670026 34.836509 128 128 128 0
1.700209 -3.178652 30.172302 110 110 110 0
1.773566 -3.177639 30.162686 100 99 99 0
1.852988 -3.187139 30.252864 99 99 99 0
1.934754 -3.199785 30.372901 103 103 103 0
2.002059 -3.188464 30.265436 94 94 94 0
2.445938 -3.756262 35.655074 119 119 119 0
2.547041 -3.776647 35.848575 141 141 141 0
2.639224 -3.782888 35.907812 144 144 144 0
2.726423 -3.781813 35.897604 150 150 150 0
2.818680 -3.787601 35.952549 154 154 154 0
2.905177 -3.785533 35.932920 149 149 149 0
2.992522 -3.784660 35.924629 150 150 150 0
3.078328 -3.781946 35.898872 150 150 150 0
3.169418 -3.785694 35.934450 144 144 144 0
3.257322 -3.785537 35.932955 140 140 140 0
3.344443 -3.784501 35.923126 141 141 141 0
3.432180 -3.784199 35.920252 141 141 141 0
3.524419 -3.788750 35.963457 137 137 137 0
3.615161 -3.791510 35.989655 133 133 133 0
3.706530 -3.794781 36.020703 131 131 131 0
3.797970 -3.797970 36.050969 130 130 130 0
3.888379 -3.800007 36.070308 125 125 125 0
3.978220 -3.801410 36.083626 127 127 127 0
4.077393 -3.811476 36.179178 121 121 121 0
3.563234 -3.259980 30.944278 94 94 94 0
4.447804 -3.903175 37.049592 83 83 83 0
4.551340 -3.914153 37.153797 133 132 133 0
4.631464 -3.904959 37.066535 139 139 139 0
4.720260 -3.903292 37.050710 144 143 143 0
4.799412 -3.893863 36.961204 146 146 146 0
4.890359 -3.894175 36.964168 143 143 143 0
4.980266 -3.893663 36.959302 140 140 140 0
5.057561 -3.883484 36.862688 140 140 140 0
5.150383 -3.885377 36.880654 136 136 136 0
5.244330 -3.888038 36.905910 136 136 136 0
5.336718 -3.889472 36.919529 133 133 133 0
5.425821 -3.888505 36.910348 128 128 128 0
5.527495 -3.896431 36.985580 124 124 124 0
5.616441 -3.895273 36.974593 122 122 122 0
5.443627 -3.715491 35.268072 122 122 122 0
5.801155 -3.897651 36.997163 122 122 122 0
5.908503 -3.908702 37.102062 124 124 124 0
6.008227 -3.914451 37.156632 126 126 126 0
6.078223 -3.900949 37.028465 130 130 130 0
6.204600 -3.923497 37.242498 133 133 133 0
6.291332 -3.920685 37.215809 138 138 138 0
6.395881 -3.928898 37.293764 139 139 139 0
6.482576 -3.926067 37.266893 140 140 140 0
6.377831 -3.808983 36.155505 141 141 141 0
6.623977 -3.901795 37.036496 144 144 144 0
6.714858 -3.901877 37.037273 139 139 139 0
6.853314 -3.929233 37.296947 137 137 137 0
8.056895 -4.558507 43.270115 138 138 138 0
7.036453 -3.929448 37.298982 136 136 136 0
6.909916 -3.809312 36.158638 134 134 134 0
5.790858 -3.151986 29.919183 126 126 126 0
-6.465502 -3.394389 32.987255 135 135 135 0
-6.392997 -3.398809 33.030210 136 136 136 0
-6.314865 -3.400312 33.044819 136 136 136 0
-6.241075 -3.404223 33.082826 138 138 138 0
-6.172323 -3.411021 33.148888 138 138 138 0
-6.098309 -3.415053 33.188074 138 138 138 0
-6.021925 -3.417849 33.215252 141 140 141 0
-5.938164 -3.416478 33.201923 140 140 140 0
-5.866534 -3.422145 33.256994 141 141 141 0
-5.791727 -3.426092 33.295355 139 139 139 0
-5.711735 -3.427041 33.304575 135 135 135 0
-5.629082 -3.426398 33.298324 132 131 132 0
-5.552286 -3.429353 33.327050 124 124 124 0
-5.479866 -3.435140 33.383282 120 120 120 0
-5.400193 -3.436487 33.396371 121 120 121 0
-5.322841 -3.439374 33.424433 118 118 118 0
-5.243204 -3.440853 33.438802 117 116 116 0
-5.170961 -3.447307 33.501531 110 110 110 0
-5.094698 -3.451247 33.539819 97 97 97 0
-4.123616 -3.534528 34.349156 99 99 99 0
-4.031185 -3.527286 34.278780 139 139 139 0
-3.938031 -3.519092 34.199144 143 143 143 0
-3.842602 -3.508463 34.095851 145 145 145 0
-3.751588 -3.501482 34.028006 151 151 151 0
-3.665355 -3.498748 34.001441 150 150 150 0
-3.577735 -3.494532 33.960468 151 151 151 0
-3.492672 -3.492672 33.942395 149 149 149 0
-3.406289 -3.489369 33.910292 145 145 145 0
-3.324124 -3.490331 33.919636 141 141 141 0
-3.244689 -3.494281 33.958026 138 138 138 0
-3.163243 -3.496216 33.976829 138 138 138 0
-3.081286 -3.497676 33.991023 138 138 138 0
-3.001467 -3.501711 34.030234 142 142 142 0
-2.922271 -3.506725 34.078964 150 150 150 0
-2.841350 -3.509903 34.109847 161 161 161 0
-2.757206 -3.509171 34.102728 163 163 163 0
-2.675753 -3.511926 34.129500 162 162 162 0
-2.588769 -3.507364 34.085170 159 159 159 0
-2.502664 -3.503729 34.049846 161 161 161 0
-2.416702 -3.500051 34.014105 158 158 158 0
-2.331208 -3.496812 33.982625 160 160 160 0
-2.247727 -3.496465 33.979249 160 160 160 0
-2.163827 -3.495413 33.969031 158 158 158 0
-2.078672 -3.492168 33.937496 153 153 153 0
-1.995856 -3.492747 33.943122 149 149 149 0
-1.914891 -3.496757 33.982093 148 148 148 0
-1.830453 -3.494501 33.960166 151 151 151 0
-1.747902 -3.495805 33.972838 152 152 152 0
-1.664847 -3.496178 33.976460 151 151 151 0
-1.582391 -3.497916 33.993357 150 150 150 0
-1.499208 -3.498152 33.995645 151 151 151 0
-1.415732 -3.497691 33.991170 147 147 147 0
-1.333607 -3.500718 34.020581 143 143 143 0
-1.251213 -3.503395 34.046600 134 134 134 0
-1.169205 -3.507616 34.087618 127 127 127 0
-0.967953 -3.127231 30.390976 121 121 121 0
-0.895355 -3.133741 30.454239 118 118 118 0
-0.821298 -3.135865 30.474876 115 115 115 0
-0.749205 -3.146660 30.579783 117 117 117 0
-0.677371 -3.161063 30.719755 112 112 112 0
-0.603238 -3.167001 30.777466 115 115 115 0
-0.528019 -3.168115 30.788290 115 115 115 0
-0.454079 -3.178551 30.889709 121 121 121 0
-0.378237 -3.177192 30.876506 121 121 121 0
-0.302229 -3.173401 30.839660 122 122 122 0
-0.226657 -3.173204 30.837741 131 131 131 0
-0.171694 -3.605574 35.039589 139 139 139 0
-0.086571 -3.635977 35.335055 157 157 157 0
0.000000 -3.639864 35.372831 157 157 157 0
0.086675 -3.640364 35.377683 157 157 157 0
0.173332 -3.639973 35.373888 156 156 156 0
0.258809 -3.623324 35.212085 156 156 156 0
0.343356 -3.605237 35.036319 155 155 155 0
0.428419 -3.598722 34.973003 152 152 152 0
0.513675 -3.595724 34.943870 155 155 155 0
0.598717 -3.592300 34.910593 157 157 157 0
0.683820 -3.590055 34.888774 159 159 159 0
0.768181 -3.584847 34.838159 159 159 159 0
0.853054 -3.582828 34.818544 156 156 156 0
0.939028 -3.585379 34.843336 154 154 154 0
1.023937 -3.583781 34.827802 158 158 158 0
1.108702 -3.581962 34.810122 156 156 156 0
1.193459 -3.580376 34.794709 155 155 155 0
1.280162 -3.584454 34.834346 157 157 157 0
1.363339 -3.578765 34.779056 159 159 159 0
1.449154 -3.580264 34.793623 159 159 159 0
1.533632 -3.578474 34.776233 163 163 163 0
1.620839 -3.582907 34.819310 159 159 159 0
1.704502 -3.579455 34.785763 158 158 158 0
1.787714 -3.575428 34.746628 149 149 149 0
1.875435 -3.580375 34.794708 137 136 137 0
1.963250 -3.585065 34.840285 116 116 116 0
1.777426 -3.110495 30.228332 104 104 104 0
1.861330 -3.127035 30.389066 98 98 98 0
1.930986 -3.119286 30.313757 101 101 101 0
1.978325 -3.077395 29.906652 97 97 97 0
2.448547 -3.672821 35.693109 113 113 113 0
2.548743 -3.691283 35.872525 136 136 136 0
2.639960 -3.695944 35.917822 146 146 146 0
2.728237 -3.696321 35.921484 154 154 154 0
2.814635 -3.694209 35.900958 157 157 157 0
2.906515 -3.699200 35.949469 154 154 154 0
2.992086 -3.696106 35.919400 151 151 151 0
3.079463 -3.695355 35.912103 153 153 153 0
3.167462 -3.695373 35.912273 144 144 144 0
3.257412 -3.697602 35.933938 143 143 143 0
3.343467 -3.695411 35.912641 142 142 142 0
3.431934 -3.695929 35.917676 141 141 141 0
3.523053 -3.699206 35.949525 139 139 139 0
3.613135 -3.701261 35.969490 134 134 134 0
3.703220 -3.703220 35.988532 130 130 130 0
3.794037 -3.705803 36.013638 127 127 127 0
3.886148 -3.709505 36.049611 129 129 129 0
3.979381 -3.714089 36.094155 125 125 125 0
4.074502 -3.720198 36.153523 121 121 121 0
3.562802 -3.183780 30.940530 108 108 108 0
4.270874 -3.737015 36.316954 68 68 68 0
3.743581 -3.208784 31.183516 65 65 65 0
4.551171 -3.822984 37.152416 119 119 119 0
4.635686 -3.817624 37.100332 137 137 137 0
4.715333 -3.808538 37.012029 143 143 143 0
4.801342 -3.804837 36.976062 143 143 143 0
4.887369 -3.801287 36.941565 143 143 143 0
4.970936 -3.795988 36.890067 144 144 144 0
5.059225 -3.794419 36.874819 141 141 141 0
5.148441 -3.793588 36.866745 137 137 137 0
5.238574 -3.793450 36.865408 136 136 136 0
5.328864 -3.793429 36.865195 134 134 134 0
5.419765 -3.793835 36.869149 134 134 134 0
5.138653 -3.538089 34.383757 129 129 129 0
5.616993 -3.805060 36.978231 125 125 125 0
5.704615 -3.803077 36.958958 124 124 124 0
5.809155 -3.812258 37.048183 121 121 121 0
5.903819 -3.814775 37.072644 121 121 121 0
6.127828 -3.899527 37.896276 123 123 123 0
6.076622 -3.809225 37.018712 125 125 125 0
6.607149 -4.080886 39.658760 126 126 126 0
6.556718 -3.991046 38.785675 131 131 131 0
6.804834 -4.082900 39.678331 135 135 135 0
6.485859 -3.836705 37.285767 138 138 138 0
6.377791 -3.720378 36.155279 141 141 141 0
6.665717 -3.835070 37.269873 143 143 143 0
6.776275 -3.845994 37.376036 142 141 142 0
6.642706 -3.719915 36.150782 139 139 139 0
6.956805 -3.844550 37.362003 137 137 137 0
7.044368 -3.842383 37.340941 135 135 135 0
7.154167 -3.852244 37.436772 132 132 132 0
6.997461 -3.720169 36.153245 128 128 128 0
-6.461296 -3.311414 32.965794 134 134 134 0
-6.394017 -3.318414 33.035478 135 135 135 0
-6.315725 -3.319804 33.049321 138 138 138 0
-6.243860 -3.324653 33.097590 138 138 138 0
-6.169236 -3.328141 33.132311 142 142 142 0
-6.095131 -3.332005 33.170779 144 143 144 0
-6.018239 -3.334430 33.194921 145 145 145 0
-5.937298 -3.334647 33.197083 148 148 148 0
-5.865386 -3.340011 33.250486 153 153 153 0
-5.789250 -3.343088 33.281115 153 153 153 0
-5.703978 -3.340901 33.259346 152 152 152 0
-5.619915 -3.339370 33.244102 146 146 146 0
-5.543895 -3.342642 33.276678 141 141 141 0
-5.467190 -3.345594 33.306062 131 131 131 0
-5.387402 -3.346719 33.317267 127 126 126 0
-5.305606 -3.346613 33.316207 123 123 123 0
-5.229689 -3.350269 33.352606 122 122 122 0
-5.158564 -3.357161 33.421212 121 120 120 0
-5.082619 -3.361087 33.460299 115 115 115 0
-5.014548 -3.370434 33.553348 96 96 96 0
-4.536110 -3.099676 30.857894 76 76 76 0
-4.124691 -3.451272 34.358109 105 105 105 0
-4.029356 -3.441742 34.263231 138 138 138 0
-3.936157 -3.433669 34.182864 143 143 143 0
-3.839630 -3.422279 34.069473 147 147 147 0
-3.749283 -3.416013 34.007099 150 150 150 0
-3.661854 -3.412182 33.968963 150 150 150 0
-3.574614 -3.408353 33.930839 151 151 151 0
-3.490949 -3.407831 33.925647 149 149 149 0
