ply
format ascii 1.0
element vertex 1119
property float x
property float y
property float z
property uchar red
property uchar green
property uchar blue
property uchar alpha
end_header
-1.008101 -0.232639 31.651513 122 122 122 0
-1.054922 -0.263731 35.881702 138 138 138 0
-0.972294 -0.265171 36.077718 154 154 154 0
-0.885586 -0.265676 36.146372 152 152 152 0
-0.796549 -0.265516 36.124651 144 144 144 0
-0.706138 -0.264802 36.027453 141 141 141 0
-0.616929 -0.264398 35.972555 142 142 142 0
-0.526905 -0.263453 35.843909 143 143 143 0
-0.439120 -0.263472 35.846511 138 138 138 0
-0.311604 -0.233703 31.796279 143 143 143 0
-0.233439 -0.233439 31.760377 141 141 141 0
-0.155810 -0.233715 31.797999 140 140 140 0
-0.077860 -0.233579 31.779488 137 137 137 0
0.000000 -0.234038 31.841904 146 146 146 0
0.078212 -0.234635 31.923083 145 145 145 0
0.156240 -0.234360 31.885703 143 143 143 0
0.265229 -0.265229 36.085516 145 145 145 0
0.353926 -0.265444 36.114870 155 155 155 0
0.442234 -0.265340 36.100735 156 156 156 0
0.531095 -0.265547 36.128897 160 160 160 0
0.621503 -0.266358 36.239237 167 167 167 0
0.708902 -0.265838 36.168483 166 166 166 0
0.797977 -0.265992 36.189435 165 165 165 0
0.886892 -0.266068 36.199691 165 165 165 0
0.971261 -0.264889 36.039353 159 159 159 0
1.058780 -0.264695 36.012916 159 159 159 0
1.138531 -0.262738 35.746642 153 153 153 0
1.225964 -0.262707 35.742394 153 153 153 0
1.309010 -0.261802 35.619329 150 150 150 0
1.392231 -0.261043 35.516104 157 157 157 0
1.479721 -0.261127 35.527527 156 156 156 0
1.568130 -0.261355 35.558493 149 149 149 0
1.652566 -0.260931 35.500876 149 149 149 0
1.739172 -0.260876 35.493304 147 147 147 0
1.830181 -0.261454 35.572025 146 146 146 0
1.922107 -0.262106 35.660614 142 142 142 0
2.005321 -0.261564 35.586892 143 143 143 0
2.093293 -0.261662 35.600225 144 144 144 0
2.180660 -0.261679 35.602606 145 145 145 0
2.281302 -0.263227 35.813225 164 164 164 0
2.363886 -0.262654 35.735241 166 166 166 0
2.455774 -0.263119 35.798455 164 164 164 0
2.540277 -0.262787 35.753369 158 158 158 0
2.622508 -0.262251 35.680378 163 163 163 0
2.704059 -0.261683 35.603152 158 158 158 0
2.793620 -0.261902 35.632910 159 159 159 0
2.875822 -0.261438 35.569847 156 156 156 0
2.950783 -0.260363 35.423562 158 158 158 0
3.033299 -0.259997 35.373754 157 157 157 0
3.122924 -0.260244 35.407305 157 157 157 0
3.209068 -0.260195 35.400635 161 161 161 0
3.285014 -0.259343 35.284786 159 159 159 0
3.373766 -0.259520 35.308904 154 154 154 0
3.466026 -0.259952 35.367615 138 138 138 0
3.020092 -0.220982 30.065622 127 127 127 0
3.648811 -0.260629 35.459774 115 115 115 0
3.181739 -0.221982 30.201606 110 110 110 0
3.266639 -0.222725 30.302777 103 103 103 0
3.351455 -0.223430 30.398684 100 100 100 0
3.435335 -0.224044 30.482121 94 94 94 0
3.540600 -0.225996 30.747724 80 80 80 0
4.995107 -0.282742 38.468289 102 102 102 0
5.111398 -0.283967 38.634906 136 136 136 0
5.213384 -0.284366 38.689302 138 138 138 0
5.299699 -0.283912 38.627547 137 137 137 0
5.410318 -0.284754 38.741982 130 130 130 0
5.049618 -0.261187 35.535665 119 119 119 0
5.144695 -0.261595 35.591108 119 119 119 0
5.222355 -0.261118 35.526226 124 124 124 0
5.288541 -0.260092 35.386694 131 131 131 0
5.456677 -0.264033 35.922827 134 134 134 0
5.543620 -0.263982 35.915907 140 140 140 0
5.766292 -0.270295 36.774824 139 139 139 0
5.855665 -0.270261 36.770266 138 138 138 0
6.087362 -0.276698 37.646023 141 141 141 0
5.773042 -0.258494 35.169308 137 137 137 0
5.846373 -0.257928 35.092274 135 135 135 0
5.919603 -0.257374 35.016875 134 134 134 0
6.024295 -0.258184 35.127085 132 132 132 0
6.112988 -0.258295 35.142214 137 137 137 0
6.201346 -0.258389 35.155021 145 145 145 0
5.950678 -0.244548 33.271891 145 145 145 0
6.351020 -0.257474 35.030445 145 145 145 0
6.468772 -0.258751 35.204200 147 147 147 0
5.252854 -0.207349 28.210815 145 145 145 0
6.642512 -0.258799 35.210774 142 142 142 0
8.284288 -0.318626 43.350540 141 141 141 0
8.332105 -0.316409 43.048852 141 141 141 0
-7.563566 -0.189089 38.589624 103 102 102 0
-7.495014 -0.189747 38.723914 106 106 106 0
-7.429859 -0.190509 38.879430 105 105 105 0
-7.339869 -0.190646 38.907336 106 105 105 0
-6.713662 -0.176675 36.056187 108 108 108 0
-7.161820 -0.190982 38.975892 105 105 105 0
-7.090586 -0.191637 39.109687 108 108 108 0
-6.999734 -0.191774 39.137456 113 112 113 0
-6.939107 -0.192753 39.337344 126 126 126 0
-6.880936 -0.193829 39.556979 141 140 141 0
-6.795465 -0.194156 39.623704 153 153 153 0
-6.674346 -0.193459 39.481489 150 150 150 0
-6.553877 -0.192761 39.338999 149 149 149 0
-6.442962 -0.192327 39.250453 150 150 150 0
-6.331572 -0.191866 39.156292 150 150 150 0
-5.738414 -0.176567 36.033998 136 136 136 0
-5.615578 -0.175487 35.813638 128 127 128 0
-5.506160 -0.174799 35.673211 129 129 129 0
-5.388214 -0.173813 35.472116 130 130 130 0
-5.269754 -0.172779 35.260983 131 130 131 0
-5.146180 -0.171539 35.008026 132 131 131 0
-5.024700 -0.170329 34.760986 131 131 131 0
-4.920120 -0.169659 34.624350 133 133 133 0
-4.823272 -0.169238 34.538290 135 134 135 0
-4.714928 -0.168390 34.365367 135 135 135 0
-4.623875 -0.168141 34.314469 136 136 136 0
-4.531319 -0.167827 34.250335 136 136 136 0
-4.433165 -0.167289 34.140664 137 136 136 0
-4.343511 -0.167058 34.093493 137 137 137 0
-4.251014 -0.166706 34.021723 135 135 135 0
-4.165035 -0.166601 34.000283 134 134 134 0
-4.077830 -0.166442 33.967763 134 134 134 0
-3.992679 -0.166362 33.951349 134 134 134 0
-3.906693 -0.166242 33.926990 134 134 134 0
-3.824272 -0.166273 33.933203 134 134 134 0
-3.738819 -0.166170 33.912193 137 136 136 0
-3.653562 -0.166071 33.892040 135 135 135 0
-3.571589 -0.166120 33.902122 135 135 135 0
-3.491477 -0.166261 33.930777 135 135 135 0
-3.408786 -0.166282 33.935157 134 134 134 0
-3.329035 -0.166452 33.969740 135 135 135 0
-3.249648 -0.166649 34.009926 132 132 132 0
-3.168799 -0.166779 34.036511 132 132 132 0
-3.087303 -0.166881 34.057393 129 129 129 0
-3.009872 -0.167215 34.125535 129 129 129 0
-2.930231 -0.167442 34.171795 121 120 121 0
-2.569904 -0.151171 30.851188 121 121 121 0
-2.500510 -0.151546 30.927762 116 116 116 0
-2.426247 -0.151640 30.947027 113 113 113 0
-2.353873 -0.151863 30.992397 116 116 116 0
-2.282801 -0.152187 31.058520 111 111 111 0
-2.212309 -0.152573 31.137357 116 116 116 0
-2.141112 -0.152937 31.211548 111 111 111 0
-2.066798 -0.153096 31.244110 112 112 112 0
-1.989961 -0.153074 31.239581 106 106 106 0
-1.912210 -0.152977 31.219750 108 108 108 0
-1.846220 -0.153852 31.398299 108 108 108 0
-1.776792 -0.154504 31.531362 114 114 114 0
-1.904069 -0.173097 35.325964 120 120 120 0
-1.824761 -0.173787 35.466684 130 130 130 0
-1.744336 -0.174434 35.598691 140 140 140 0
-1.658096 -0.174536 35.619681 146 146 146 0
-1.567307 -0.174145 35.539831 146 146 146 0
-1.479884 -0.174104 35.531426 148 148 148 0
-1.395313 -0.174414 35.594709 145 145 145 0
-1.169215 -0.155895 31.815364 135 135 135 0
-1.090638 -0.155805 31.797030 125 125 125 0
-1.006833 -0.154897 31.611712 118 118 118 0
-0.936443 -0.156074 31.851807 128 128 128 0
-0.970983 -0.176542 36.029059 147 147 147 0
-0.886514 -0.177303 36.184256 150 150 150 0
-0.712022 -0.158227 32.291266 148 148 148 0
-0.707559 -0.176890 36.099955 143 143 143 0
-0.617925 -0.176550 36.030619 144 144 144 0
-0.527642 -0.175881 35.894017 142 142 142 0
-0.439270 -0.175708 35.858788 143 143 143 0
-0.351423 -0.175711 35.859448 143 143 143 0
-0.263484 -0.175656 35.848116 147 147 147 0
-0.155814 -0.155814 31.798866 142 142 142 0
-0.077918 -0.155836 31.803362 142 142 142 0
0.000000 -0.156045 31.845848 149 149 149 0
0.078098 -0.156196 31.876709 144 144 144 0
0.156312 -0.156312 31.900454 146 146 146 0
0.234251 -0.156168 31.870923 149 149 149 0
0.353632 -0.176816 36.084879 159 159 159 0
0.442098 -0.176839 36.089606 157 157 157 0
0.531868 -0.177289 36.181478 159 159 159 0
0.622016 -0.177719 36.269156 164 164 164 0
0.709973 -0.177493 36.223095 164 164 164 0
0.798264 -0.177392 36.202463 165 165 165 0
0.885812 -0.177162 36.155594 161 161 161 0
0.972609 -0.176838 36.089374 161 161 161 0
1.057849 -0.176308 35.981262 158 158 158 0
1.141108 -0.175555 35.827566 157 157 157 0
1.227085 -0.175298 35.775074 157 157 157 0
1.310096 -0.174679 35.648870 155 155 155 0
1.393849 -0.174231 35.557369 159 159 159 0
1.479339 -0.174040 35.518344 155 155 155 0
1.566346 -0.174038 35.518045 149 149 149 0
1.649924 -0.173676 35.444127 148 148 148 0
1.740045 -0.174004 35.511118 145 145 145 0
1.829768 -0.174264 35.563996 142 142 142 0
1.918799 -0.174436 35.599233 143 143 143 0
2.004767 -0.174328 35.577046 137 137 137 0
2.093248 -0.174437 35.599454 143 143 143 0
2.183326 -0.174666 35.646131 146 146 146 0
2.277909 -0.175224 35.759958 161 161 161 0
2.365653 -0.175234 35.761951 166 166 166 0
2.452867 -0.175205 35.756083 166 166 166 0
2.540966 -0.175239 35.763063 168 168 168 0
2.623852 -0.174923 35.698661 161 161 161 0
2.706468 -0.174611 35.634865 158 158 158 0
2.790273 -0.174392 35.590211 154 154 154 0
2.878089 -0.174430 35.597889 157 157 157 0
2.954700 -0.173806 35.470588 156 156 156 0
3.037186 -0.173554 35.419083 157 157 157 0
3.122329 -0.173463 35.400555 158 158 158 0
3.207372 -0.173371 35.381926 155 155 155 0
3.283345 -0.172808 35.266866 151 151 151 0
3.370730 -0.172858 35.277135 145 145 145 0
3.464718 -0.173236 35.354264 139 139 139 0
3.018228 -0.147231 30.047070 127 127 127 0
3.097743 -0.147512 30.104405 118 118 118 0
3.174972 -0.147673 30.137373 115 115 115 0
3.264457 -0.148384 30.282537 105 105 105 0
3.354600 -0.149093 30.427210 96 96 96 0
3.427442 -0.149019 30.412083 89 89 89 0
3.611463 -0.153679 31.363122 78 78 78 0
3.629719 -0.151238 30.864958 64 64 64 0
5.003244 -0.188802 38.530948 106 106 106 0
5.117732 -0.189546 38.682782 136 136 136 0
5.220109 -0.189822 38.739214 137 137 137 0
5.309883 -0.189639 38.701770 135 135 135 0
5.403706 -0.189604 38.694637 135 135 135 0
4.678531 -0.161329 32.924212 124 124 124 0
5.152999 -0.174678 35.648557 113 113 113 0
5.412571 -0.180419 36.820212 116 116 116 0
5.499633 -0.180316 36.799152 120 120 120 0
5.721737 -0.184572 37.667791 121 121 121 0
5.813430 -0.184553 37.663944 126 126 126 0
5.538173 -0.173068 35.319982 131 131 131 0
5.996342 -0.184503 37.653641 135 135 135 0
6.230202 -0.188794 38.529385 135 135 135 0
6.180092 -0.184480 37.649051 133 133 133 0
6.125259 -0.180155 36.766260 126 126 126 0
6.512072 -0.188756 38.521573 132 132 132 0
6.005267 -0.171579 35.016133 138 138 138 0
6.857904 -0.193180 39.424570 145 145 145 0
6.211895 -0.172553 35.214824 150 150 150 0
6.264548 -0.171631 35.026828 150 150 150 0
6.191512 -0.167338 34.150643 147 147 147 0
6.272342 -0.167262 34.135194 142 142 142 0
6.548947 -0.172341 35.171573 145 145 145 0
6.605993 -0.171584 35.017191 141 141 141 0
6.722300 -0.172367 35.176869 142 142 142 0
8.392458 -0.212467 43.360674 141 141 141 0
-7.532963 -0.094162 38.433485 104 104 104 0
-7.469143 -0.094546 38.590248 104 104 104 0
-7.389452 -0.094737 38.667983 108 108 108 0
-7.301880 -0.094830 38.705962 106 106 106 0
-7.240601 -0.095271 38.886147 106 105 106 0
-7.144994 -0.095267 38.884323 107 107 107 0
-7.059735 -0.095402 38.939519 107 107 107 0
-6.968638 -0.095461 38.963588 109 108 109 0
-6.896545 -0.095785 39.096059 113 113 113 0
-6.842342 -0.096371 39.335108 125 125 125 0
-6.770576 -0.096723 39.478576 146 146 146 0
-6.675631 -0.096748 39.489090 156 156 156 0
-6.565401 -0.096550 39.408171 149 149 149 0
-6.444542 -0.096187 39.260076 151 151 151 0
-6.334359 -0.095975 39.173526 144 144 144 0
-5.714266 -0.087912 35.882364 127 127 127 0
-5.594697 -0.087417 35.680463 128 128 128 0
-5.487345 -0.087101 35.551314 130 130 130 0
-5.372364 -0.086651 35.367767 131 131 131 0
-5.252869 -0.086113 35.147999 131 131 131 0
-5.128543 -0.085476 34.888044 132 132 132 0
-5.011693 -0.084944 34.670998 133 132 133 0
-4.911005 -0.084673 34.560205 136 136 136 0
-4.809475 -0.084377 34.439491 136 136 136 0
-4.706223 -0.084040 34.301915 137 137 137 0
-4.614380 -0.083898 34.244009 138 138 138 0
-4.518685 -0.083679 34.154839 137 137 137 0
-4.425197 -0.083494 34.079301 137 137 137 0
-4.333481 -0.083336 34.014767 138 137 138 0
-4.243857 -0.083213 33.964441 138 138 138 0
-4.156605 -0.083132 33.931472 138 137 138 0
-4.070217 -0.083066 33.904349 136 136 136 0
-3.981540 -0.082949 33.856635 137 137 137 0
-3.897928 -0.082935 33.850872 138 138 138 0
-3.818690 -0.083015 33.883669 139 139 139 0
-3.731024 -0.082912 33.841491 140 140 140 0
-3.648617 -0.082923 33.846172 139 139 139 0
-3.567326 -0.082961 33.861662 138 138 138 0
-3.487892 -0.083045 33.895942 137 137 137 0
-3.405700 -0.083066 33.904434 135 135 135 0
-3.325302 -0.083133 33.931650 133 133 133 0
-3.247212 -0.083262 33.984425 131 131 131 0
-3.167742 -0.083362 34.025154 124 124 124 0
-3.088690 -0.083478 34.072695 118 118 118 0
-2.718532 -0.075515 30.822356 119 119 119 0
-2.938211 -0.083949 34.264846 111 111 111 0
-2.861183 -0.084152 34.347937 110 110 110 0
-2.505198 -0.075915 30.985757 113 113 113 0
-2.432967 -0.076030 31.032749 112 112 112 0
-2.624252 -0.084653 34.552358 110 110 110 0
-2.290764 -0.076359 31.166863 111 111 111 0
-2.215550 -0.076398 31.182968 116 116 116 0
-2.142322 -0.076512 31.229190 110 110 110 0
-2.072729 -0.076768 31.333776 105 105 105 0
-2.000442 -0.076940 31.404112 107 107 107 0
-1.927618 -0.077105 31.471311 105 105 105 0
-1.847862 -0.076994 31.426225 109 109 109 0
-1.781700 -0.077465 31.618454 112 112 112 0
-1.910176 -0.086826 35.439258 127 127 127 0
-1.829643 -0.087126 35.561583 134 134 134 0
-1.747617 -0.087381 35.665647 144 144 144 0
-1.661619 -0.087454 35.695359 148 148 148 0
-1.570550 -0.087253 35.613375 148 148 148 0
-1.480565 -0.087092 35.547788 152 152 152 0
-1.395763 -0.087235 35.606207 149 149 149 0
-1.307924 -0.087195 35.589756 139 139 139 0
-1.090575 -0.077898 31.795202 127 127 127 0
-1.007493 -0.077499 31.632427 124 124 124 0
-0.931380 -0.077615 31.679604 121 121 121 0
-0.967469 -0.087952 35.898673 142 142 142 0
-0.885927 -0.088593 36.160302 152 152 152 0
-0.800537 -0.088949 36.305548 153 153 153 0
-0.710186 -0.088773 36.233959 144 144 144 0
-0.619502 -0.088500 36.122575 144 144 144 0
-0.529900 -0.088317 36.047633 147 147 147 0
-0.439964 -0.087993 35.915436 147 147 147 0
-0.351842 -0.087961 35.902247 145 145 145 0
-0.263931 -0.087977 35.908929 145 145 145 0
-0.176178 -0.088089 35.954784 146 146 146 0
-0.078083 -0.078083 31.870588 148 148 148 0
0.000000 -0.078130 31.889888 143 143 143 0
0.078170 -0.078170 31.906002 143 143 143 0
0.156178 -0.078089 31.873135 148 148 148 0
0.234114 -0.078038 31.852238 151 151 151 0
0.354009 -0.088502 36.123375 159 159 159 0
0.442357 -0.088471 36.110809 157 157 157 0
0.531447 -0.088574 36.152855 166 166 166 0
0.620933 -0.088705 36.206000 169 169 169 0
0.711068 -0.088884 36.279001 168 168 168 0
0.797516 -0.088613 36.168537 166 166 166 0
0.886252 -0.088625 36.173563 159 159 159 0
0.973640 -0.088513 36.127658 160 160 160 0
1.057162 -0.088097 35.957898 159 159 159 0
1.140616 -0.087740 35.812131 157 157 157 0
1.226229 -0.087588 35.750107 153 153 153 0
1.310445 -0.087363 35.658371 156 156 156 0
1.392154 -0.087010 35.514143 156 156 156 0
1.478272 -0.086957 35.492727 157 157 157 0
1.564480 -0.086916 35.475736 147 147 147 0
1.650840 -0.086886 35.463813 146 146 146 0
1.736554 -0.086828 35.439868 142 142 142 0
1.828557 -0.087074 35.540459 138 138 138 0
1.918331 -0.087197 35.590558 138 138 138 0
2.003568 -0.087112 35.555783 135 135 135 0
2.089718 -0.087072 35.539423 142 142 142 0
2.178935 -0.087157 35.574451 146 146 146 0
2.275784 -0.087530 35.726597 155 155 155 0
2.362588 -0.087503 35.715612 163 163 163 0
2.452124 -0.087576 35.745250 162 162 162 0
2.538842 -0.087546 35.733175 161 161 161 0
2.624342 -0.087478 35.705330 161 161 161 0
2.707008 -0.087323 35.641979 159 159 159 0
2.793381 -0.087293 35.629862 157 157 157 0
2.874762 -0.087114 35.556731 157 157 157 0
2.951495 -0.086809 35.432107 154 154 154 0
3.032651 -0.086647 35.366197 153 153 153 0
3.118554 -0.086627 35.357759 154 154 154 0
3.204310 -0.086603 35.348149 151 151 151 0
3.280251 -0.086322 35.233628 153 153 153 0
3.369792 -0.086405 35.267319 148 148 148 0
3.459205 -0.086480 35.298013 139 139 139 0
3.556699 -0.086749 35.407659 126 126 126 0
3.092717 -0.073636 30.055560 118 118 118 0
3.173529 -0.073803 30.123675 112 112 112 0
3.253317 -0.073939 30.179197 105 105 105 0
3.408676 -0.075748 30.917694 90 90 90 0
3.462064 -0.075262 30.719286 84 84 84 0
4.001077 -0.085129 34.746653 74 74 74 0
5.012834 -0.094582 38.604807 106 106 106 0
5.125565 -0.094918 38.741986 134 134 134 0
5.226445 -0.095026 38.786237 132 132 132 0
5.308908 -0.094802 38.694665 134 134 134 0
5.415336 -0.095006 38.777915 136 136 136 0
5.510578 -0.095010 38.779579 136 136 136 0
5.609643 -0.095079 38.807630 123 123 123 0
5.259375 -0.087656 35.778060 111 111 111 0
5.327944 -0.087343 35.650347 115 115 115 0
5.411767 -0.087287 35.627171 117 117 117 0
5.547296 -0.088052 35.939723 119 119 119 0
5.770265 -0.090160 36.800158 119 119 119 0
5.858358 -0.090129 36.787178 121 121 121 0
5.706663 -0.086465 35.291670 122 122 122 0
6.180818 -0.092251 37.653478 123 123 123 0
6.271580 -0.092229 37.644537 125 125 125 0
6.514326 -0.094411 38.534905 134 134 134 0
6.007844 -0.085826 35.031163 142 142 142 0
6.093472 -0.085824 35.030022 150 150 150 0
6.214949 -0.086319 35.232136 153 153 153 0
7.211318 -0.098785 40.320483 150 150 150 0
5.134401 -0.069384 28.319917 147 147 147 0
6.461131 -0.086148 35.162619 143 143 143 0
6.544968 -0.086118 35.150207 143 143 143 0
6.626084 -0.086053 35.123687 143 143 143 0
6.720647 -0.086162 35.168221 138 138 138 0
8.330716 -0.105452 43.041674 141 141 141 0
-7.480053 0.000000 38.163534 102 101 101 0
-7.410818 0.000000 38.288906 104 104 104 0
-7.332829 0.000000 38.371685 97 97 97 0
-7.261189 0.000000 38.490268 102 102 102 0
-6.622045 0.000000 35.564150 103 102 102 0
-7.107919 0.000000 38.682550 102 102 102 0
-7.029562 0.000000 38.773094 106 106 106 0
-6.936510 0.000000 38.783955 104 104 104 0
-6.858680 0.000000 38.881404 109 109 109 0
-6.784880 0.000000 39.004773 115 115 115 0
-6.731201 0.000000 39.248986 127 127 127 0
-6.661222 0.000000 39.403856 149 149 149 0
-6.568328 0.000000 39.425736 152 152 152 0
-6.445084 0.000000 39.263381 152 152 152 0
-5.815420 0.000000 35.964256 140 140 140 0
-5.680632 0.000000 35.671160 127 127 127 0
-5.575803 0.000000 35.559966 129 129 129 0
-5.465764 0.000000 35.411492 131 131 131 0
-5.352902 0.000000 35.239645 131 131 131 0
-5.235501 0.000000 35.031788 133 133 133 0
-5.115279 0.000000 34.797814 133 133 133 0
-4.999546 0.000000 34.586965 137 137 137 0
-4.900143 0.000000 34.483765 136 136 136 0
-4.797166 0.000000 34.351353 137 137 137 0
-4.697292 0.000000 34.236824 139 139 139 0
-4.605987 0.000000 34.181719 139 139 139 0
-4.511563 0.000000 34.101004 140 140 140 0
-4.414590 0.000000 33.997610 140 140 140 0
-4.324965 0.000000 33.947921 142 142 142 0
-4.234737 0.000000 33.891451 143 143 143 0
-4.150838 0.000000 33.884390 143 142 143 0
-4.062832 0.000000 33.842833 142 142 142 0
-3.976275 0.000000 33.811859 142 142 142 0
-3.891471 0.000000 33.794800 142 142 142 0
-3.813321 0.000000 33.836037 144 144 144 0
-3.725875 0.000000 33.794780 142 142 142 0
-3.645290 0.000000 33.815306 141 141 141 0
-3.564140 0.000000 33.831422 139 139 139 0
-3.487515 0.000000 33.892276 134 134 134 0
-3.404937 0.000000 33.896832 128 128 128 0
-3.327872 0.000000 33.957878 125 125 125 0
-3.250227 0.000000 34.015983 121 121 121 0
-3.171998 0.000000 34.070875 112 112 112 0
-3.093334 0.000000 34.123931 112 112 112 0
-3.017763 0.000000 34.214999 109 109 109 0
-2.650140 0.000000 30.905426 112 112 112 0
-2.580734 0.000000 30.981200 108 108 108 0
-2.511338 0.000000 31.061697 112 112 112 0
-2.440405 0.000000 31.127621 112 112 112 0
-2.632063 0.000000 34.655211 113 113 113 0
-2.293390 0.000000 31.202584 114 114 114 0
-2.227827 0.000000 31.355770 117 117 117 0
-2.145514 0.000000 31.275709 111 111 111 0
-2.071202 0.000000 31.310691 109 109 109 0
-2.007061 0.000000 31.508027 103 103 103 0
-1.918299 0.000000 31.319173 107 107 107 0
-1.849902 0.000000 31.460912 110 110 110 0
-1.782477 0.000000 31.632237 121 121 121 0
-1.915148 0.000000 35.531505 129 129 129 0
-1.831268 0.000000 35.593160 137 137 137 0
-1.749581 0.000000 35.705732 144 144 144 0
-1.664393 0.000000 35.754950 150 150 150 0
-1.573137 0.000000 35.672039 151 151 151 0
-1.482257 0.000000 35.588406 148 148 148 0
-1.397303 0.000000 35.645476 153 153 153 0
-1.308981 0.000000 35.618521 144 144 144 0
-1.090064 0.000000 31.780294 129 129 129 0
-1.014297 0.000000 31.846049 124 124 124 0
-0.928176 0.000000 31.570619 122 122 122 0
-0.857351 0.000000 31.812644 124 124 124 0
-0.885238 0.000000 36.132173 147 147 147 0
-0.799612 0.000000 36.263595 153 153 153 0
-0.712729 0.000000 36.363741 148 148 148 0
-0.620516 0.000000 36.181709 144 144 144 0
-0.530337 0.000000 36.077340 144 144 144 0
-0.440925 0.000000 35.993860 145 145 145 0
-0.352324 0.000000 35.951382 148 148 148 0
-0.264077 0.000000 35.928894 150 150 150 0
-0.176301 0.000000 35.979892 148 148 148 0
-0.088085 0.000000 35.953191 149 149 149 0
0.000000 0.000000 31.859146 144 144 144 0
0.078094 0.000000 31.875112 145 145 145 0
0.156259 0.000000 31.889666 149 149 149 0
0.265003 0.000000 36.054868 150 150 150 0
0.312455 0.000000 31.883177 159 159 159 0
0.442652 0.000000 36.134843 163 163 163 0
0.531887 0.000000 36.182769 165 165 165 0
0.620576 0.000000 36.185206 170 170 170 0
0.710750 0.000000 36.262774 168 168 168 0
0.799661 0.000000 36.265822 168 168 168 0
0.887029 0.000000 36.205282 164 164 164 0
0.973008 0.000000 36.104203 162 162 162 0
1.056662 0.000000 35.940873 157 157 157 0
1.139680 0.000000 35.782728 155 155 155 0
1.225490 0.000000 35.728578 157 157 157 0
1.306747 0.000000 35.557739 153 153 153 0
1.389759 0.000000 35.453045 153 153 153 0
1.478614 0.000000 35.500943 152 152 152 0
1.564998 0.000000 35.487481 148 148 148 0
1.649278 0.000000 35.430243 144 144 144 0
1.736302 0.000000 35.434736 142 142 142 0
1.826162 0.000000 35.493923 143 143 143 0
1.916640 0.000000 35.559179 136 136 136 0
1.998247 0.000000 35.461351 136 136 136 0
2.086023 0.000000 35.476588 135 135 135 0
2.178471 0.000000 35.566877 138 138 138 0
2.267849 0.000000 35.602018 152 152 152 0
2.358013 0.000000 35.646460 151 151 151 0
2.448888 0.000000 35.698072 158 158 158 0
2.536912 0.000000 35.706012 161 161 161 0
2.626574 0.000000 35.735702 158 158 158 0
2.703104 0.000000 35.590566 158 158 158 0
2.788672 0.000000 35.569796 155 155 155 0
2.872526 0.000000 35.529073 154 154 154 0
2.950100 0.000000 35.415365 156 156 156 0
3.033147 0.000000 35.371977 157 157 157 0
3.119154 0.000000 35.364561 154 154 154 0
3.204371 0.000000 35.348831 153 153 153 0
3.278292 0.000000 35.212591 153 153 153 0
3.367650 0.000000 35.244901 151 151 151 0
3.458857 0.000000 35.294458 141 141 141 0
3.542744 0.000000 35.268730 130 130 130 0
3.095284 0.000000 30.080505 120 120 120 0
3.162292 0.000000 30.017013 115 115 115 0
3.242864 0.000000 30.082223 109 109 109 0
3.344905 0.000000 30.339275 92 92 92 0
3.488771 0.000000 30.956263 81 81 81 0
3.761282 0.000000 32.664194 70 70 70 0
5.021188 0.000000 38.669139 110 110 110 0
5.132764 0.000000 38.796403 130 130 130 0
5.234306 0.000000 38.844570 131 131 131 0
5.324340 0.000000 38.807146 132 132 132 0
5.414804 0.000000 38.774104 131 131 131 0
5.521463 0.000000 38.856179 135 135 135 0
5.618147 0.000000 38.866462 136 136 136 0
5.627479 0.000000 38.282173 125 125 125 0
5.376920 0.000000 35.978055 114 114 114 0
5.596072 0.000000 36.840501 116 116 116 0
5.549699 0.000000 35.955288 115 115 115 0
5.635779 0.000000 35.942470 118 118 118 0
5.861115 0.000000 36.804491 116 116 116 0
6.233242 0.000000 38.548187 116 116 116 0
6.183431 0.000000 37.669396 122 122 122 0
6.274517 0.000000 37.662168 126 126 126 0
5.921935 0.000000 35.030670 135 135 135 0
6.060203 0.000000 35.336459 144 144 144 0
6.860211 0.000000 39.437832 147 147 147 0
6.956718 0.000000 39.437174 148 148 148 0
6.293802 0.000000 35.190393 150 150 150 0
6.031652 0.000000 33.268901 150 150 150 0
6.449322 0.000000 35.098353 145 145 145 0
6.530127 0.000000 35.070499 142 142 142 0
6.604764 0.000000 35.010677 141 141 141 0
5.342024 0.000000 27.954076 139 139 139 0
8.386581 0.000000 43.330309 139 139 139 0
-7.392647 0.092408 37.717586 104 104 104 0
-7.278463 0.092132 37.605079 93 93 93 0
-7.237610 0.092790 37.873420 93 92 92 0
-7.091827 0.092102 37.592509 96 96 96 0
-7.100944 0.093433 38.136112 89 89 89 0
-7.061796 0.094157 38.431543 94 94 94 0
-7.012231 0.094760 38.677500 95 95 95 0
-6.906668 0.094612 38.617095 98 97 97 0
-6.805552 0.094522 38.580226 106 105 106 0
-6.743753 0.094982 38.768342 108 108 108 0
-6.703860 0.095769 39.089565 118 117 117 0
-6.623573 0.095994 39.181146 130 130 130 0
-6.551188 0.096341 39.322855 145 145 145 0
-6.438862 0.096102 39.225475 145 145 145 0
-5.775593 0.087509 35.717952 129 129 129 0
-5.657616 0.087040 35.526628 128 128 128 0
-5.558008 0.086844 35.446477 132 132 132 0
-5.446630 0.086454 35.287527 133 133 133 0
-5.338581 0.086106 35.145368 132 132 132 0
-5.217041 0.085525 34.908270 132 132 132 0
-5.103726 0.085062 34.719223 135 135 135 0
-4.992550 0.084619 34.538571 137 137 137 0
-4.895168 0.084399 34.448757 138 138 138 0
-4.790894 0.084051 34.306436 139 139 139 0
-4.688874 0.083730 34.175467 140 140 140 0
-4.598358 0.083607 34.125108 141 141 141 0
-4.503701 0.083402 34.041578 143 143 143 0
-4.410756 0.083222 33.968083 145 145 145 0
-4.320401 0.083085 33.912093 146 146 146 0
-4.229591 0.082933 33.850269 147 147 147 0
-4.145983 0.082920 33.844756 149 149 149 0
-4.057415 0.082804 33.797713 151 151 151 0
-3.970203 0.082713 33.760227 152 152 152 0
-3.889973 0.082765 33.781793 150 149 149 0
-3.809737 0.082820 33.804228 147 147 147 0
-3.724719 0.082772 33.784298 144 144 144 0
-3.644669 0.082833 33.809544 137 137 137 0
-3.565288 0.082914 33.842321 132 132 132 0
-3.488702 0.083064 33.903810 123 123 123 0
-3.407496 0.083110 33.922311 118 118 118 0
-3.330626 0.083266 33.985982 115 115 115 0
-3.256828 0.083508 34.085062 112 112 112 0
-2.869704 0.075519 30.823889 113 113 113 0
-3.097767 0.083723 34.172833 107 107 107 0
-2.729934 0.075832 30.951635 110 110 110 0
-2.950639 0.084304 34.409788 108 108 108 0
-2.588399 0.076129 31.073214 109 109 109 0
-2.789194 0.084521 34.498383 110 110 110 0
-2.715625 0.084863 34.638076 111 111 111 0
-2.371323 0.076494 31.222156 112 112 112 0
-2.299763 0.076659 31.289296 116 116 116 0
-2.229322 0.076873 31.376805 114 114 114 0
-2.151614 0.076843 31.364634 106 106 106 0
-2.080265 0.077047 31.447695 107 107 107 0
-1.997449 0.076825 31.357132 108 108 108 0
-1.929601 0.077184 31.503695 108 108 108 0
-1.857266 0.077386 31.586149 111 111 111 0
-1.995472 0.086760 35.412111 120 120 120 0
-1.919849 0.087266 35.618728 129 129 129 0
-1.835834 0.087421 35.681913 141 141 141 0
-1.752444 0.087622 35.764159 148 148 148 0
-1.665903 0.087679 35.787382 152 152 152 0
-1.574408 0.087467 35.700863 150 150 150 0
-1.483747 0.087279 35.624185 152 152 152 0
-1.397393 0.087337 35.647770 152 152 152 0
-1.309886 0.087326 35.643144 147 147 147 0
-1.090638 0.077903 31.797030 136 136 136 0
-1.012104 0.077854 31.777205 127 127 127 0
-0.931145 0.077595 31.671609 118 118 118 0
-0.955774 0.086889 35.464699 118 118 118 0
-0.881786 0.088179 35.991276 133 133 133 0
-0.799591 0.088843 36.262608 155 155 155 0
-0.712487 0.089061 36.351357 151 151 151 0
-0.621058 0.088723 36.213291 150 150 150 0
-0.531530 0.088588 36.158492 146 146 146 0
-0.441693 0.088339 36.056543 145 145 145 0
-0.352783 0.088196 35.998238 147 147 147 0
-0.264266 0.088089 35.954603 152 152 152 0
-0.176305 0.088153 35.980654 147 147 147 0
-0.078202 0.078202 31.919300 146 146 146 0
0.000000 0.078293 31.956487 144 144 144 0
0.078182 0.078182 31.911082 145 145 145 0
0.156042 0.078021 31.845327 145 145 145 0
0.234436 0.078145 31.896089 151 151 151 0
0.354009 0.088502 36.123375 161 161 161 0
0.443399 0.088680 36.195857 167 167 167 0
0.531851 0.088642 36.180317 167 167 167 0
0.621326 0.088761 36.228903 167 167 167 0
0.710649 0.088831 36.257588 167 167 167 0
0.799388 0.088821 36.253402 161 161 161 0
0.886214 0.088621 36.172004 158 158 158 0
0.974200 0.088564 36.148432 157 157 157 0
1.055265 0.087939 35.893354 153 153 153 0
1.136523 0.087425 35.683603 151 151 151 0
1.222677 0.087334 35.646572 150 150 150 0
1.305907 0.087060 35.534877 149 149 149 0
1.388867 0.086804 35.430289 152 152 152 0
1.476729 0.086866 35.455680 153 153 153 0
1.563545 0.086864 35.454534 150 150 150 0
1.646362 0.086651 35.367615 145 145 145 0
1.732682 0.086634 35.360851 143 143 143 0
1.821279 0.086728 35.398999 139 139 139 0
1.910432 0.086838 35.444006 132 132 132 0
1.997075 0.086829 35.440553 137 137 137 0
2.088470 0.087020 35.518206 135 135 135 0
2.175572 0.087023 35.519546 139 139 139 0
2.267612 0.087216 35.598305 147 147 147 0
2.354655 0.087209 35.595698 152 152 152 0
2.442301 0.087225 35.602058 155 155 155 0
2.534265 0.087388 35.668757 159 159 159 0
2.621784 0.087393 35.670527 154 154 154 0
2.699863 0.087092 35.547899 157 157 157 0
2.791600 0.087238 35.607143 157 157 157 0
2.870453 0.086983 35.503435 156 156 156 0
2.942305 0.086538 35.321788 157 157 157 0
3.030106 0.086574 35.336507 154 154 154 0
3.113424 0.086484 35.299594 153 153 153 0
3.198117 0.086436 35.279838 154 154 154 0
3.276633 0.086227 35.194768 153 153 153 0
3.364301 0.086264 35.209852 151 151 151 0
3.447610 0.086190 35.179695 147 147 147 0
3.538778 0.086312 35.229253 132 132 132 0
3.082031 0.073382 29.951714 117 117 117 0
3.159907 0.073486 29.994375 113 113 113 0
3.235822 0.073541 30.016901 109 109 109 0
3.405282 0.075673 30.886913 90 90 90 0
3.531289 0.076767 31.333531 75 75 75 0
3.441317 0.073220 29.885515 73 73 73 0
5.019298 0.094704 38.654583 93 93 93 0
5.137810 0.095145 38.834541 128 128 128 0
5.244120 0.095348 38.917399 127 127 127 0
5.327918 0.095141 38.833219 130 130 130 0
5.431549 0.095290 38.894011 132 132 132 0
5.523297 0.095229 38.869088 130 130 130 0
5.621677 0.095283 38.890884 134 134 134 0
5.721643 0.095361 38.922741 137 137 137 0
5.534013 0.090722 37.029191 119 119 119 0
5.458528 0.088041 35.935011 120 120 120 0
5.686936 0.090269 36.844419 116 116 116 0
5.638460 0.088101 35.959568 114 114 114 0
5.724041 0.088062 35.943743 115 115 115 0
6.093324 0.092323 37.682891 119 119 119 0
6.186282 0.092333 37.686760 121 121 121 0
6.278010 0.092324 37.683131 128 128 128 0
6.518939 0.094477 38.562197 134 134 134 0
6.765435 0.096649 39.448600 141 141 141 0
6.861156 0.096636 39.443264 145 145 145 0
7.112473 0.098784 40.320142 148 148 148 0
7.210942 0.098780 40.318378 150 150 150 0
7.471117 0.100961 41.208587 152 152 152 0
6.433933 0.085786 35.014600 146 146 146 0
7.839513 0.103151 42.102650 142 142 142 0
6.604299 0.085770 35.008213 142 142 142 0
8.051554 0.103225 42.132675 139 139 139 0
5.394780 0.068288 27.872796 140 140 140 0
-7.313100 0.182827 37.311734 106 106 106 0
-7.215945 0.182682 37.282072 100 100 100 0
-7.139914 0.183075 37.362187 102 101 102 0
-7.074822 0.183762 37.502372 97 96 96 0
-7.006027 0.184369 37.626352 88 87 88 0
-6.939463 0.185052 37.765785 91 91 91 0
-6.428016 0.173730 35.455133 90 89 90 0
-6.897355 0.188969 38.565025 92 92 92 0
-6.310179 0.175283 35.771992 98 97 97 0
-6.722871 0.189377 38.648297 100 100 100 0
-6.647117 0.189918 38.758701 108 108 108 0
-6.578005 0.190667 38.911594 117 117 117 0
-6.515365 0.191628 39.107833 131 131 131 0
-5.881083 0.175555 35.827495 134 134 134 0
-5.742113 0.174003 35.510902 128 128 128 0
-5.641785 0.173593 35.427223 132 132 132 0
-5.539510 0.173110 35.328506 132 132 132 0
-5.430299 0.172390 35.181722 133 133 133 0
-5.323048 0.171711 35.043107 134 134 134 0
-5.204960 0.170654 34.827434 137 137 137 0
-5.095118 0.169837 34.660670 138 138 138 0
-4.986965 0.169050 34.499930 139 139 139 0
-4.889873 0.168616 34.411493 140 140 140 0
-4.784846 0.167889 34.263132 143 143 143 0
-4.685451 0.167338 34.150517 145 145 145 0
-4.593455 0.167035 34.088719 144 144 144 0
-4.499659 0.166654 34.011025 147 147 147 0
-4.407369 0.166316 33.942005 148 148 148 0
-4.317929 0.166074 33.892692 150 150 150 0
-4.226401 0.165741 33.824736 151 151 151 0
-4.144106 0.165764 33.829438 154 154 154 0
-4.056371 0.165566 33.789013 158 158 158 0
-3.968351 0.165348 33.744479 158 158 158 0
-3.888685 0.165476 33.770607 153 153 153 0
-3.808687 0.165595 33.794912 145 145 145 0
-3.725510 0.165578 33.791474 137 137 137 0
-3.645739 0.165715 33.819473 131 131 131 0
-3.568417 0.165973 33.872018 123 123 123 0
-3.489080 0.166147 33.907482 118 118 118 0
-3.411035 0.166392 33.957544 114 114 114 0
-3.338926 0.166946 34.070672 111 111 111 0
-3.262365 0.167301 34.143019 112 112 112 0
-3.183162 0.167535 34.190780 113 113 113 0
-3.109197 0.168065 34.298920 108 108 108 0
-3.032621 0.168479 34.383454 108 108 108 0
-2.666846 0.152391 31.100240 109 109 109 0
-2.880272 0.169428 34.577096 108 108 108 0
-2.800895 0.169751 34.643109 110 110 110 0
-2.456382 0.153524 31.331406 114 114 114 0
-2.643408 0.170542 34.804584 109 109 109 0
-2.305416 0.153694 31.366210 108 108 108 0
-2.229896 0.153786 31.384878 111 111 111 0
-2.164599 0.154614 31.553915 107 107 107 0
-2.086677 0.154569 31.544618 108 108 108 0
-2.009612 0.154586 31.548073 109 109 109 0
-1.935336 0.154827 31.597316 115 115 115 0
-1.852784 0.154399 31.509938 119 119 119 0
-2.001174 0.174015 35.513287 121 121 121 0
-1.922499 0.174773 35.667892 131 131 131 0
-1.840652 0.175300 35.775554 144 144 144 0
-1.754831 0.175483 35.812885 152 152 152 0
-1.667600 0.175537 35.823838 153 153 153 0
-1.578167 0.175352 35.786094 153 153 153 0
-1.485340 0.174746 35.662423 154 154 154 0
-1.398679 0.174835 35.680590 152 152 152 0
-1.309094 0.174546 35.621606 151 151 151 0
-1.090914 0.155845 31.805062 140 140 140 0
-1.012737 0.155806 31.797067 131 131 131 0
-0.935399 0.155900 31.816305 123 123 123 0
-0.849731 0.154497 31.529902 122 122 122 0
-0.874887 0.174977 35.709688 116 116 116 0
-0.797427 0.177206 36.164490 145 145 145 0
-0.635067 0.158767 32.401395 148 148 148 0
-0.622776 0.177936 36.313498 145 145 145 0
-0.532979 0.177660 36.257089 144 144 144 0
-0.443057 0.177223 36.167957 144 144 144 0
-0.353208 0.176604 36.041599 149 149 149 0
-0.264807 0.176538 36.028121 152 152 152 0
-0.156188 0.156188 31.875043 145 145 145 0
-0.078190 0.156380 31.914197 144 144 144 0
0.000000 0.156665 31.972448 144 144 144 0
0.088277 0.176554 36.031531 147 147 147 0
0.156396 0.156396 31.917596 147 147 147 0
0.265757 0.177172 36.157454 152 152 152 0
0.354742 0.177371 36.198200 165 165 165 0
0.443734 0.177494 36.223203 163 163 163 0
0.533169 0.177723 36.270000 165 165 165 0
0.621506 0.177573 36.239444 164 164 164 0
0.709919 0.177480 36.220345 165 165 165 0
0.799017 0.177559 36.236576 162 162 162 0
0.886127 0.177225 36.168437 159 159 159 0
0.969714 0.176312 35.981980 159 159 159 0
1.050524 0.175087 35.732125 149 149 149 0
1.136267 0.174810 35.675586 151 151 151 0
1.220560 0.174366 35.584848 149 149 149 0
1.303714 0.173828 35.475201 147 147 147 0
1.387502 0.173438 35.395457 152 152 152 0
1.475364 0.173572 35.422901 153 153 153 0
1.560691 0.173410 35.389830 147 147 147 0
1.644359 0.173090 35.324569 144 144 144 0
1.730172 0.173017 35.309629 142 142 142 0
1.821390 0.173466 35.401164 142 142 142 0
1.909767 0.173615 35.431673 138 138 138 0
1.992488 0.173260 35.359150 135 135 135 0
2.080912 0.173409 35.389653 131 131 131 0
2.174702 0.173976 35.505337 136 136 136 0
2.263979 0.174152 35.541269 139 139 139 0
2.349986 0.174073 35.525116 152 152 152 0
2.441208 0.174372 35.586119 153 153 153 0
2.534344 0.174782 35.669864 153 153 153 0
2.619916 0.174661 35.645116 153 153 153 0
2.697671 0.174043 35.519045 160 160 160 0
2.782891 0.173931 35.496057 158 158 158 0
2.871939 0.174057 35.521819 152 152 152 0
2.944474 0.173204 35.347823 154 154 154 0
3.028109 0.173035 35.313220 155 155 155 0
3.112531 0.172918 35.289464 154 154 154 0
3.195645 0.172738 35.252565 154 154 154 0
3.274669 0.172351 35.173674 153 153 153 0
3.361595 0.172389 35.181525 153 153 153 0
3.447816 0.172391 35.181795 151 151 151 0
3.535936 0.172485 35.200951 134 134 134 0
3.618709 0.172319 35.167242 118 118 118 0
3.159533 0.146955 29.990825 113 113 113 0
3.237063 0.147139 30.028414 107 107 107 0
3.405649 0.151362 30.890238 88 88 88 0
3.208575 0.139503 28.470053 71 71 71 0
3.525673 0.150029 30.618089 64 64 64 0
4.221224 0.159291 32.508464 78 78 78 0
5.151642 0.190802 38.939094 127 127 127 0
5.252489 0.191000 38.979513 129 129 129 0
5.345969 0.190927 38.964792 128 128 128 0
5.443712 0.191007 38.981111 125 125 125 0
5.535428 0.190877 38.954452 129 129 129 0
5.627296 0.190756 38.929757 131 131 131 0
5.730953 0.191032 38.986073 129 129 129 0
5.828025 0.191083 38.996487 129 129 129 0
5.615509 0.181145 36.968462 117 117 117 0
5.690097 0.180638 36.864900 109 109 109 0
5.642128 0.176316 35.982958 114 114 114 0
5.691916 0.175136 35.742017 115 115 115 0
5.955802 0.180479 36.832418 122 122 122 0
6.191160 0.184811 37.716477 126 126 126 0
6.427834 0.189054 38.582440 128 128 128 0
6.520488 0.189000 38.571355 135 135 135 0
6.463187 0.184662 37.686219 138 138 138 0
6.859929 0.193237 39.436212 142 142 142 0
6.955705 0.193214 39.431432 146 146 146 0
7.370263 0.201925 41.209186 150 150 150 0
7.470334 0.201901 41.204268 152 152 152 0
6.440177 0.171738 35.048580 148 148 148 0
6.527484 0.171776 35.056308 143 143 143 0
5.280175 0.137147 27.989267 140 140 140 0
6.708281 0.172007 35.103509 140 140 140 0
5.393196 0.136537 27.864612 140 140 140 0
-7.262685 0.272351 37.054514 110 109 110 0
-7.172248 0.272364 37.056305 104 104 104 0
-7.091252 0.272740 37.107548 102 102 102 0
-7.035851 0.274124 37.295792 99 99 99 0
-6.947838 0.274257 37.313846 96 96 96 0
-6.915018 0.276601 37.632753 94 94 94 0
-6.857145 0.277992 37.822090 92 91 91 0
-6.921171 0.284432 38.698187 90 89 89 0
-6.773526 0.282230 38.398675 92 91 92 0
-6.226783 0.263104 35.796397 97 97 97 0
-6.113124 0.261991 35.645038 103 103 103 0
-6.512826 0.283166 38.526035 106 106 106 0
-5.934462 0.261815 35.621022 121 120 121 0
-5.836907 0.261354 35.558374 131 131 131 0
-5.724365 0.260198 35.401142 133 133 133 0
-5.627233 0.259718 35.335840 133 133 133 0
-5.523782 0.258927 35.228201 134 134 134 0
-5.419175 0.258056 35.109651 134 134 134 0
-5.309075 0.256891 34.951122 135 135 135 0
-5.194260 0.255455 34.755840 137 137 137 0
-5.090064 0.254503 34.626287 140 140 140 0
-4.983291 0.253388 34.474515 143 143 143 0
-4.887951 0.252825 34.397969 141 141 141 0
-4.782566 0.251714 34.246806 144 144 144 0
-4.684989 0.250982 34.147153 144 144 144 0
-4.593412 0.250550 34.088404 143 142 143 0
-4.500625 0.250035 34.018329 144 144 144 0
-4.409213 0.249578 33.956205 145 145 145 0
-4.319206 0.249185 33.902719 148 148 148 0
-4.228185 0.248717 33.839017 149 149 149 0
-4.145434 0.248726 33.840279 153 153 153 0
-4.057710 0.248431 33.800168 155 155 155 0
-3.969066 0.248067 33.750562 153 153 153 0
-3.888923 0.248229 33.772667 148 148 148 0
-3.812010 0.248609 33.824400 141 141 141 0
-3.727431 0.248495 33.808895 132 132 132 0
-3.646866 0.248650 33.829928 123 123 123 0
-3.572568 0.249249 33.911418 115 115 115 0
-3.495860 0.249704 33.973375 116 116 116 0
-3.417241 0.250042 34.019320 111 111 111 0
-3.344520 0.250839 34.127755 108 108 108 0
-2.947230 0.226710 30.844894 113 113 113 0
-3.190660 0.251894 34.271317 112 112 112 0
-3.113931 0.252481 34.351145 108 108 108 0
-3.039476 0.253290 34.461179 109 109 109 0
-2.670387 0.228890 31.141536 109 109 109 0
-2.601242 0.229521 31.227394 112 112 112 0
-2.529705 0.229973 31.288870 112 112 112 0
-2.455047 0.230161 31.314369 118 118 118 0
-2.382583 0.230573 31.370412 111 111 111 0
-2.314135 0.231414 31.484837 110 110 110 0
-2.245528 0.232296 31.604898 109 109 109 0
-2.168267 0.232314 31.607384 109 109 109 0
-2.091796 0.232422 31.622009 111 111 111 0
-2.024840 0.233635 31.787134 118 118 118 0
-1.933833 0.232060 31.572787 116 116 116 0
-1.867333 0.233417 31.757371 117 117 117 0
-2.004549 0.261463 35.573178 126 126 126 0
-1.929191 0.263072 35.792046 135 135 135 0
-1.844908 0.263558 35.858263 147 147 147 0
-1.757177 0.263576 35.860747 155 155 155 0
-1.670522 0.263767 35.886606 155 155 155 0
-1.579290 0.263215 35.811576 154 154 154 0
-1.486666 0.262353 35.694256 152 152 152 0
-1.399240 0.262358 35.694903 154 154 154 0
-1.311073 0.262215 35.675445 152 152 152 0
-1.092064 0.234014 31.838608 142 142 142 0
-1.013826 0.233960 31.831271 133 133 133 0
-0.937223 0.234306 31.878329 123 123 123 0
-0.852282 0.232441 31.624574 120 120 120 0
-0.777344 0.233203 31.728326 121 121 121 0
-0.709065 0.236355 32.157128 125 125 125 0
-0.712129 0.267048 36.333121 137 137 137 0
-0.624517 0.267650 36.414958 142 142 142 0
-0.534092 0.267046 36.332801 140 140 140 0
-0.443898 0.266339 36.236559 142 142 142 0
-0.353790 0.265342 36.101013 143 143 143 0
-0.265046 0.265046 36.060657 146 146 146 0
-0.176779 0.265169 36.077378 145 145 145 0
-0.088286 0.264857 36.034994 143 143 143 0
0.000000 0.235062 31.981258 143 143 143 0
0.088353 0.265060 36.062517 145 145 145 0
0.156581 0.234872 31.955355 155 155 155 0
0.265850 0.265850 36.170056 162 162 162 0
0.354998 0.266249 36.224323 160 160 160 0
0.444153 0.266492 36.257371 164 164 164 0
0.532522 0.266261 36.225954 163 163 163 0
0.621975 0.266561 36.266777 164 164 164 0
0.708716 0.265769 36.158999 161 161 161 0
0.797271 0.265757 36.157429 158 158 158 0
0.885012 0.265504 36.122935 155 155 155 0
0.966812 0.263676 35.874287 152 152 152 0
1.047630 0.261908 35.633690 153 153 153 0
1.130598 0.260907 35.497586 152 152 152 0
1.219939 0.261415 35.566724 153 153 153 0
1.301793 0.260359 35.422928 150 150 150 0
1.385849 0.259847 35.353296 149 149 149 0
1.472999 0.259941 35.366129 150 150 150 0
1.559362 0.259894 35.359679 146 146 146 0
1.642416 0.259329 35.282830 143 143 143 0
1.730324 0.259549 35.312740 143 143 143 0
1.819915 0.259988 35.372499 146 146 146 0
1.908630 0.260268 35.410575 141 141 141 0
1.994880 0.260202 35.401604 134 134 134 0
2.081564 0.260195 35.400741 134 134 134 0
2.171944 0.260633 35.460306 135 135 135 0
2.261085 0.260894 35.495840 140 140 140 0
2.348855 0.260984 35.508017 145 145 145 0
2.439005 0.261322 35.554016 150 150 150 0
2.528638 0.261583 35.589560 149 149 149 0
2.613243 0.261324 35.554325 150 150 150 0
2.694784 0.260786 35.481024 158 158 158 0
2.777727 0.260412 35.430195 157 157 157 0
2.868250 0.260750 35.476188 153 153 153 0
2.945176 0.259868 35.356256 156 156 156 0
3.026107 0.259381 35.289875 153 153 153 0
3.111966 0.259331 35.283062 153 153 153 0
3.194079 0.258979 35.235286 154 154 154 0
3.273397 0.258426 35.160006 153 153 153 0
3.360777 0.258521 35.172962 153 153 153 0
3.446923 0.258519 35.172680 153 153 153 0
3.532921 0.258506 35.170943 140 140 140 0
3.623250 0.258804 35.211367 124 124 124 0
3.158642 0.220370 29.982362 109 109 109 0
3.233112 0.220439 29.991758 104 104 104 0
3.330462 0.222031 30.208269 89 89 89 0
3.561532 0.232274 31.601880 70 70 70 0
3.537748 0.225814 30.722954 67 67 67 0
4.234745 0.239703 32.612591 73 73 73 0
5.160648 0.286703 39.007168 122 122 122 0
5.263655 0.287108 39.062377 123 123 123 0
5.357349 0.287001 39.047736 125 125 125 0
5.450091 0.286847 39.026790 128 128 128 0
5.552699 0.287209 39.075998 130 130 130 0
5.646104 0.287090 39.059872 130 130 130 0
5.743253 0.287163 39.069749 132 132 132 0
5.834328 0.286934 39.038664 134 134 134 0
5.930808 0.286975 39.044161 130 130 130 0
5.695862 0.271232 36.902251 113 113 113 0
5.650237 0.264855 36.034672 111 111 111 0
6.149517 0.283824 38.615494 120 120 120 0
6.242089 0.283731 38.602901 122 122 122 0
6.193187 0.277307 37.728827 125 125 125 0
6.138171 0.270802 36.843761 127 127 127 0
6.521232 0.283532 38.575756 128 128 128 0
6.766709 0.290002 39.456027 134 134 134 0
6.862387 0.289960 39.450344 140 140 140 0
6.800584 0.283358 38.552064 145 145 145 0
7.209747 0.296291 40.311698 149 149 149 0
6.366816 0.258114 35.117575 155 155 155 0
6.441430 0.257657 35.055401 148 148 148 0
6.524612 0.257550 35.040883 145 145 145 0
6.603928 0.257296 35.006244 142 142 142 0
6.690028 0.257309 35.007998 140 140 140 0
8.372548 0.317945 43.257802 140 140 140 0
-7.232956 0.361648 36.902837 105 105 105 0
-7.138945 0.361466 36.884240 107 107 107 0
-7.067973 0.362460 36.985731 105 105 105 0
-6.996675 0.363464 37.088129 99 98 98 0
-6.938812 0.365201 37.265372 103 102 103 0
-6.851277 0.365401 37.285860 96 96 96 0
-6.798684 0.367496 37.499634 93 93 93 0
-6.723124 0.368390 37.590855 93 93 93 0
-6.704942 0.372497 38.009876 91 90 91 0
-6.678190 0.376236 38.391435 88 88 88 0
-6.446034 0.368345 37.586206 96 95 95 0
-6.526591 0.378353 38.607457 96 96 96 0
-5.916208 0.348012 35.511454 124 124 124 0
-5.818256 0.347359 35.444755 134 134 134 0
-5.709899 0.346055 35.311684 135 135 135 0
-5.612566 0.345389 35.243744 134 134 134 0
-5.511243 0.344453 35.148233 134 134 134 0
-5.406363 0.343261 35.026649 136 136 136 0
-5.297209 0.341755 34.873003 138 138 138 0
-5.191951 0.340456 34.740386 143 143 143 0
-5.095574 0.339705 34.663766 143 143 143 0
-4.986116 0.338042 34.494058 141 141 141 0
-4.892190 0.337392 34.427795 141 141 141 0
-4.789783 0.336125 34.298484 141 141 141 0
-4.691213 0.335087 34.192512 138 138 138 0
-4.600510 0.334583 34.141076 140 140 140 0
-4.507543 0.333892 34.070617 139 139 139 0
-4.416267 0.333303 34.010531 143 143 143 0
-4.323881 0.332606 33.939414 145 145 145 0
-4.234305 0.332102 33.887992 145 145 145 0
-4.148790 0.331903 33.867669 148 148 148 0
-4.060303 0.331453 33.821763 150 150 150 0
-3.972340 0.331028 33.778403 148 148 148 0
-3.890800 0.331132 33.788967 144 144 144 0
-3.812257 0.331501 33.826597 133 133 133 0
-3.730634 0.331612 33.837947 124 124 124 0
-3.651550 0.331959 33.873377 117 117 117 0
-3.581618 0.333174 33.997324 114 114 114 0
-3.167482 0.301665 30.782142 114 114 114 0
-3.098455 0.302288 30.845747 116 116 116 0
-3.353376 0.335338 34.218120 112 112 112 0
-2.957823 0.303366 30.955765 117 117 117 0
-3.196417 0.336465 34.333158 114 114 114 0
-3.117517 0.337029 34.390699 112 112 112 0
-2.745492 0.305055 31.128028 110 110 110 0
-2.674368 0.305642 31.187964 110 110 110 0
-2.606042 0.306593 31.285022 109 109 109 0
-2.533465 0.307087 31.335376 110 110 110 0
-2.459353 0.307419 31.369299 109 109 109 0
-2.390994 0.308515 31.481162 108 108 108 0
-2.317518 0.309002 31.530862 109 109 109 0
-2.246862 0.309912 31.623680 110 110 110 0
-2.175457 0.310780 31.712206 112 112 112 0
-2.093798 0.310192 31.652279 113 113 113 0
-2.017841 0.310437 31.677255 113 113 113 0
-1.940461 0.310474 31.680999 116 116 116 0
-2.086306 0.347718 35.481398 120 120 120 0
-2.007160 0.349071 35.619521 127 127 127 0
-1.933263 0.351502 35.867582 143 143 143 0
-1.849339 0.352255 35.944384 154 154 154 0
-1.760172 0.352034 35.921868 158 158 158 0
-1.671173 0.351826 35.900595 154 154 154 0
-1.579947 0.351099 35.826470 153 153 153 0
-1.487665 0.350039 35.718243 154 154 154 0
-1.399894 0.349974 35.711582 154 154 154 0
-1.311257 0.349669 35.680474 150 150 150 0
-1.222902 0.349401 35.653114 142 142 142 0
-1.135987 0.349534 35.666781 130 130 130 0
-0.937595 0.312532 31.890972 129 129 129 0
-0.853146 0.310235 31.656616 124 124 124 0
-0.774458 0.309783 31.610549 117 117 117 0
-0.789859 0.351049 35.821288 116 116 116 0
-0.711803 0.355902 36.316487 135 135 135 0
-0.624577 0.356901 36.418456 142 142 142 0
-0.536133 0.357422 36.471625 137 137 137 0
-0.445336 0.356269 36.353968 141 141 141 0
-0.354472 0.354472 36.170603 141 141 141 0
-0.265279 0.353705 36.092341 142 142 142 0
-0.177018 0.354035 36.126048 143 143 143 0
-0.088360 0.353441 36.065406 143 143 143 0
0.000000 0.312973 31.936068 148 148 148 0
0.078290 0.313160 31.955093 154 154 154 0
0.177590 0.355179 36.242781 159 159 159 0
0.266281 0.355042 36.228741 159 159 159 0
0.354957 0.354957 36.220074 164 164 164 0
0.444046 0.355237 36.248662 162 162 162 0
0.532457 0.354972 36.221598 160 160 160 0
0.619822 0.354184 36.141208 159 159 159 0
0.707599 0.353799 36.101988 158 158 158 0
0.795032 0.353348 36.055882 158 158 158 0
0.880632 0.352253 35.944153 156 156 156 0
0.963476 0.350355 35.750490 149 149 149 0
1.045841 0.348614 35.572817 151 151 151 0
1.130557 0.347864 35.496280 147 147 147 0
1.215678 0.347337 35.442513 148 148 148 0
1.299341 0.346491 35.356224 148 148 148 0
1.382599 0.345650 35.270388 152 152 152 0
1.471323 0.346194 35.325885 149 149 149 0
1.557036 0.346008 35.306934 146 146 146 0
1.642127 0.345711 35.276633 141 141 141 0
