ply
format ascii 1.0
element vertex 1126
property float x
property float y
property float z
property uchar red
property uchar green
property uchar blue
property uchar alpha
end_header
5.524684 9.162891 54.999345 122 122 122 0
5.656385 9.157956 54.969726 123 123 123 0
5.790629 9.157273 54.965624 123 123 123 0
5.918497 9.146769 54.902574 122 122 122 0
6.057501 9.153558 54.943323 122 122 122 0
6.193310 9.155327 54.953945 119 119 119 0
6.333250 9.163000 55.000000 121 121 121 0
6.467106 9.161734 54.992401 120 120 120 0
6.598203 9.156690 54.962127 121 121 121 0
6.737484 9.162978 54.999867 120 120 120 0
6.864803 9.153071 54.940401 118 118 118 0
7.004812 9.160138 54.982824 120 120 120 0
7.137340 9.157342 54.966036 119 119 119 0
7.274889 9.160972 54.987824 119 119 119 0
7.411200 9.162939 54.999633 121 121 121 0
7.543702 9.160210 54.983254 119 119 119 0
7.673317 9.154133 54.946774 122 122 122 0
7.815498 9.162998 54.999987 118 118 118 0
7.947341 9.159647 54.979876 120 120 120 0
8.082390 9.160042 54.982245 120 120 120 0
8.207263 9.149080 54.916447 119 119 119 0
8.348578 9.156505 54.961016 119 119 119 0
8.487224 9.160813 54.986875 119 119 119 0
8.612429 9.150705 54.926203 120 120 120 0
8.746087 9.149752 54.920482 119 119 119 0
8.891227 9.160659 54.985946 118 118 118 0
9.028211 9.162960 54.999761 118 118 118 0
9.159610 9.159610 54.979653 119 119 119 0
9.285588 9.151014 54.928057 119 119 119 0
9.424920 9.155637 54.955804 118 118 118 0
9.556140 9.152360 54.936133 116 116 116 0
9.700972 9.162029 54.994173 117 117 117 0
9.835482 9.161819 54.992911 119 119 119 0
9.964615 9.156673 54.962023 116 116 116 0
10.088518 9.146923 54.903501 118 118 118 0
10.238713 9.160953 54.987715 120 120 120 0
10.359606 9.148743 54.914423 118 118 118 0
10.500265 9.154077 54.946442 119 119 119 0
10.641486 9.159760 54.980551 118 118 118 0
-8.511988 7.627625 45.120528 76 76 76 0
-9.090102 8.252856 48.819023 90 90 90 0
-8.998429 8.278554 48.971041 95 95 95 0
-8.908524 8.306596 49.136921 97 97 97 0
-8.806354 8.323814 49.238772 103 103 103 0
-8.705975 8.343226 49.353601 106 106 106 0
-8.602698 8.360368 49.455003 105 105 105 0
-8.491210 8.369907 49.511430 105 105 105 0
-8.399399 8.399399 49.685883 101 101 101 0
-8.295864 8.417862 49.795104 97 97 97 0
-8.200507 8.445298 49.957399 94 94 94 0
-8.120021 8.489113 50.216582 94 94 94 0
-8.003517 8.496041 50.257564 98 98 98 0
-7.913961 8.532240 50.471693 99 99 99 0
-7.813922 8.558105 50.624696 103 103 103 0
-7.711553 8.582212 50.767298 105 105 105 0
-7.590488 8.585962 50.789482 103 103 103 0
-7.490839 8.614465 50.958090 105 105 105 0
-7.376267 8.626482 51.029174 105 105 105 0
-7.271839 8.650981 51.174095 107 107 107 0
-7.150857 8.656301 51.205565 106 106 106 0
-7.037351 8.671021 51.292643 106 106 106 0
-6.928244 8.691797 51.415542 106 106 106 0
-6.813189 8.705741 51.498026 108 108 108 0
-6.697872 8.719871 51.581608 108 108 108 0
-6.584974 8.737753 51.687391 109 109 109 0
-6.467511 8.750162 51.760794 109 109 109 0
-6.343903 8.754586 51.786965 112 112 112 0
-6.233603 8.777931 51.925056 108 108 108 0
-6.111749 8.785639 51.970655 111 111 111 0
-5.991578 8.796147 52.032812 110 110 110 0
-5.876501 8.814751 52.142865 108 108 108 0
-5.754092 8.822942 52.191314 109 109 109 0
-5.638222 8.841758 52.302619 110 110 110 0
-5.516247 8.851652 52.361150 110 110 110 0
-5.393583 8.860887 52.415776 110 110 110 0
-5.271549 8.871631 52.479331 111 111 111 0
-5.153765 8.890244 52.589436 112 112 112 0
-5.027912 8.895536 52.620740 111 111 111 0
-4.910158 8.915813 52.740688 111 111 111 0
-4.783588 8.920744 52.769857 110 110 110 0
-4.658853 8.929468 52.821459 111 111 111 0
-4.539109 8.948529 52.934212 112 112 112 0
-4.407257 8.944139 52.908249 111 111 111 0
-4.284430 8.958354 52.992336 114 114 114 0
-4.164688 8.980109 53.121025 114 114 114 0
-4.036085 8.983543 53.141338 114 114 114 0
-3.909305 8.991400 53.187817 116 116 116 0
-3.784775 9.005153 53.269171 113 113 113 0
-3.658239 9.014946 53.327098 114 114 114 0
-3.531796 9.025701 53.390719 116 116 116 0
-3.401384 9.026750 53.396926 116 116 116 0
-3.271007 9.027980 53.404199 115 115 115 0
-3.146575 9.046402 53.513173 116 116 116 0
-3.014423 9.043268 53.494633 115 115 115 0
-2.886255 9.052344 53.548325 115 115 115 0
-2.758663 9.064179 53.618329 116 116 116 0
-2.626614 9.061820 53.604377 116 116 116 0
-2.498795 9.074570 53.679800 117 117 117 0
-2.369962 9.084853 53.740628 116 116 116 0
-2.237145 9.080177 53.712964 119 119 119 0
-2.106536 9.084438 53.738171 119 119 119 0
-1.977380 9.095948 53.806257 116 116 116 0
-1.845372 9.095047 53.800928 114 114 114 0
-1.716707 9.111755 53.899761 114 114 114 0
-1.585976 9.119361 53.944758 112 112 112 0
-1.454823 9.125709 53.982309 112 112 112 0
-1.323424 9.131624 54.017299 112 112 112 0
-1.192585 9.143152 54.085491 110 110 110 0
-1.061203 9.152872 54.142986 113 113 113 0
-0.929705 9.164237 54.210214 111 111 111 0
-0.798101 9.178163 54.292594 111 111 111 0
-0.665335 9.181622 54.313053 112 112 112 0
-0.532551 9.186508 54.341957 113 113 113 0
-0.399924 9.198261 54.411481 115 115 115 0
-0.266889 9.207670 54.467139 113 113 113 0
-0.133611 9.219187 54.535266 112 112 112 0
0.000000 9.226066 54.575961 113 113 113 0
0.133798 9.232048 54.611347 114 114 114 0
0.267562 9.230879 54.604432 114 114 114 0
0.402075 9.247730 54.704114 117 117 117 0
0.536388 9.252684 54.733419 117 117 117 0
0.670635 9.254758 54.745683 115 115 115 0
0.805651 9.264990 54.806210 117 117 117 0
0.940210 9.267781 54.822719 118 118 118 0
1.074780 9.269979 54.835723 119 119 119 0
1.209676 9.274184 54.860597 120 120 120 0
1.344899 9.279801 54.893826 118 118 118 0
1.479474 9.280338 54.897001 120 120 120 0
1.615027 9.286403 54.932879 121 121 121 0
1.750508 9.291156 54.960996 121 121 121 0
1.886092 9.295737 54.988093 121 121 121 0
2.020788 9.295627 54.987441 118 118 118 0
2.155602 9.296033 54.989845 121 121 121 0
2.290739 9.297707 54.999746 122 122 122 0
2.425496 9.297735 54.999911 122 122 122 0
2.559964 9.296713 54.993866 122 122 122 0
2.694974 9.297661 54.999471 124 124 124 0
2.828709 9.294329 54.979761 120 120 120 0
2.964403 9.297446 54.998204 121 121 121 0
3.099218 9.297655 54.999440 121 121 121 0
3.233925 9.297534 54.998720 122 122 122 0
3.368647 9.297464 54.998310 124 124 124 0
3.503446 9.297608 54.999159 122 122 122 0
3.638211 9.297650 54.999407 122 122 122 0
3.772991 9.297728 54.999870 124 124 124 0
3.907701 9.297634 54.999315 120 120 120 0
4.039595 9.291068 54.960475 122 122 122 0
4.177195 9.297627 54.999275 121 121 121 0
4.311977 9.297700 54.999706 122 122 122 0
4.446715 9.297677 54.999565 119 119 119 0
4.581417 9.297582 54.999008 121 121 121 0
4.716138 9.297529 54.998691 122 122 122 0
4.850900 9.297559 54.998871 119 119 119 0
4.985693 9.297643 54.999369 119 119 119 0
5.120365 9.297505 54.998549 122 122 122 0
5.255164 9.297598 54.999099 122 122 122 0
5.389970 9.297698 54.999691 122 122 122 0
5.524656 9.297592 54.999068 125 125 125 0
5.659432 9.297638 54.999335 122 122 122 0
5.794102 9.297512 54.998591 123 123 123 0
5.928901 9.297594 54.999078 122 122 122 0
6.063595 9.297512 54.998593 120 120 120 0
6.196885 9.295327 54.985666 120 120 120 0
6.333188 9.297659 54.999462 120 120 120 0
6.467759 9.297403 54.997948 122 122 122 0
6.602601 9.297541 54.998762 122 122 122 0
6.737260 9.297418 54.998038 120 120 120 0
6.872158 9.297625 54.999261 123 123 123 0
7.007000 9.297750 55.000000 123 123 123 0
7.141591 9.297543 54.998774 124 124 124 0
7.276344 9.297551 54.998820 122 122 122 0
7.411116 9.297582 54.999008 121 121 121 0
7.544958 9.296467 54.992409 124 124 124 0
7.680659 9.297640 54.999352 123 123 123 0
7.815377 9.297604 54.999137 123 123 123 0
7.950221 9.297716 54.999801 122 122 122 0
8.084896 9.297630 54.999289 120 120 120 0
8.219693 9.297686 54.999619 121 121 121 0
8.354392 9.297630 54.999288 119 119 119 0
8.487819 9.296183 54.990731 120 120 120 0
8.623814 9.297549 54.998813 118 118 118 0
8.758504 9.297488 54.998452 121 121 121 0
8.893488 9.297737 54.999925 118 118 118 0
9.027988 9.297480 54.998402 119 119 119 0
9.162824 9.297571 54.998942 119 119 119 0
9.297598 9.297598 54.999099 117 117 117 0
9.432485 9.297735 54.999913 116 116 116 0
9.566014 9.296549 54.992893 118 118 118 0
9.701867 9.297623 54.999246 115 115 115 0
9.836498 9.297512 54.998592 115 115 115 0
9.971349 9.297609 54.999167 115 115 115 0
10.105920 9.297446 54.998204 115 115 115 0
10.240849 9.297613 54.999190 117 117 117 0
10.375742 9.297743 54.999956 116 116 116 0
10.510534 9.297780 55.000179 117 117 117 0
10.645355 9.297842 55.000545 117 117 117 0
-9.390626 8.320808 48.517828 68 68 68 0
-9.310584 8.355652 48.721003 85 85 85 0
-9.204314 8.367559 48.790429 90 90 90 0
-9.108421 8.389335 48.917405 96 96 96 0
-9.024242 8.422626 49.111524 99 99 99 0
-8.922316 8.440029 49.212998 102 102 102 0
-8.824401 8.461754 49.339674 106 106 106 0
-8.723373 8.481057 49.452229 107 107 107 0
-8.614464 8.493134 49.522646 107 107 107 0
-8.507151 8.507151 49.604379 103 103 103 0
-7.791571 7.904492 46.090333 101 101 101 0
-7.701611 7.928129 46.228160 95 95 95 0
-7.617256 7.958327 46.404240 94 94 94 0
-7.522874 7.978805 46.523647 97 97 97 0
-8.035183 8.653274 50.456409 95 95 95 0
-7.931031 8.674565 50.580557 101 101 101 0
-7.824010 8.693345 50.690058 100 100 100 0
-7.721356 8.717660 50.831836 106 106 106 0
-7.607520 8.729941 50.903448 105 105 105 0
-7.511826 8.763797 51.100856 107 107 107 0
-7.396341 8.775320 51.168045 104 104 104 0
-7.282224 8.788892 51.247181 107 107 107 0
-7.173433 8.809479 51.367226 108 108 108 0
-7.054196 8.817745 51.415424 107 107 107 0
-6.945575 8.839822 51.544153 105 105 105 0
-6.830000 8.853703 51.625093 110 110 110 0
-6.707944 8.859548 51.659174 112 112 112 0
-6.596456 8.879845 51.777522 110 110 110 0
-6.480397 8.894663 51.863922 110 110 110 0
-6.355239 8.897335 51.879505 110 110 110 0
-6.242893 8.918418 52.002437 112 112 112 0
-6.125441 8.932935 52.087083 108 108 108 0
-6.009208 8.949884 52.185910 110 110 110 0
-5.896466 8.972883 52.320018 108 108 108 0
-5.770039 8.975617 52.335957 107 107 107 0
-5.653156 8.993658 52.441152 110 110 110 0
-5.531549 9.004847 52.506398 109 109 109 0
-5.404779 9.007965 52.524576 109 109 109 0
-5.286044 9.024954 52.623636 111 111 111 0
-5.166983 9.042220 52.724316 110 110 110 0
-5.037996 9.042558 52.726284 112 112 112 0
-4.918134 9.059720 52.826355 109 109 109 0
-4.795179 9.071960 52.897725 109 109 109 0
-4.671686 9.083833 52.966956 111 111 111 0
-4.549867 9.099734 53.059676 114 114 114 0
-4.422492 9.105131 53.091145 112 112 112 0
-4.298396 9.117809 53.165070 112 112 112 0
-4.170256 9.122436 53.192044 112 112 112 0
-4.043705 9.130947 53.241671 114 114 114 0
-3.917467 9.140757 53.298875 116 116 116 0
-3.789384 9.146790 53.334051 113 113 113 0
-3.660479 9.151197 53.359752 113 113 113 0
-3.535080 9.165022 53.440361 116 116 116 0
-3.405623 9.168984 53.463466 116 116 116 0
-3.277572 9.177202 53.511383 114 114 114 0
-3.152746 9.195510 53.618137 116 116 116 0
-3.019645 9.190223 53.587304 115 115 115 0
-2.890737 9.197800 53.631485 116 116 116 0
-2.763369 9.211229 53.709791 114 114 114 0
-2.631777 9.211220 53.709735 117 117 117 0
-2.502895 9.221193 53.767891 118 118 118 0
-2.374044 9.232395 53.833208 116 116 116 0
-2.240489 9.225543 53.793256 118 118 118 0
-2.111412 9.237426 53.862545 114 114 114 0
-1.981886 9.248800 53.928864 116 116 116 0
-1.849224 9.246119 53.913231 113 113 113 0
-1.719551 9.259118 53.989027 111 111 111 0
-1.588699 9.267408 54.037367 112 112 112 0
-1.458623 9.282148 54.123315 113 113 113 0
-1.328130 9.296908 54.209378 110 110 110 0
-1.195533 9.298592 54.219195 113 113 113 0
-1.063877 9.308921 54.279420 114 114 114 0
-0.931499 9.314994 54.314833 112 112 112 0
-0.799455 9.326976 54.384698 112 112 112 0
-0.667411 9.343755 54.482537 117 117 117 0
-0.533715 9.340016 54.460734 117 117 117 0
-0.400621 9.347814 54.506205 115 115 115 0
-0.267230 9.353039 54.536671 113 113 113 0
-0.133895 9.372654 54.651045 112 112 112 0
0.000000 9.370839 54.640461 117 117 117 0
0.134012 9.380870 54.698950 115 115 115 0
0.268208 9.387276 54.736302 115 115 115 0
0.402870 9.400309 54.812297 118 118 118 0
0.537605 9.408086 54.857643 117 117 117 0
0.671878 9.406297 54.847214 118 118 118 0
0.806915 9.414007 54.892169 119 119 119 0
0.941512 9.415124 54.898683 118 118 118 0
1.076796 9.421962 54.938554 122 122 122 0
1.211708 9.424393 54.952727 119 119 119 0
1.346652 9.426565 54.965396 119 119 119 0
1.482043 9.431183 54.992318 119 119 119 0
1.616847 9.431608 54.994796 123 123 123 0
1.751727 9.432376 54.999275 123 123 123 0
1.886465 9.432327 54.998988 121 121 121 0
2.021229 9.432401 54.999421 120 120 120 0
2.155927 9.432179 54.998131 121 121 121 0
2.290717 9.432364 54.999207 123 123 123 0
2.425456 9.432330 54.999006 121 121 121 0
2.560193 9.432288 54.998766 122 122 122 0
2.694933 9.432266 54.998634 123 123 123 0
2.829655 9.432182 54.998148 122 122 122 0
2.964375 9.432102 54.997678 122 122 122 0
3.099106 9.432063 54.997451 122 122 122 0
3.233879 9.432148 54.997945 123 123 123 0
3.368600 9.432079 54.997543 122 122 122 0
3.503385 9.432191 54.998200 122 122 122 0
3.638121 9.432165 54.998048 120 120 120 0
3.772887 9.432217 54.998352 122 122 122 0
3.907640 9.432234 54.998450 122 122 122 0
4.042373 9.432205 54.998279 123 123 123 0
4.177082 9.432122 54.997793 123 123 123 0
4.311884 9.432247 54.998526 121 121 121 0
4.446633 9.432251 54.998548 121 121 121 0
4.581287 9.432061 54.997438 120 120 120 0
4.716062 9.432125 54.997813 122 122 122 0
4.850770 9.432053 54.997395 122 122 122 0
4.985575 9.432170 54.998075 124 124 124 0
5.120379 9.432277 54.998698 123 123 123 0
5.255017 9.432081 54.997557 124 124 124 0
5.389835 9.432212 54.998321 121 121 121 0
5.524492 9.432060 54.997433 124 124 124 0
5.659360 9.432266 54.998638 122 122 122 0
5.793981 9.432061 54.997442 122 122 122 0
5.928840 9.432245 54.998515 122 122 122 0
6.063520 9.432142 54.997914 121 121 121 0
6.198234 9.432095 54.997640 119 119 119 0
6.332934 9.432029 54.997255 118 118 118 0
6.467759 9.432148 54.997947 120 120 120 0
6.602540 9.432199 54.998247 122 122 122 0
6.737123 9.431972 54.996922 121 121 121 0
6.871974 9.432122 54.997794 122 122 122 0
7.006870 9.432325 54.998982 120 120 120 0
7.141440 9.432091 54.997616 120 120 120 0
7.276267 9.432198 54.998238 121 121 121 0
7.411019 9.432206 54.998284 123 123 123 0
7.545838 9.432297 54.998818 121 121 121 0
7.680541 9.432243 54.998501 123 123 123 0
7.815206 9.432145 54.997930 121 121 121 0
7.949950 9.432145 54.997928 122 122 122 0
8.084863 9.432340 54.999069 119 119 119 0
8.219439 9.432143 54.997917 120 120 120 0
8.354189 9.432149 54.997951 120 120 120 0
8.489074 9.432305 54.998861 120 120 120 0
8.623695 9.432166 54.998054 118 118 118 0
8.758288 9.432002 54.997097 119 119 119 0
8.893320 9.432309 54.998884 119 119 119 0
9.027680 9.431904 54.996525 121 121 121 0
9.162940 9.432439 54.999642 121 121 121 0
9.297633 9.432382 54.999310 120 120 120 0
9.432336 9.432336 54.999042 120 120 120 0
9.566953 9.432207 54.998293 118 118 118 0
9.701669 9.432178 54.998121 120 120 120 0
9.836292 9.432061 54.997439 118 118 118 0
9.971178 9.432196 54.998225 118 118 118 0
10.105746 9.432030 54.997257 119 119 119 0
10.240459 9.432002 54.997095 120 120 120 0
10.375909 9.432644 55.000842 120 120 120 0
10.510743 9.432718 55.001269 119 119 119 0
10.645445 9.432673 55.001009 119 119 119 0
-9.517974 8.447201 48.561089 79 79 79 0
-9.411118 8.458093 48.623702 93 93 93 0
-9.327370 8.490298 48.808844 94 94 94 0
-9.228284 8.509197 48.917487 97 97 97 0
-9.139687 8.538392 49.085324 99 99 99 0
-9.039332 8.557234 49.193644 102 102 102 0
-8.942839 8.580292 49.326196 106 106 106 0
-8.837216 8.595101 49.411331 108 108 108 0
-8.734870 8.613552 49.517402 109 109 109 0
-8.631014 8.631014 49.617786 107 107 107 0
-8.520721 8.642446 49.683505 102 102 102 0
-8.436045 8.680568 49.902663 96 96 96 0
-8.320233 8.687302 49.941373 92 92 92 0
-8.244901 8.737134 50.227845 94 94 94 0
-7.545465 8.117091 46.663355 97 97 97 0
-8.051840 8.795086 50.561003 100 100 100 0
-7.948113 8.817438 50.689495 100 100 100 0
-7.856069 8.853665 50.897755 105 105 105 0
-7.734968 8.857786 50.921449 105 105 105 0
-7.629290 8.879994 51.049115 102 102 102 0
-7.523463 8.902765 51.180023 105 105 105 0
-7.408380 8.915169 51.251332 105 105 105 0
-7.299592 8.935708 51.369405 106 106 106 0
-7.190154 8.956157 51.486963 106 106 106 0
-7.072728 8.967209 51.550496 109 109 109 0
-6.957251 8.981178 51.630802 108 108 108 0
-6.849777 9.006189 51.774582 109 109 109 0
-6.724264 9.007976 51.784856 112 112 112 0
-6.610121 9.025357 51.884779 110 110 110 0
-6.495849 9.043241 51.987588 112 112 112 0
-6.371306 9.047254 52.010657 110 110 110 0
-6.256846 9.066042 52.118664 109 109 109 0
-6.134183 9.073479 52.161420 106 106 106 0
-6.025770 9.102759 52.329743 108 108 108 0
-5.908312 9.119352 52.425132 109 109 109 0
-5.786047 9.129096 52.481152 109 109 109 0
-5.661327 9.135323 52.516945 111 111 111 0
-5.544108 9.154225 52.625611 111 111 111 0
-5.419214 9.161052 52.664856 109 109 109 0
-5.300332 9.178623 52.765870 111 111 111 0
-5.177761 9.190526 52.834299 111 111 111 0
-5.052009 9.197247 52.872935 113 113 113 0
-4.931330 9.213801 52.968102 113 113 113 0
-4.809216 9.228496 53.052578 110 110 110 0
-4.681399 9.232759 53.077088 111 111 111 0
-4.560477 9.251254 53.183408 112 112 112 0
-4.431596 9.254214 53.200428 114 114 114 0
-4.307809 9.268316 53.281492 113 113 113 0
-4.179837 9.274012 53.314241 113 113 113 0
-4.047579 9.270261 53.292674 114 114 114 0
-3.926789 9.293401 53.425704 115 115 115 0
-3.798069 9.298720 53.456278 117 117 117 0
-3.667628 9.300057 53.463965 115 115 115 0
-3.546792 9.326750 53.617419 117 117 117 0
-3.413606 9.321770 53.588789 115 115 115 0
-3.286051 9.332386 53.649817 115 115 115 0
-3.156672 9.338488 53.684899 115 115 115 0
-3.026515 9.342721 53.709235 114 114 114 0
-2.896975 9.349329 53.747220 116 116 116 0
-2.767493 9.356761 53.789944 117 117 117 0
-2.636040 9.357941 53.796726 115 115 115 0
-2.506361 9.365875 53.842340 116 116 116 0
-2.377187 9.376683 53.904474 117 117 117 0
-2.244967 9.376040 53.900778 118 118 118 0
-2.116394 9.391500 53.989651 112 112 112 0
-1.984972 9.395533 54.012840 113 113 113 0
-1.854279 9.403846 54.060627 111 111 111 0
-1.724289 9.417270 54.137797 111 111 111 0
-1.592484 9.422199 54.166131 111 111 111 0
-1.462837 9.441947 54.279661 114 114 114 0
-1.330316 9.445245 54.298619 114 114 114 0
-1.198484 9.454709 54.353025 112 112 112 0
-1.065882 9.459703 54.381737 116 116 116 0
-0.933940 9.472821 54.457151 113 113 113 0
-0.800779 9.475880 54.474737 114 114 114 0
-0.668220 9.488729 54.548602 118 118 118 0
-0.534861 9.493777 54.577621 116 116 116 0
-0.401254 9.496355 54.592441 116 116 116 0
-0.267628 9.500795 54.617963 116 116 116 0
-0.134094 9.520672 54.732235 114 114 114 0
0.000000 9.531718 54.795736 115 115 115 0
0.134292 9.534739 54.813102 115 115 115 0
0.268545 9.533336 54.805034 118 118 118 0
0.403595 9.551750 54.910892 116 116 116 0
0.538192 9.552913 54.917580 117 117 117 0
0.672819 9.554034 54.924026 119 119 119 0
0.807993 9.561248 54.965498 120 120 120 0
0.942957 9.564274 54.982893 120 120 120 0
1.077996 9.567211 54.999778 122 122 122 0
1.212743 9.567199 54.999705 118 118 118 0
1.347496 9.567223 54.999847 119 119 119 0
1.482208 9.566976 54.998424 119 119 119 0
1.616959 9.567007 54.998601 123 123 123 0
1.751692 9.566935 54.998190 121 121 121 0
1.886409 9.566790 54.997357 123 123 123 0
2.021186 9.566948 54.998261 124 124 124 0
2.155942 9.566991 54.998510 123 123 123 0
2.290629 9.566746 54.997101 123 123 123 0
2.425388 9.566808 54.997461 122 122 122 0
2.560097 9.566677 54.996704 121 121 121 0
2.694828 9.566640 54.996492 124 124 124 0
2.829612 9.566783 54.997315 123 123 123 0
2.964306 9.566625 54.996405 123 123 123 0
3.099044 9.566615 54.996351 125 125 125 0
3.233829 9.566745 54.997096 123 123 123 0
3.368567 9.566731 54.997019 123 123 123 0
3.503302 9.566708 54.996885 122 122 122 0
3.638057 9.566743 54.997088 121 121 121 0
3.772763 9.566649 54.996546 123 123 123 0
3.907505 9.566650 54.996551 123 123 123 0
4.042251 9.566661 54.996616 122 122 122 0
4.176997 9.566671 54.996671 121 121 121 0
4.311777 9.566754 54.997151 120 120 120 0
4.446481 9.566671 54.996671 122 122 122 0
4.581233 9.566693 54.996800 123 123 123 0
4.715963 9.566669 54.996658 124 124 124 0
4.850686 9.566630 54.996436 122 122 122 0
4.985478 9.566728 54.997000 124 124 124 0
5.120161 9.566617 54.996362 122 122 122 0
5.254825 9.566476 54.995552 124 124 124 0
5.389745 9.566798 54.997400 122 122 122 0
5.524463 9.566752 54.997140 124 124 124 0
5.659151 9.566660 54.996607 121 121 121 0
5.793905 9.566680 54.996721 121 121 121 0
5.928580 9.566572 54.996104 121 121 121 0
6.063357 9.566629 54.996433 120 120 120 0
6.198114 9.566654 54.996573 120 120 120 0
6.332799 9.566569 54.996085 119 119 119 0
6.467665 9.566755 54.997154 123 123 123 0
6.602450 9.566815 54.997498 120 120 120 0
6.736991 9.566528 54.995847 118 118 118 0
6.871800 9.566623 54.996398 120 120 120 0
7.006588 9.566688 54.996768 121 121 121 0
7.141306 9.566655 54.996577 121 121 121 0
7.276059 9.566670 54.996668 119 119 119 0
7.410896 9.566793 54.997373 120 120 120 0
7.545466 9.566573 54.996106 121 121 121 0
7.680435 9.566858 54.997746 119 119 119 0
7.814923 9.566544 54.995943 120 120 120 0
7.949763 9.566664 54.996631 120 120 120 0
8.084628 9.566810 54.997471 118 118 118 0
8.219241 9.566658 54.996596 120 120 120 0
8.354055 9.566741 54.997072 119 119 119 0
8.488843 9.566792 54.997364 119 119 119 0
8.623505 9.566700 54.996841 118 118 118 0
8.758242 9.566695 54.996808 122 122 122 0
8.893143 9.566866 54.997790 120 120 120 0
9.027575 9.566535 54.995890 121 121 121 0
9.162527 9.566756 54.997158 119 119 119 0
9.297347 9.566835 54.997616 119 119 119 0
9.431883 9.566624 54.996402 118 118 118 0
9.566764 9.566764 54.997204 120 120 120 0
9.701567 9.566823 54.997546 121 121 121 0
9.836064 9.566583 54.996163 120 120 120 0
9.970869 9.566645 54.996521 122 122 122 0
10.105713 9.566742 54.997077 121 121 121 0
10.240372 9.566664 54.996628 124 124 124 0
10.375336 9.566869 54.997807 121 121 121 0
10.510681 9.567415 55.000948 123 123 123 0
10.645836 9.567777 55.003028 122 122 122 0
-9.537233 8.583510 48.659352 94 94 94 0
-9.445483 8.608542 48.801256 95 95 95 0
-9.351873 8.632498 48.937062 93 93 93 0
-9.253348 8.652481 49.050347 99 99 99 0
-9.160411 8.678284 49.196622 101 101 101 0
-9.058156 8.695830 49.296088 106 106 106 0
-8.956653 8.714582 49.402390 108 108 108 0
-8.844774 8.723613 49.453589 112 112 112 0
-8.746527 8.746527 49.583489 109 109 109 0
-8.644148 8.765897 49.693294 104 104 104 0
-8.542234 8.786298 49.808946 96 96 96 0
-7.814852 8.154629 46.228053 93 93 93 0
-8.356484 8.848042 50.158970 93 93 93 0
-7.661102 8.232826 46.671348 93 93 93 0
-8.168138 8.910696 50.514150 97 97 97 0
-8.072811 8.942191 50.692692 102 102 102 0
-7.968617 8.964694 50.820259 103 103 103 0
-7.865189 8.988788 50.956846 105 105 105 0
-7.754684 9.005439 51.051242 106 106 106 0
-7.649269 9.028645 51.182795 104 104 104 0
-7.541936 9.050324 51.305689 106 106 106 0
-7.423902 9.059677 51.358716 105 105 105 0
-7.313276 9.078549 51.465699 108 108 108 0
-7.209301 9.106486 51.624070 106 106 106 0
-7.090797 9.116739 51.682195 108 108 108 0
-6.973477 9.128915 51.751221 110 110 110 0
-6.856085 9.141446 51.822256 111 111 111 0
-6.739828 9.155993 51.904722 114 114 114 0
-6.622690 9.169878 51.983438 111 111 111 0
-6.505056 9.183609 52.061274 109 109 109 0
-6.387312 9.197730 52.141326 108 108 108 0
-6.274591 9.219808 52.266483 106 106 106 0
-6.152008 9.228012 52.312993 106 106 106 0
-6.038571 9.250577 52.440911 107 107 107 0
-5.920612 9.267045 52.534269 107 107 107 0
-5.797670 9.276272 52.586576 111 111 111 0
-5.678583 9.292227 52.677021 109 109 109 0
-5.555986 9.303046 52.738354 111 111 111 0
-5.432794 9.313361 52.796829 113 113 113 0
-5.316519 9.336327 52.927021 112 112 112 0
-5.189369 9.340863 52.952740 114 114 114 0
-5.062884 9.346862 52.986748 112 112 112 0
-4.942570 9.364869 53.088825 110 110 110 0
-4.819483 9.378453 53.165833 114 114 114 0
-4.693097 9.386194 53.209716 113 113 113 0
-4.571416 9.404056 53.310973 115 115 115 0
-4.441333 9.405177 53.317328 116 116 116 0
-4.312964 9.410102 53.345252 119 119 119 0
-4.189712 9.426852 53.440202 116 116 116 0
-4.059232 9.427893 53.446105 118 118 118 0
-3.934957 9.443896 53.536827 116 116 116 0
-3.804206 9.444925 53.542659 114 114 114 0
-3.674478 9.448657 53.563814 116 116 116 0
-3.550240 9.467307 53.669541 115 115 115 0
-3.418932 9.467811 53.672399 115 115 115 0
-3.290840 9.477618 53.727994 116 116 116 0
-3.161696 9.485088 53.770341 116 116 116 0
-3.031426 9.489682 53.796386 117 117 117 0
-2.902161 9.497982 53.843434 116 116 116 0
-2.773245 9.508267 53.901743 115 115 115 0
-2.642951 9.514624 53.937778 117 117 117 0
-2.513003 9.522960 53.985035 116 116 116 0
-2.382087 9.528349 54.015586 115 115 115 0
-2.251114 9.534128 54.048344 113 113 113 0
-2.121503 9.546762 54.119969 113 113 113 0
-1.988873 9.546592 54.119004 112 112 112 0
-1.858020 9.555530 54.169671 111 111 111 0
-1.728675 9.574199 54.275507 114 114 114 0
-1.596050 9.576300 54.287413 111 111 111 0
-1.466240 9.597210 54.405954 117 117 117 0
-1.332324 9.592731 54.380561 113 113 113 0
-1.200542 9.604340 54.446370 115 115 115 0
-1.067524 9.607716 54.465510 116 116 116 0
-0.935638 9.623703 54.556137 116 116 116 0
-0.802862 9.634345 54.616466 118 118 118 0
-0.670325 9.652687 54.720447 119 119 119 0
-0.535633 9.641395 54.656434 119 119 119 0
-0.402071 9.649712 54.703583 117 117 117 0
-0.268459 9.664533 54.787600 116 116 116 0
-0.134180 9.660982 54.767472 115 115 115 0
0.000000 9.685536 54.906664 117 117 117 0
0.134619 9.692545 54.946399 118 118 118 0
0.269094 9.687368 54.917052 119 119 119 0
0.404173 9.700156 54.989544 120 120 120 0
0.538782 9.698080 54.977780 120 120 120 0
0.673708 9.701389 54.996535 122 122 122 0
0.808492 9.701901 54.999441 122 122 122 0
0.943224 9.701736 54.998502 122 122 122 0
1.077967 9.701699 54.998294 119 119 119 0
1.212725 9.701801 54.998870 121 121 121 0
1.347447 9.701618 54.997835 122 122 122 0
1.482179 9.701535 54.997362 124 124 124 0
1.616926 9.701557 54.997490 121 121 121 0
1.751648 9.701435 54.996795 124 124 124 0
1.886381 9.701387 54.996527 124 124 124 0
2.021145 9.701497 54.997149 126 126 126 0
2.155882 9.701470 54.996997 125 125 125 0
2.290567 9.701224 54.995603 123 123 123 0
2.425361 9.701446 54.996857 123 123 123 0
2.560052 9.701249 54.995743 126 126 126 0
2.694819 9.701349 54.996310 122 122 122 0
2.829571 9.701385 54.996513 122 122 122 0
2.964278 9.701272 54.995875 125 125 125 0
3.099002 9.701224 54.995602 123 123 123 0
3.233670 9.701009 54.994380 123 123 123 0
3.368484 9.701234 54.995656 123 123 123 0
3.503244 9.701290 54.995977 121 121 121 0
3.637908 9.701087 54.994825 120 120 120 0
3.772675 9.701165 54.995266 124 124 124 0
3.907362 9.701037 54.994541 122 122 122 0
4.042141 9.701140 54.995122 121 121 121 0
4.176834 9.701033 54.994518 123 123 123 0
4.311729 9.701391 54.996549 119 119 119 0
4.446320 9.701063 54.994687 124 124 124 0
4.581125 9.701206 54.995499 123 123 123 0
4.715892 9.701263 54.995820 120 120 120 0
4.850596 9.701193 54.995425 121 121 121 0
4.985329 9.701180 54.995352 121 121 121 0
5.120039 9.701126 54.995046 122 122 122 0
5.254748 9.701073 54.994743 123 123 123 0
5.389626 9.701326 54.996181 123 123 123 0
5.524230 9.701087 54.994827 123 123 123 0
5.659093 9.701303 54.996046 122 122 122 0
5.793827 9.701291 54.995983 121 121 121 0
5.928561 9.701282 54.995931 123 123 123 0
6.063301 9.701281 54.995923 123 123 123 0
6.198029 9.701263 54.995822 122 122 122 0
6.332660 9.701096 54.994877 122 122 122 0
6.467480 9.701220 54.995578 119 119 119 0
6.602173 9.701153 54.995197 120 120 120 0
6.736855 9.701071 54.994733 120 120 120 0
6.871697 9.701219 54.995572 121 121 121 0
7.006365 9.701120 54.995013 120 120 120 0
7.141075 9.701084 54.994804 119 119 119 0
7.275895 9.701193 54.995425 120 120 120 0
7.410728 9.701316 54.996125 122 122 122 0
7.545224 9.701003 54.994347 121 121 121 0
7.680253 9.701372 54.996441 118 118 118 0
7.814941 9.701307 54.996070 119 119 119 0
7.949680 9.701305 54.996058 120 120 120 0
8.084342 9.701211 54.995525 119 119 119 0
8.219260 9.701422 54.996724 121 121 121 0
8.353666 9.701031 54.994507 120 120 120 0
8.488767 9.701448 54.996872 119 119 119 0
8.623293 9.701205 54.995493 119 119 119 0
8.758155 9.701341 54.996264 121 121 121 0
8.893049 9.701508 54.997211 121 121 121 0
9.027446 9.701136 54.995104 121 121 121 0
9.162346 9.701308 54.996076 118 118 118 0
9.296995 9.701212 54.995534 120 120 120 0
9.431797 9.701277 54.995900 120 120 120 0
9.566659 9.701401 54.996603 121 121 121 0
9.701437 9.701437 54.996806 121 121 121 0
9.835775 9.701038 54.994546 119 119 119 0
9.970854 9.701372 54.996439 121 121 121 0
10.105509 9.701289 54.995967 121 121 121 0
10.239946 9.701001 54.994339 121 121 121 0
10.376073 9.702302 55.001714 122 122 122 0
10.510826 9.702301 55.001707 121 121 121 0
10.645913 9.702605 55.003427 120 120 120 0
-9.555547 8.719437 48.752792 95 95 95 0
-9.463874 8.745099 48.896277 94 94 94 0
-9.380455 8.779144 49.086631 98 98 98 0
-9.284041 8.801753 49.213046 104 104 104 0
-9.176605 8.814371 49.283595 106 106 106 0
-9.079475 8.837356 49.412110 109 109 109 0
-8.971605 8.850367 49.484861 112 112 112 0
-8.855297 8.855297 49.512426 111 111 111 0
-8.760795 8.882472 49.664369 107 107 107 0
-8.658669 8.902575 49.776769 102 102 102 0
-7.927101 8.266833 46.222160 94 94 94 0
-7.850642 8.305752 46.439766 88 88 88 0
-8.375109 8.990926 50.270763 92 92 92 0
-8.280216 9.021728 50.442984 98 98 98 0
-8.192039 9.060892 50.661961 99 99 99 0
-8.093125 9.089202 50.820250 101 101 101 0
-7.979770 9.101925 50.891387 104 104 104 0
-7.879618 9.130351 51.050326 102 102 102 0
-7.768777 9.147108 51.144022 101 101 101 0
-7.659216 9.165947 51.249356 106 106 106 0
-7.557833 9.195364 51.413831 105 105 105 0
-7.440350 9.205856 51.472498 107 107 107 0
-7.328919 9.224329 51.575786 104 104 104 0
-7.218057 9.244178 51.686764 106 106 106 0
-7.100733 9.256313 51.754614 108 108 108 0
-6.987992 9.274971 51.858937 110 110 110 0
-6.873027 9.291314 51.950317 112 112 112 0
-6.755842 9.305216 52.028047 109 109 109 0
-6.641611 9.323800 52.131953 107 107 107 0
-6.517042 9.328315 52.157201 108 108 108 0
-6.405778 9.352436 52.292063 109 109 109 0
-6.289153 9.369555 52.387783 108 108 108 0
-6.165525 9.376736 52.427933 108 108 108 0
-6.050799 9.398050 52.547106 107 107 107 0
-5.932711 9.414954 52.641623 110 110 110 0
-5.810396 9.425753 52.702004 113 113 113 0
-5.692017 9.443574 52.801645 114 114 114 0
-5.570514 9.456919 52.876258 115 115 115 0
-5.444046 9.462270 52.906179 113 113 113 0
-5.322829 9.477232 52.989837 111 111 111 0
-5.199513 9.489111 53.056252 113 113 113 0
-5.074284 9.498019 53.106059 113 113 113 0
-4.953540 9.516012 53.206663 111 111 111 0
-4.828177 9.525864 53.261748 113 113 113 0
-4.701890 9.534388 53.309411 116 116 116 0
-4.581224 9.555124 53.425353 116 116 116 0
-4.448708 9.551639 53.405864 117 117 117 0
-4.322147 9.561114 53.458843 116 116 116 0
-4.195238 9.570386 53.510687 115 115 115 0
-4.065154 9.572782 53.524082 114 114 114 0
-3.942138 9.592537 53.634535 115 115 115 0
-3.810970 9.593132 53.637867 117 117 117 0
-3.684224 9.605299 53.705893 115 115 115 0
-3.555352 9.612619 53.746820 113 113 113 0
-3.425600 9.618032 53.777086 113 113 113 0
-3.300089 9.636261 53.879010 114 114 114 0
-3.170271 9.642907 53.916168 114 114 114 0
-3.039937 9.648496 53.947419 116 116 116 0
-2.910424 9.657317 53.996743 113 113 113 0
-2.777278 9.654347 53.980137 114 114 114 0
-2.650229 9.673334 54.086298 115 115 115 0
-2.518673 9.677007 54.106831 114 114 114 0
-2.385466 9.674392 54.092209 114 114 114 0
-2.258080 9.696462 54.215612 111 111 111 0
-2.126937 9.704148 54.258587 112 112 112 0
-1.996606 9.716814 54.329405 114 114 114 0
-1.863516 9.716907 54.329926 111 111 111 0
-1.731854 9.725026 54.375317 113 113 113 0
-1.599761 9.731878 54.413632 118 118 118 0
-1.468338 9.744426 54.483789 117 117 117 0
-1.335566 9.749633 54.512903 115 115 115 0
-1.201102 9.742274 54.471756 117 117 117 0
-1.070131 9.764943 54.598507 114 114 114 0
-0.936059 9.761754 54.580676 119 119 119 0
-0.803946 9.781345 54.690214 117 117 117 0
-0.670704 9.792274 54.751320 119 119 119 0
-0.536683 9.794456 54.763521 117 117 117 0
-0.402617 9.797005 54.777777 114 114 114 0
-0.268722 9.808365 54.841292 116 116 116 0
-0.134375 9.809359 54.846852 116 116 116 0
0.000000 9.824307 54.930430 121 121 121 0
0.134733 9.835536 54.993210 119 119 119 0
0.269499 9.836729 54.999880 120 120 120 0
0.404238 9.836467 54.998416 120 120 120 0
0.538990 9.836559 54.998931 120 120 120 0
0.673730 9.836459 54.998370 122 122 122 0
0.808470 9.836380 54.997930 122 122 122 0
0.943215 9.836386 54.997962 120 120 120 0
1.077941 9.836212 54.996995 121 121 121 0
1.212688 9.836246 54.997180 123 123 123 0
1.347417 9.836146 54.996625 124 124 124 0
1.482132 9.835964 54.995607 122 122 122 0
1.616880 9.836017 54.995904 124 124 124 0
1.751623 9.836038 54.996020 125 125 125 0
1.886349 9.835965 54.995609 124 124 124 0
2.021096 9.836000 54.995808 124 124 124 0
2.155825 9.835953 54.995544 124 124 124 0
2.290556 9.835917 54.995341 121 121 121 0
2.425326 9.836044 54.996051 124 124 124 0
2.560006 9.835814 54.994764 123 123 123 0
2.694731 9.835769 54.994512 123 123 123 0
2.829515 9.835933 54.995434 122 122 122 0
2.964162 9.835629 54.993733 126 126 126 0
3.098943 9.835775 54.994546 123 123 123 0
3.233642 9.835662 54.993915 125 125 125 0
3.368400 9.835727 54.994279 122 122 122 0
3.503141 9.835741 54.994360 124 124 124 0
3.637856 9.835684 54.994038 121 121 121 0
3.772549 9.835574 54.993424 124 124 124 0
3.907337 9.835709 54.994181 124 124 124 0
4.042101 9.835778 54.994566 125 125 125 0
4.176784 9.835653 54.993866 122 122 122 0
4.311597 9.835831 54.994863 122 122 122 0
4.446210 9.835555 54.993318 120 120 120 0
4.581049 9.835783 54.994592 122 122 122 0
4.715827 9.835868 54.995067 121 121 121 0
4.850467 9.835668 54.993953 122 122 122 0
4.985219 9.835702 54.994143 123 123 123 0
5.119964 9.835721 54.994245 125 125 125 0
5.254682 9.835687 54.994059 122 122 122 0
5.389477 9.835795 54.994660 121 121 121 0
5.524208 9.835785 54.994602 119 119 119 0
5.658952 9.835798 54.994675 120 120 120 0
5.793573 9.835601 54.993576 121 121 121 0
5.928250 9.835506 54.993043 124 124 124 0
6.063229 9.835905 54.995275 120 120 120 0
6.197904 9.835804 54.994711 123 123 123 0
6.332491 9.835571 54.993409 120 120 120 0
6.467315 9.835708 54.994172 119 119 119 0
6.601980 9.835602 54.993583 121 121 121 0
6.736730 9.835625 54.993710 120 120 120 0
6.871637 9.835873 54.995098 118 118 118 0
7.006423 9.835940 54.995470 121 121 121 0
7.140943 9.835638 54.993784 120 120 120 0
7.275784 9.835782 54.994585 121 121 121 0
7.410420 9.835649 54.993843 120 120 120 0
7.545125 9.835609 54.993619 121 121 121 0
7.679944 9.835718 54.994230 120 120 120 0
7.814703 9.835747 54.994390 120 120 120 0
7.949414 9.835715 54.994215 120 120 120 0
8.084071 9.835620 54.993683 122 122 122 0
8.218773 9.835581 54.993464 118 118 118 0
8.353751 9.835869 54.995071 121 121 121 0
8.488685 9.836096 54.996342 119 119 119 0
8.623075 9.835695 54.994101 120 120 120 0
8.757758 9.835636 54.993771 122 122 122 0
8.892671 9.835833 54.994871 118 118 118 0
9.027338 9.835756 54.994445 118 118 118 0
9.162134 9.835820 54.994803 117 117 117 0
9.297198 9.836166 54.996737 120 120 120 0
9.431547 9.835756 54.994444 120 120 120 0
9.566471 9.835949 54.995522 119 119 119 0
9.701279 9.836019 54.995915 119 119 119 0
9.835647 9.835647 54.993831 119 119 119 0
9.970578 9.835840 54.994914 121 121 121 0
10.105256 9.835782 54.994588 120 120 120 0
10.240029 9.835817 54.994784 120 120 120 0
10.376152 9.837131 55.002132 118 118 118 0
10.510928 9.837150 55.002237 119 119 119 0
10.612076 9.806095 54.828602 120 120 120 0
-9.588096 8.868989 48.918856 97 97 97 0
-9.488566 8.888024 49.023852 95 95 95 0
-9.401381 8.919259 49.196132 101 101 101 0
-9.296097 8.933912 49.276955 105 105 105 0
-9.190765 8.948902 49.359638 110 110 110 0
-9.088224 8.967048 49.459725 112 112 112 0
-8.981731 8.981731 49.540709 111 111 111 0
-8.877344 8.998952 49.635697 112 112 112 0
-8.769915 9.013523 49.716069 107 107 107 0
-8.666354 9.032538 49.820948 96 96 96 0
-8.574392 9.064358 49.996457 87 87 87 0
-8.487814 9.102873 50.208899 94 94 94 0
-8.402646 9.144056 50.436050 94 94 94 0
-8.296220 9.162989 50.540482 101 101 101 0
-8.210415 9.205617 50.775604 100 100 100 0
-8.103825 9.225893 50.887438 103 103 103 0
-8.003280 9.253792 51.041325 102 102 102 0
-7.894633 9.273061 51.147609 104 104 104 0
-7.793319 9.301704 51.305591 103 103 103 0
-7.676765 9.312796 51.366776 107 107 107 0
-7.571465 9.338140 51.506563 106 106 106 0
-7.455603 9.351095 51.578019 108 108 108 0
-7.338715 9.363188 51.644719 105 105 105 0
-7.230560 9.387043 51.776296 108 108 108 0
-7.117041 9.404662 51.873478 108 108 108 0
-7.003272 9.422585 51.972336 111 111 111 0
-6.886148 9.436574 52.049496 111 111 111 0
-6.770936 9.453759 52.144288 108 108 108 0
-6.658369 9.475371 52.263493 108 108 108 0
-6.533636 9.480177 52.290001 109 109 109 0
-6.418219 9.498964 52.393625 108 108 108 0
-6.305640 9.522803 52.525116 109 109 109 0
-6.180905 9.528895 52.558717 111 111 111 0
-6.060029 9.541323 52.627264 114 114 114 0
-5.940635 9.556673 52.711932 112 112 112 0
-5.818160 9.567640 52.772423 112 112 112 0
-5.699691 9.585845 52.872833 111 111 111 0
-5.575748 9.595474 52.925944 114 114 114 0
-5.453930 9.609305 53.002234 113 113 113 0
-5.332700 9.624873 53.088101 113 113 113 0
-5.211062 9.640464 53.174098 113 113 113 0
-5.084928 9.648325 53.217459 116 116 116 0
-4.964467 9.667646 53.324025 114 114 114 0
-4.837485 9.674970 53.364425 115 115 115 0
-4.709118 9.679854 53.391364 116 116 116 0
-4.588521 9.701445 53.510454 115 115 115 0
-4.455710 9.697723 53.489920 116 116 116 0
-4.333856 9.718345 53.603665 116 116 116 0
-4.206389 9.727274 53.652916 115 115 115 0
-4.074935 9.727264 53.652862 114 114 114 0
-3.950359 9.744219 53.746384 111 111 111 0
-3.825168 9.760772 53.837686 112 112 112 0
-3.693227 9.760671 53.837126 112 112 112 0
-3.567134 9.776588 53.924921 113 113 113 0
-3.435947 9.779233 53.939507 113 113 113 0
-3.306990 9.788691 53.991675 115 115 115 0
-3.178018 9.798889 54.047927 116 116 116 0
-3.043189 9.791129 54.005125 114 114 114 0
-2.914212 9.802348 54.067004 114 114 114 0
-2.785601 9.815929 54.141911 117 117 117 0
-2.655435 9.825110 54.192555 113 113 113 0
-2.524210 9.831132 54.225771 113 113 113 0
-2.393547 9.840137 54.275436 115 115 115 0
-2.261713 9.845104 54.302836 116 116 116 0
-2.131451 9.857961 54.373750 115 115 115 0
-1.998097 9.857279 54.369990 114 114 114 0
-1.866883 9.867811 54.428083 114 114 114 0
-1.735552 9.879294 54.491420 115 115 115 0
-1.602519 9.882203 54.507462 117 117 117 0
-1.471491 9.899124 54.600795 117 117 117 0
-1.337848 9.900078 54.606059 116 116 116 0
-1.204754 9.905752 54.637353 119 119 119 0
-1.071646 9.912725 54.675815 116 116 116 0
-0.938131 9.917383 54.701507 117 117 117 0
-0.804964 9.927892 54.759473 119 119 119 0
-0.671317 9.935495 54.801404 120 120 120 0
-0.537375 9.941434 54.834165 117 117 117 0
-0.403300 9.948073 54.870786 119 119 119 0
-0.269130 9.957828 54.924588 119 119 119 0
-0.134603 9.960650 54.940156 119 119 119 0
0.000000 9.971497 54.999983 119 119 119 0
0.134748 9.971357 54.999209 120 120 120 0
0.269492 9.971191 54.998298 119 119 119 0
0.404236 9.971145 54.998042 122 122 122 0
0.538978 9.971095 54.997766 123 123 123 0
0.673709 9.970899 54.996688 123 123 123 0
0.808463 9.971040 54.997463 122 122 122 0
0.943183 9.970796 54.996117 121 121 121 0
1.077917 9.970735 54.995780 122 122 122 0
1.212644 9.970627 54.995183 123 123 123 0
1.347397 9.970738 54.995797 125 125 125 0
1.482097 9.970473 54.994336 123 123 123 0
1.616881 9.970768 54.995963 126 126 126 0
1.751588 9.970577 54.994911 122 122 122 0
1.886305 9.970467 54.994301 125 125 125 0
2.021057 9.970546 54.994739 123 123 123 0
2.155766 9.970417 54.994027 123 123 123 0
2.290482 9.970334 54.993570 122 122 122 0
2.425272 9.970563 54.994834 124 124 124 0
2.559962 9.970378 54.993811 122 122 122 0
2.694663 9.970254 54.993127 120 120 120 0
2.829420 9.970338 54.993591 123 123 123 0
2.964090 9.970123 54.992402 122 122 122 0
3.098891 9.970345 54.993631 121 121 121 0
3.233635 9.970374 54.993791 122 122 122 0
3.368343 9.970296 54.993360 123 123 123 0
3.503116 9.970407 54.993972 122 122 122 0
3.637816 9.970310 54.993437 123 123 123 0
3.772546 9.970300 54.993383 125 125 125 0
3.907246 9.970213 54.992904 122 122 122 0
4.042021 9.970319 54.993486 122 122 122 0
4.176691 9.970166 54.992644 120 120 120 0
4.311492 9.970325 54.993520 121 121 121 0
4.446149 9.970153 54.992568 122 122 122 0
4.580920 9.970237 54.993033 120 120 120 0
4.715662 9.970257 54.993143 126 126 126 0
4.850389 9.970244 54.993074 122 122 122 0
4.985148 9.970295 54.993354 125 125 125 0
5.119767 9.970073 54.992130 121 121 121 0
5.254546 9.970165 54.992636 121 121 121 0
5.389409 9.970407 54.993972 119 119 119 0
5.523997 9.970142 54.992507 122 122 122 0
5.658733 9.970148 54.992542 121 121 121 0
5.793567 9.970325 54.993520 120 120 120 0
5.928330 9.970374 54.993788 121 121 121 0
6.063058 9.970363 54.993726 121 121 121 0
6.197848 9.970451 54.994213 122 122 122 0
6.332432 9.970212 54.992893 121 121 121 0
6.467321 9.970453 54.994227 119 119 119 0
6.602010 9.970383 54.993836 120 120 120 0
6.736579 9.970136 54.992479 120 120 120 0
6.871557 9.970494 54.994453 121 121 121 0
7.006153 9.970294 54.993348 120 120 120 0
7.140789 9.970159 54.992601 121 121 121 0
7.275595 9.970260 54.993161 123 123 123 0
7.410233 9.970132 54.992454 126 126 126 0
7.544979 9.970151 54.992562 123 123 123 0
7.679914 9.970415 54.994017 121 121 121 0
7.814440 9.970147 54.992539 122 122 122 0
7.949165 9.970139 54.992493 120 120 120 0
8.084038 9.970313 54.993455 120 120 120 0
8.218521 9.970009 54.991774 121 121 121 0
8.353405 9.970193 54.992790 119 119 119 0
8.488291 9.970374 54.993789 121 121 121 0
8.622745 9.970049 54.991996 121 121 121 0
8.757698 9.970302 54.993393 121 121 121 0
8.892593 9.970483 54.994390 120 120 120 0
9.026822 9.969923 54.991300 120 120 120 0
9.162048 9.970464 54.994287 118 118 118 0
9.296812 9.970493 54.994448 120 120 120 0
9.431422 9.970360 54.993712 120 120 120 0
9.566211 9.970417 54.994026 118 118 118 0
9.701169 9.970646 54.995291 118 118 118 0
9.835655 9.970390 54.993878 120 120 120 0
9.970269 9.970269 54.993210 121 121 121 0
10.105277 9.970540 54.994704 120 120 120 0
10.239602 9.970139 54.992493 119 119 119 0
10.376149 9.971883 55.002113 119 119 119 0
10.509028 9.970104 54.992298 117 117 117 0
10.646204 9.972394 55.004930 117 117 117 0
-9.610326 9.009680 49.032274 94 94 94 0
-9.514978 9.033207 49.160310 101 101 101 0
-9.419973 9.057666 49.293423 105 105 105 0
-9.312828 9.070936 49.365638 110 110 110 0
-9.204049 9.082944 49.430985 114 114 114 0
-9.099400 9.099400 49.520544 113 113 113 0
-8.993784 9.115321 49.607192 115 115 115 0
-8.883183 9.126557 49.668340 109 109 109 0
-8.778568 9.144341 49.765123 96 96 96 0
-8.682523 9.171679 49.913899 93 93 93 0
-7.988760 8.559385 46.581689 92 92 92 0
-8.520682 9.261611 50.403323 96 96 96 0
-7.799499 8.602389 46.815723 97 97 97 0
-8.321920 9.315583 50.697048 100 100 100 0
-8.230995 9.353403 50.902873 101 101 101 0
-8.115002 9.363464 50.957626 98 98 98 0
-8.006369 9.382464 51.061027 103 103 103 0
-7.912929 9.420154 51.266143 105 105 105 0
-7.798665 9.433869 51.340781 104 104 104 0
-7.693958 9.459785 51.481821 105 105 105 0
-7.586702 9.483377 51.610218 105 105 105 0
-7.473625 9.500371 51.702699 105 105 105 0
-7.363203 9.521384 51.817054 108 108 108 0
-7.255019 9.546077 51.951442 111 111 111 0
-7.126666 9.544641 51.943627 109 109 109 0
-7.015857 9.567077 52.065726 111 111 111 0
-6.897880 9.580389 52.138173 110 110 110 0
-6.783961 9.599945 52.244600 112 112 112 0
-6.671871 9.622891 52.369473 109 109 109 0
-6.552254 9.635668 52.439011 111 111 111 0
-6.428111 9.642166 52.474375 113 113 113 0
-6.316582 9.668237 52.616258 114 114 114 0
-6.191905 9.674852 52.652254 113 113 113 0
-6.070541 9.687034 52.718553 112 112 112 0
-5.952057 9.704441 52.813286 114 114 114 0
-5.825891 9.709819 52.842553 115 115 115 0
-5.707640 9.728932 52.946571 115 115 115 0
-5.585734 9.742559 53.020727 113 113 113 0
-5.461793 9.753201 53.078647 112 112 112 0
-5.340519 9.769241 53.165940 114 114 114 0
-5.214668 9.777502 53.210893 114 114 114 0
-5.088176 9.784954 53.251450 114 114 114 0
-4.972198 9.813549 53.407070 114 114 114 0
-4.840439 9.811700 53.397007 113 113 113 0
-4.717808 9.828766 53.489882 114 114 114 0
-4.596225 9.849053 53.600287 115 115 115 0
-4.465936 9.851329 53.612674 113 113 113 0
-4.338035 9.859170 53.655345 114 114 114 0
-4.215183 9.879336 53.765093 112 112 112 0
-4.085038 9.883157 53.785890 111 111 111 0
-3.956922 9.892306 53.835680 113 113 113 0
-3.831444 9.908906 53.926021 109 109 109 0
-3.703449 9.919952 53.986134 115 115 115 0
-3.574165 9.928236 54.031219 112 112 112 0
-3.446067 9.940578 54.098381 112 112 112 0
-3.314644 9.943931 54.116633 116 116 116 0
-3.183895 9.949672 54.147873 118 118 118 0
-3.053130 9.955859 54.181548 113 113 113 0
-2.926250 9.975852 54.290351 115 115 115 0
-2.790980 9.967785 54.246450 115 115 115 0
-2.662294 9.983601 54.332522 116 116 116 0
-2.531421 9.992451 54.380683 117 117 117 0
-2.398237 9.992655 54.381793 117 117 117 0
-2.266798 10.000580 54.424925 116 116 116 0
-2.135739 10.011276 54.483136 117 117 117 0
-2.002591 10.012954 54.492268 118 118 118 0
-1.869855 10.017081 54.514729 118 118 118 0
-1.739282 10.034319 54.608540 118 118 118 0
-1.605383 10.033645 54.604869 119 119 119 0
-1.473261 10.044960 54.666448 119 119 119 0
-1.339322 10.044914 54.666198 119 119 119 0
-1.205511 10.045922 54.671684 118 118 118 0
-1.074215 10.070768 54.806899 119 119 119 0
-0.939743 10.068679 54.795531 119 119 119 0
-0.805678 10.070978 54.808043 119 119 119 0
-0.672278 10.084174 54.879857 120 120 120 0
-0.538161 10.090511 54.914346 118 118 118 0
-0.403903 10.097583 54.952832 116 116 116 0
-0.269441 10.104054 54.988049 119 119 119 0
-0.134748 10.106120 54.999292 122 122 122 0
0.000000 10.106099 54.999177 119 119 119 0
0.134745 10.105904 54.998115 121 121 121 0
0.269486 10.105725 54.997141 121 121 121 0
0.404227 10.105664 54.996811 122 122 122 0
0.538965 10.105587 54.996392 121 121 121 0
0.673693 10.105400 54.995372 124 124 124 0
0.808439 10.105485 54.995835 122 122 122 0
0.943179 10.105490 54.995867 123 123 123 0
1.077893 10.105251 54.994563 124 124 124 0
1.212640 10.105334 54.995012 124 124 124 0
1.347378 10.105332 54.995005 123 123 123 0
1.482096 10.105200 54.994283 124 124 124 0
1.616829 10.105183 54.994193 123 123 123 0
1.751545 10.105070 54.993579 124 124 124 0
1.886250 10.104911 54.992715 125 125 125 0
2.021021 10.105106 54.993772 125 125 125 0
2.155714 10.104911 54.992711 121 121 121 0
2.290429 10.104834 54.992291 121 121 121 0
2.425201 10.105004 54.993222 121 121 121 0
2.559869 10.104744 54.991805 123 123 123 0
2.694605 10.104769 54.991938 123 123 123 0
2.829413 10.105047 54.993453 122 122 122 0
2.964006 10.104567 54.990841 121 121 121 0
3.098809 10.104813 54.992181 123 123 123 0
3.233507 10.104709 54.991613 122 122 122 0
3.368239 10.104716 54.991654 122 122 122 0
3.503007 10.104828 54.992261 122 122 122 0
3.637735 10.104818 54.992209 122 122 122 0
3.772414 10.104681 54.991462 122 122 122 0
3.907174 10.104760 54.991889 122 122 122 0
4.041853 10.104633 54.991203 121 121 121 0
4.176659 10.104820 54.992219 121 121 121 0
4.311379 10.104795 54.992080 121 121 121 0
4.446050 10.104659 54.991342 121 121 121 0
4.580758 10.104614 54.991095 123 123 123 0
4.715603 10.104864 54.992458 120 120 120 0
4.850211 10.104607 54.991056 122 122 122 0
4.984929 10.104587 54.990947 121 121 121 0
5.119706 10.104683 54.991471 122 122 122 0
5.254399 10.104614 54.991097 121 121 121 0
5.389234 10.104814 54.992183 120 120 120 0
5.523866 10.104633 54.991202 123 123 123 0
5.658561 10.104574 54.990878 120 120 120 0
5.793401 10.104769 54.991937 122 122 122 0
5.928155 10.104810 54.992161 122 122 122 0
6.062934 10.104889 54.992595 121 121 121 0
6.197679 10.104912 54.992718 120 120 120 0
6.332178 10.104540 54.990694 119 119 119 0
6.466994 10.104678 54.991443 117 117 117 0
6.601702 10.104646 54.991269 120 120 120 0
6.736365 10.104547 54.990733 120 120 120 0
