ply
format ascii 1.0
element vertex 1128
property float x
property float y
property float z
property uchar red
property uchar green
property uchar blue
property uchar alpha
end_header
3.490648 0.000000 35.618859 155 155 155 0
3.571144 0.000000 35.551457 154 154 154 0
3.651546 0.000000 35.486360 153 153 153 0
3.739362 0.000000 35.494653 154 154 154 0
3.827189 0.000000 35.502681 156 156 156 0
3.902969 0.000000 35.401079 158 158 158 0
3.987273 0.000000 35.379532 152 152 152 0
4.076753 0.000000 35.403843 140 140 140 0
4.173579 0.000000 35.489619 129 129 129 0
3.700195 0.000000 30.822116 117 117 117 0
4.254986 0.000000 34.734582 112 112 112 0
4.404347 0.000000 35.248874 120 120 120 0
4.558994 0.000000 35.784884 146 146 146 0
4.669459 0.000000 35.960412 152 152 152 0
4.773830 0.000000 36.083368 154 154 154 0
4.862296 0.000000 36.083830 150 150 150 0
4.944893 0.000000 36.041493 147 147 147 0
5.023296 0.000000 35.970609 147 147 147 0
5.079648 0.000000 35.746992 147 147 147 0
5.173954 0.000000 35.793525 153 153 153 0
5.251516 0.000000 35.724601 149 149 149 0
5.372452 0.000000 35.948154 151 151 151 0
5.593041 0.000000 36.820544 152 152 152 0
5.549610 0.000000 35.954716 150 150 150 0
5.636735 0.000000 35.948564 150 150 150 0
5.863049 0.000000 36.816633 150 150 150 0
5.754616 0.000000 35.588225 147 147 147 0
5.757684 0.000000 35.075745 148 148 148 0
6.280685 0.000000 37.699188 148 148 148 0
5.926453 0.000000 35.057396 148 148 148 0
6.098604 0.000000 35.560372 149 149 149 0
6.864373 0.000000 39.461757 149 149 149 0
6.961470 0.000000 39.464115 148 148 148 0
7.215902 0.000000 40.346111 148 148 148 0
6.038130 0.000000 33.304631 147 147 147 0
6.503728 0.000000 35.394438 146 146 146 0
7.514937 0.000000 40.359492 147 147 147 0
7.952113 0.000000 42.152732 145 145 145 0
7.885926 0.000000 41.265968 143 143 143 0
5.431379 0.000000 28.061890 139 139 139 0
-6.886414 0.086080 35.134767 147 147 147 0
-6.790338 0.085954 35.083121 146 146 146 0
-6.698922 0.085884 35.054537 142 142 142 0
-6.605503 0.085786 35.014594 141 141 141 0
-6.500969 0.085539 34.913905 139 139 139 0
-6.404129 0.085388 34.852404 143 143 143 0
-6.305518 0.085210 34.779472 138 138 138 0
-6.208420 0.085047 34.713000 139 139 139 0
-6.120661 0.085009 34.697626 137 137 137 0
-6.015908 0.084731 34.584124 133 133 133 0
-5.901845 0.084312 34.413090 139 139 139 0
-5.793284 0.083961 34.269651 138 138 138 0
-5.684597 0.083597 34.121228 141 141 141 0
-5.581588 0.083307 34.002970 137 137 137 0
-5.489346 0.083172 33.947720 136 136 136 0
-5.397947 0.083045 33.896055 134 134 134 0
-5.303776 0.082872 33.825102 135 135 135 0
-5.219245 0.082845 33.814352 132 132 132 0
-5.137223 0.082858 33.819771 128 128 128 0
-5.054883 0.082867 33.823239 122 122 122 0
-4.967070 0.082784 33.789590 114 114 114 0
-4.896015 0.082983 33.870735 115 115 115 0
-4.825921 0.083206 33.961441 112 112 112 0
-4.757981 0.083473 34.070757 116 116 116 0
-4.680465 0.083580 34.114174 117 117 117 0
-4.606485 0.083754 34.185418 118 118 118 0
-4.532388 0.083933 34.258416 122 122 122 0
-4.454584 0.084049 34.305612 123 123 123 0
-4.374421 0.084123 34.336113 122 122 122 0
-4.300525 0.084324 34.417968 123 123 123 0
-4.221610 0.084432 34.462123 122 122 122 0
-4.140734 0.084505 34.491748 123 123 123 0
-4.046051 0.084293 34.405199 128 128 128 0
-3.984942 0.084786 34.606533 141 141 141 0
-3.907253 0.084940 34.669502 150 150 150 0
-3.818800 0.084862 34.637646 149 149 149 0
-3.726386 0.084691 34.567593 151 151 151 0
-3.642639 0.084713 34.576541 148 148 148 0
-3.552074 0.084573 34.519666 145 145 145 0
-3.461218 0.084420 34.457123 138 138 138 0
-3.376466 0.084412 34.453739 119 119 119 0
-3.291806 0.084405 34.451139 108 108 108 0
-3.222737 0.084809 34.615869 115 115 115 0
-3.148120 0.085084 34.728294 142 142 142 0
-3.063470 0.085096 34.733216 148 148 148 0
-2.976801 0.085051 34.714879 148 148 148 0
-2.895232 0.085154 34.756691 148 148 148 0
-2.805244 0.085007 34.696900 146 146 146 0
-2.722653 0.085083 34.727711 143 143 143 0
-2.642250 0.085234 34.789338 141 141 141 0
-2.560669 0.085356 34.839032 140 140 140 0
-2.473838 0.085305 34.818266 135 135 135 0
-2.391597 0.085414 34.862931 128 128 128 0
-2.080538 0.077057 31.451823 117 117 117 0
-2.227595 0.085677 34.970096 106 106 106 0
-2.132843 0.085314 34.821932 99 99 99 0
-2.040834 0.085035 34.708062 104 104 104 0
-1.964866 0.085429 34.868953 91 91 91 0
-1.907842 0.086720 35.395961 92 92 92 0
-1.838038 0.087526 35.724751 93 93 93 0
-1.757431 0.087872 35.865945 72 72 72 0
-1.669715 0.087880 35.869276 73 73 73 0
-1.557255 0.086514 35.311894 126 126 126 0
-1.463455 0.086086 35.136967 139 139 139 0
-1.375337 0.085959 35.085125 145 145 145 0
-1.287737 0.085849 35.040453 145 145 145 0
-1.202582 0.085899 35.060698 138 138 138 0
-1.117086 0.085930 35.073342 138 138 138 0
-1.032059 0.086005 35.104045 136 136 136 0
-0.946141 0.086013 35.107291 136 136 136 0
-0.766843 0.076684 31.299714 140 140 140 0
-0.776246 0.086250 35.203909 140 140 140 0
-0.691008 0.086376 35.255515 148 148 148 0
-0.603687 0.086241 35.200406 147 147 147 0
-0.518750 0.086458 35.289125 149 149 149 0
-0.432037 0.086407 35.268338 148 148 148 0
-0.345410 0.086353 35.245937 145 145 145 0
-0.259236 0.086412 35.270242 144 144 144 0
-0.172908 0.086454 35.287435 145 145 145 0
-0.086696 0.086696 35.385996 148 148 148 0
0.000000 0.086561 35.331110 158 158 158 0
0.086460 0.086460 35.289816 162 162 162 0
0.173343 0.086672 35.376123 161 161 161 0
0.259903 0.086634 35.360960 158 158 158 0
0.345508 0.086377 35.255931 154 154 154 0
0.431513 0.086303 35.225535 149 149 149 0
0.517890 0.086315 35.230598 149 149 149 0
0.604109 0.086301 35.224988 144 144 144 0
0.690005 0.086251 35.204330 140 140 140 0
0.777353 0.086373 35.254094 138 138 138 0
0.863809 0.086381 35.257518 137 137 137 0
0.951782 0.086526 35.316572 139 139 139 0
1.035890 0.086324 35.234364 134 134 134 0
1.126504 0.086654 35.369054 135 135 135 0
1.216007 0.086858 35.452088 140 140 140 0
1.300781 0.086719 35.395412 133 133 133 0
1.386221 0.086639 35.362777 139 139 139 0
1.478930 0.086996 35.508522 144 144 144 0
1.568853 0.087159 35.574905 139 139 139 0
1.657541 0.087239 35.607752 147 147 147 0
1.742798 0.087140 35.567299 151 151 151 0
1.834413 0.087353 35.654295 149 149 149 0
1.919723 0.087260 35.616389 147 147 147 0
1.995789 0.086773 35.417730 146 146 146 0
2.082669 0.086778 35.419541 142 142 142 0
2.172882 0.086915 35.475618 142 142 142 0
2.261877 0.086995 35.508276 140 140 140 0
2.343976 0.086814 35.434261 139 139 139 0
2.429651 0.086773 35.417649 142 142 142 0
2.528385 0.087186 35.585989 138 138 138 0
2.616431 0.087214 35.597696 138 138 138 0
2.699557 0.087082 35.543869 139 139 139 0
2.788348 0.087136 35.565667 144 144 144 0
2.875513 0.087137 35.566029 141 141 141 0
2.962152 0.087122 35.560052 140 140 140 0
3.046880 0.087054 35.532129 145 145 145 0
3.140284 0.087230 35.604130 143 143 143 0
3.227077 0.087218 35.599300 145 145 145 0
3.307576 0.087041 35.527133 150 150 150 0
3.394710 0.087044 35.528105 150 150 150 0
3.483756 0.087094 35.548526 153 153 153 0
3.571120 0.087100 35.551216 154 154 154 0
3.649300 0.086888 35.464529 155 155 155 0
3.731206 0.086772 35.417241 158 158 158 0
3.825276 0.086938 35.484935 156 156 156 0
3.904470 0.086766 35.414698 157 157 157 0
3.984708 0.086624 35.356767 155 155 155 0
4.076454 0.086733 35.401250 145 145 145 0
4.166672 0.086806 35.430886 129 129 129 0
3.701363 0.075538 30.831848 115 115 115 0
3.869498 0.077390 31.587740 115 115 115 0
3.952717 0.077504 31.634387 120 120 120 0
4.552938 0.087556 35.737345 138 138 138 0
4.663626 0.087993 35.915486 150 150 150 0
4.765319 0.088247 36.019043 152 152 152 0
4.853732 0.088250 36.020276 151 151 151 0
4.946710 0.088334 36.054741 151 151 151 0
5.024386 0.088147 35.978416 147 147 147 0
5.099534 0.087923 35.886940 148 148 148 0
5.173156 0.087681 35.788001 149 149 149 0
5.414076 0.090235 36.830452 151 151 151 0
5.325229 0.087299 35.632176 152 152 152 0
5.415264 0.087343 35.650191 151 151 151 0
5.507268 0.087417 35.680390 149 149 149 0
5.502183 0.085972 35.090452 148 148 148 0
5.723548 0.088055 35.940650 149 149 149 0
6.095570 0.092357 37.696785 148 148 148 0
5.758160 0.085943 35.078646 148 148 148 0
5.922980 0.087103 35.552102 149 149 149 0
6.002342 0.086990 35.506309 149 149 149 0
6.095105 0.087073 35.539973 149 149 149 0
6.866286 0.096708 39.472754 148 148 148 0
7.117960 0.098861 40.351245 149 149 149 0
6.333262 0.086757 35.411027 148 148 148 0
5.180810 0.070011 28.575897 148 148 148 0
7.743947 0.103253 42.143931 147 147 147 0
6.361315 0.083702 34.163886 145 145 145 0
8.120190 0.105457 43.043678 146 146 146 0
8.057279 0.103298 42.162630 142 142 142 0
5.438506 0.068842 28.098714 140 140 140 0
-6.897018 0.172425 35.188869 150 150 150 0
-6.799122 0.172130 35.128502 148 148 148 0
-6.707796 0.171995 35.100974 149 149 149 0
-6.617387 0.171880 35.077586 145 145 145 0
-6.527978 0.171789 35.058959 143 143 143 0
-6.424588 0.171322 34.963743 142 142 142 0
-6.319927 0.170809 34.858945 143 143 143 0
-6.218921 0.170381 34.771715 142 142 142 0
-6.134594 0.170405 34.776612 138 138 138 0
-6.050796 0.170445 34.784683 135 135 135 0
-5.938557 0.169673 34.627152 142 142 142 0
-5.826629 0.168888 34.466896 137 137 137 0
-5.709645 0.167931 34.271576 132 132 132 0
-5.604013 0.167284 34.139584 135 135 135 0
-5.511014 0.167000 34.081717 128 128 128 0
-5.420662 0.166790 34.038692 127 127 127 0
-5.325009 0.166407 33.960520 125 125 125 0
-5.238291 0.166295 33.937748 128 128 128 0
-5.152561 0.166212 33.920747 128 128 128 0
-5.062419 0.165981 33.873666 124 124 124 0
-4.982022 0.166067 33.891303 119 119 119 0
-4.909148 0.166412 33.961590 118 118 118 0
-4.831740 0.166612 34.002391 115 115 115 0
-4.759605 0.167004 34.082382 115 115 115 0
-4.685388 0.167335 34.150058 119 119 119 0
-4.611585 0.167694 34.223266 121 121 121 0
-4.543170 0.168266 34.339910 122 122 122 0
-4.460106 0.168306 34.348140 123 123 123 0
-4.381414 0.168516 34.391002 124 124 124 0
-4.305961 0.168861 34.461472 122 122 122 0
-4.227118 0.169085 34.507084 121 121 121 0
-4.140171 0.168987 34.487057 124 124 124 0
-4.063726 0.169322 34.555490 124 124 124 0
-3.988996 0.169745 34.641735 146 146 146 0
-3.912494 0.170108 34.716009 150 150 150 0
-3.823506 0.169934 34.680324 150 150 150 0
-3.732414 0.169655 34.623509 149 149 149 0
-3.642606 0.169424 34.576235 150 150 150 0
-3.558807 0.169467 34.585097 147 147 147 0
-3.469122 0.169225 34.535806 133 133 133 0
-3.383871 0.169194 34.529299 112 112 112 0
-3.299908 0.169226 34.535925 108 108 108 0
-3.241497 0.170605 34.817366 136 136 136 0
-3.155848 0.170586 34.813543 151 151 151 0
-3.068066 0.170448 34.785326 149 149 149 0
-2.978339 0.170191 34.732816 150 150 150 0
-2.897588 0.170446 34.784974 150 150 150 0
-2.806949 0.170118 34.717986 146 146 146 0
-2.723984 0.170249 34.744699 142 142 142 0
-2.642234 0.170467 34.789129 139 139 139 0
-2.558347 0.170556 34.807446 137 137 137 0
-2.473912 0.170615 34.819316 133 133 133 0
-2.392029 0.170859 34.869232 124 124 124 0
-2.314459 0.171441 34.988042 117 117 117 0
-2.233424 0.171802 35.061606 109 109 109 0
-2.143274 0.171462 34.992221 110 110 110 0
-2.052427 0.171036 34.905229 105 105 105 0
-1.954314 0.169940 34.681696 93 93 93 0
-1.897272 0.172479 35.199856 88 88 88 0
-1.831306 0.174410 35.593905 79 79 79 0
-1.742656 0.174266 35.564417 61 61 61 0
-1.563363 0.173707 35.450410 105 105 105 0
-1.466297 0.172506 35.205208 133 133 133 0
-1.377604 0.172201 35.142970 146 146 146 0
-1.288820 0.171843 35.069919 145 145 145 0
-1.204069 0.172010 35.104044 143 143 143 0
-1.118301 0.172046 35.111498 139 139 139 0
-1.033861 0.172310 35.165357 142 142 142 0
-0.946336 0.172061 35.114516 141 141 141 0
-0.861773 0.172355 35.174411 141 141 141 0
-0.776185 0.172486 35.201149 145 145 145 0
-0.690373 0.172593 35.223096 149 149 149 0
-0.603633 0.172467 35.197285 148 148 148 0
-0.518530 0.172843 35.274156 147 147 147 0
-0.432177 0.172871 35.279764 148 148 148 0
-0.345551 0.172775 35.260282 145 145 145 0
-0.259039 0.172693 35.243404 147 147 147 0
-0.172914 0.172914 35.288641 145 145 145 0
-0.086571 0.173142 35.335110 152 152 152 0
0.000000 0.173042 35.314636 155 155 155 0
0.086486 0.172973 35.300524 158 158 158 0
0.173107 0.173107 35.328018 163 163 163 0
0.259728 0.173152 35.337105 162 162 162 0
0.345591 0.172795 35.264372 156 156 156 0
0.432089 0.172836 35.272559 154 154 154 0
0.519003 0.173001 35.306351 147 147 147 0
0.604901 0.172829 35.271168 141 141 141 0
0.690083 0.172521 35.208299 139 139 139 0
0.777612 0.172803 35.265847 138 138 138 0
0.865751 0.173150 35.336788 137 137 137 0
0.951154 0.172937 35.293276 138 138 138 0
1.038190 0.173032 35.312585 135 135 135 0
1.127410 0.173448 35.397481 134 134 134 0
1.213451 0.173350 35.377590 130 130 130 0
1.304197 0.173893 35.488359 140 140 140 0
1.390694 0.173837 35.476888 148 148 148 0
1.481442 0.174287 35.568832 150 150 150 0
1.570549 0.174505 35.613351 148 148 148 0
1.656478 0.174366 35.584917 147 147 147 0
1.741032 0.174103 35.531265 146 146 146 0
1.828551 0.174148 35.540355 148 148 148 0
1.912592 0.173872 35.484074 148 148 148 0
1.992717 0.173280 35.363216 147 147 147 0
2.079262 0.173272 35.361605 146 146 146 0
2.172706 0.173817 35.472759 142 142 142 0
2.257743 0.173673 35.443377 141 141 141 0
2.340385 0.173362 35.379973 138 138 138 0
2.432218 0.173730 35.455076 139 139 139 0
2.525956 0.174204 35.551815 141 141 141 0
2.608936 0.173929 35.495723 141 141 141 0
2.690480 0.173579 35.424361 136 136 136 0
2.786705 0.174169 35.544709 141 141 141 0
2.876510 0.174334 35.578361 138 138 138 0
2.961447 0.174203 35.551579 142 142 142 0
3.044699 0.173983 35.506695 143 143 143 0
3.133924 0.174107 35.532015 146 146 146 0
3.224454 0.174295 35.570365 144 144 144 0
3.303656 0.173877 35.485025 147 147 147 0
3.391623 0.173929 35.495795 148 148 148 0
3.484452 0.174223 35.555635 150 150 150 0
3.567459 0.174022 35.514771 152 152 152 0
3.647162 0.173674 35.443747 153 153 153 0
3.731731 0.173569 35.422226 156 156 156 0
3.826451 0.173930 35.495839 157 157 157 0
3.904098 0.173515 35.411318 156 156 156 0
3.980605 0.173070 35.320368 157 157 157 0
4.078225 0.173541 35.416630 148 148 148 0
4.170345 0.173764 35.462117 131 131 131 0
3.701357 0.151076 30.831795 116 116 116 0
3.972953 0.158918 32.432266 112 112 112 0
4.370827 0.171405 34.980607 120 120 120 0
4.557066 0.175272 35.769748 139 139 139 0
4.674779 0.176407 36.001381 149 149 149 0
4.763447 0.176424 36.004892 153 153 153 0
4.859955 0.176726 36.066457 156 156 156 0
4.957995 0.177071 36.136993 155 155 155 0
5.041856 0.176907 36.103516 149 149 149 0
5.104720 0.176025 35.923433 147 147 147 0
5.200501 0.176288 35.977179 146 146 146 0
5.414762 0.180492 36.835115 147 147 147 0
5.504122 0.180463 36.829188 152 152 152 0
5.593257 0.180428 36.821966 151 151 151 0
5.506520 0.174810 35.675545 150 150 150 0
5.501871 0.171933 35.088466 150 150 150 0
5.863834 0.180426 36.821565 150 150 150 0
5.391268 0.163372 33.341175 150 150 150 0
5.615020 0.167613 34.206638 150 150 150 0
6.427580 0.189046 38.580911 149 149 149 0
6.521303 0.189023 38.576179 150 150 150 0
5.865378 0.167582 34.200455 150 150 150 0
6.187025 0.174282 35.567837 151 151 151 0
6.962301 0.193397 39.468824 150 150 150 0
7.376423 0.202094 41.243626 152 152 152 0
6.356806 0.171806 35.062362 148 148 148 0
6.516908 0.173784 35.466167 148 148 148 0
6.591950 0.173472 35.402526 147 147 147 0
8.120883 0.210932 43.047350 145 145 145 0
7.886325 0.202213 41.268053 143 143 143 0
5.445264 0.137855 28.133631 141 141 141 0
-6.903027 0.258864 35.219527 149 149 149 0
-6.811339 0.258658 35.191627 150 150 150 0
-6.717363 0.258360 35.151037 150 150 150 0
-6.628616 0.258258 35.137112 147 147 147 0
-6.541215 0.258206 35.130050 146 146 146 0
-6.439767 0.257591 35.046352 145 145 145 0
-6.336029 0.256866 34.947763 143 143 143 0
-6.235575 0.256257 34.864831 142 142 142 0
-6.147484 0.256145 34.849681 138 138 138 0
-6.065606 0.256293 34.869825 135 135 135 0
-5.973823 0.256021 34.832790 132 132 132 0
-5.874554 0.255415 34.750391 130 130 130 0
-5.767308 0.254440 34.617696 136 136 136 0
-5.641809 0.252618 34.369841 129 129 129 0
-5.541514 0.251887 34.270339 130 130 130 0
-5.443793 0.251252 34.183941 129 129 129 0
-5.348337 0.250703 34.109290 131 131 131 0
-5.261152 0.250531 34.085860 132 132 132 0
-5.170845 0.250202 34.041116 129 129 129 0
-5.091579 0.250406 34.068776 124 124 124 0
-4.998465 0.249923 34.003165 121 121 121 0
-4.925668 0.250458 34.075876 121 121 121 0
-4.845536 0.250631 34.099478 117 117 117 0
-4.774709 0.251300 34.190539 116 116 116 0
-4.693573 0.251441 34.209719 119 119 119 0
-4.621312 0.252072 34.295449 118 118 118 0
-4.546125 0.252562 34.362242 123 123 123 0
-4.467476 0.252876 34.404901 124 124 124 0
-4.387181 0.253107 34.436271 125 125 125 0
-4.310564 0.253563 34.498312 125 125 125 0
-4.234666 0.254080 34.568700 126 126 126 0
-4.149652 0.254060 34.566032 122 122 122 0
-4.069158 0.254322 34.601683 132 132 132 0
-3.994094 0.254942 34.686011 148 148 148 0
-3.914472 0.255292 34.733560 151 151 151 0
-3.827772 0.255185 34.719020 153 153 153 0
-3.739525 0.254968 34.689472 155 155 155 0
-3.647589 0.254483 34.623531 149 149 149 0
-3.563755 0.254554 34.633188 143 143 143 0
-3.474712 0.254247 34.591461 126 126 126 0
-3.381098 0.253582 34.500997 111 111 111 0
-3.308555 0.254504 34.626431 119 119 119 0
-3.244514 0.256146 34.849775 152 152 152 0
-3.160679 0.256271 34.866840 151 151 151 0
-3.071915 0.255993 34.828963 151 151 151 0
-2.983051 0.255690 34.787765 149 149 149 0
-2.898936 0.255788 34.801151 149 149 149 0
-2.809807 0.255437 34.753332 146 146 146 0
-2.725362 0.255503 34.762270 141 141 141 0
-2.643985 0.255869 34.812175 139 139 139 0
-2.560107 0.256011 34.831389 133 133 133 0
-2.476246 0.256163 34.852166 130 130 130 0
-2.393648 0.256462 34.892821 125 125 125 0
-2.317319 0.257480 35.031271 118 118 118 0
-2.236956 0.258110 35.117054 111 111 111 0
-2.149888 0.257987 35.100210 111 111 111 0
-2.058675 0.257334 35.011487 102 102 102 0
-1.940575 0.253119 34.437895 82 82 82 0
-1.886782 0.257288 35.005226 80 80 80 0
-1.827317 0.261045 35.516362 72 72 72 0
-1.739985 0.260998 35.509904 61 61 61 0
-1.570550 0.261758 35.613375 72 72 72 0
-1.471733 0.259718 35.335720 132 132 132 0
-1.378062 0.258387 35.154633 142 142 142 0
-1.290089 0.258018 35.104464 148 148 148 0
-1.204745 0.258160 35.123769 145 145 145 0
-1.118355 0.258082 35.113200 145 145 145 0
-1.033401 0.258350 35.149683 143 143 143 0
-0.947305 0.258356 35.150470 145 145 145 0
-0.862300 0.258690 35.195902 147 147 147 0
-0.775946 0.258649 35.190311 146 146 146 0
-0.690353 0.258882 35.222102 147 147 147 0
-0.603585 0.258679 35.194453 146 146 146 0
-0.517910 0.258955 35.231949 150 150 150 0
-0.432102 0.259261 35.273632 150 150 150 0
-0.345642 0.259231 35.269581 147 147 147 0
-0.259065 0.259065 35.246970 146 146 146 0
-0.172810 0.259214 35.267277 147 147 147 0
-0.086511 0.259534 35.310752 150 150 150 0
0.000000 0.259202 35.265600 149 149 149 0
0.086434 0.259302 35.279154 152 152 152 0
0.173094 0.259641 35.325371 153 153 153 0
0.259461 0.259461 35.300866 158 158 158 0
0.345266 0.258949 35.231200 158 158 158 0
0.431650 0.258990 35.236747 156 156 156 0
0.518992 0.259496 35.305552 145 145 145 0
0.605342 0.259432 35.296927 140 140 140 0
0.691056 0.259146 35.257946 138 138 138 0
0.778710 0.259570 35.315667 135 135 135 0
0.865922 0.259776 35.343738 135 135 135 0
0.952680 0.259822 35.349906 137 137 137 0
1.038808 0.259702 35.333612 134 134 134 0
1.125363 0.259699 35.333226 135 135 135 0
1.218624 0.261134 35.528385 149 149 149 0
1.308282 0.261656 35.599500 159 159 159 0
1.393310 0.261246 35.543613 154 154 154 0
1.481273 0.261401 35.564781 152 152 152 0
1.568636 0.261439 35.569982 151 151 151 0
1.652928 0.260989 35.508652 149 149 149 0
1.738608 0.260791 35.481787 148 148 148 0
1.824890 0.260699 35.469192 147 147 147 0
1.908246 0.260215 35.403452 151 151 151 0
1.989182 0.259458 35.300473 145 145 145 0
2.075568 0.259446 35.298775 143 143 143 0
2.166060 0.259927 35.364251 142 142 142 0
2.251600 0.259800 35.346933 139 139 139 0
2.336856 0.259651 35.326617 142 142 142 0
2.427936 0.260136 35.392658 141 141 141 0
2.517164 0.260396 35.428069 135 135 135 0
2.604319 0.260432 35.432906 137 137 137 0
2.686560 0.259990 35.372748 139 139 139 0
2.780404 0.260663 35.464343 139 139 139 0
2.870090 0.260917 35.498953 141 141 141 0
2.953639 0.260615 35.457852 139 139 139 0
3.037551 0.260361 35.423331 142 142 142 0
3.130184 0.260849 35.489616 143 143 143 0
3.218744 0.260979 35.507385 141 141 141 0
3.304373 0.260872 35.492725 146 146 146 0
3.388871 0.260682 35.466995 148 148 148 0
3.481282 0.261096 35.523282 150 150 150 0
3.566627 0.260973 35.506486 154 154 154 0
3.643902 0.260279 35.412074 156 156 156 0
3.731698 0.260351 35.421906 155 155 155 0
3.824241 0.260744 35.475334 154 154 154 0
3.904863 0.260324 35.418258 153 153 153 0
3.985073 0.259896 35.360009 154 154 154 0
4.075245 0.260122 35.390747 145 145 145 0
4.169671 0.260604 35.456383 130 130 130 0
3.700622 0.226569 30.825677 116 116 116 0
3.977167 0.238630 32.466668 108 108 108 0
4.056406 0.238612 32.464230 114 114 114 0
4.579244 0.264187 35.943828 146 146 146 0
4.671731 0.264438 35.977906 160 160 160 0
4.767479 0.264860 36.035369 160 160 160 0
4.859201 0.265047 36.060859 160 160 160 0
4.950309 0.265195 36.080968 158 158 158 0
5.044342 0.265492 36.121319 149 149 149 0
5.118811 0.264766 36.022596 151 151 151 0
5.174020 0.263086 35.793982 148 148 148 0
5.258091 0.262905 35.769325 151 151 151 0
5.504081 0.270693 36.828916 151 151 151 0
5.462087 0.264295 35.958438 152 152 152 0
5.684280 0.270680 36.827209 151 151 151 0
5.502415 0.257926 35.091935 155 155 155 0
6.143353 0.283539 38.576785 152 152 152 0
5.761742 0.261897 35.632294 150 150 150 0
6.189833 0.277157 37.708397 151 151 151 0
5.926954 0.261483 35.575957 152 152 152 0
6.004297 0.261056 35.517875 151 151 151 0
6.014972 0.257784 35.072721 153 153 153 0
6.866402 0.290130 39.473422 152 152 152 0
6.807083 0.283628 38.588907 153 153 153 0
5.120958 0.210450 28.632696 150 150 150 0
7.479800 0.303235 41.256479 152 152 152 0
6.516958 0.260678 35.466438 148 148 148 0
7.515938 0.296682 40.364866 148 148 148 0
6.610969 0.257570 35.043568 147 147 147 0
7.887172 0.303353 41.272488 144 144 144 0
8.447045 0.320774 43.642701 140 140 140 0
-6.910126 0.345506 35.255747 152 152 152 0
-6.818608 0.345246 35.229182 150 150 150 0
-6.727100 0.344979 35.201987 150 150 150 0
-6.634879 0.344669 35.170310 151 151 151 0
-6.548048 0.344634 35.166747 147 147 147 0
-6.455258 0.344280 35.130655 145 145 145 0
-6.351887 0.343345 35.035229 142 142 142 0
-6.249912 0.342461 34.944992 143 143 143 0
-6.159840 0.342213 34.919726 140 140 140 0
-6.075045 0.342256 34.924089 134 134 134 0
-5.992471 0.342427 34.941521 139 139 139 0
-5.906000 0.342377 34.936411 134 134 134 0
-5.817468 0.342204 34.918776 134 134 134 0
-5.692811 0.339869 34.680541 131 131 131 0
-5.572567 0.337731 34.462383 130 129 129 0
-5.473467 0.336829 34.370280 129 129 129 0
-5.367196 0.335450 34.229566 129 129 129 0
-5.272908 0.334788 34.162024 130 130 130 0
-5.191035 0.334905 34.174028 129 129 129 0
-5.103638 0.334665 34.149468 126 126 126 0
-5.018766 0.334584 34.141265 123 123 123 0
-4.935099 0.334583 34.141120 124 124 124 0
-4.858934 0.335099 34.193765 119 119 119 0
-4.786467 0.335892 34.274735 119 119 119 0
-4.705594 0.336114 34.297330 120 120 120 0
-4.628076 0.336587 34.345650 124 124 124 0
-4.557283 0.337576 34.446580 123 123 123 0
-4.476392 0.337841 34.473560 123 123 123 0
-4.396405 0.338185 34.508672 125 125 125 0
-4.314700 0.338408 34.531416 123 123 123 0
-4.240623 0.339250 34.617327 127 127 127 0
-4.157317 0.339373 34.629878 127 127 127 0
-4.078890 0.339908 34.684441 138 138 138 0
-3.998417 0.340291 34.723548 149 149 149 0
-3.921132 0.340968 34.792652 152 152 152 0
-3.832063 0.340628 34.757937 153 153 153 0
-3.740197 0.340018 34.695707 151 151 151 0
-3.650154 0.339549 34.647877 148 148 148 0
-3.567567 0.339768 34.670237 141 141 141 0
-3.479129 0.339427 34.635426 124 124 124 0
-3.392125 0.339212 34.613517 107 107 107 0
-3.325526 0.341080 34.804038 132 132 132 0
-3.247705 0.341864 34.884052 151 151 151 0
-3.162352 0.341876 34.885296 151 151 151 0
-3.073772 0.341530 34.850026 151 151 151 0
-2.986578 0.341323 34.828900 148 148 148 0
-2.901944 0.341405 34.837262 146 146 146 0
-2.811297 0.340763 34.771758 142 142 142 0
-2.726894 0.340862 34.781814 138 138 138 0
-2.644650 0.341245 34.820936 133 133 133 0
-2.562730 0.341697 34.867078 129 129 129 0
-2.478600 0.341876 34.885297 124 124 124 0
-2.399422 0.342775 34.976992 124 124 124 0
-2.316057 0.343120 35.012199 116 116 116 0
-2.240606 0.344709 35.174352 115 115 115 0
-2.152062 0.344330 35.135700 110 110 110 0
-2.068115 0.344686 35.172024 102 102 102 0
-1.951349 0.339365 34.629086 87 87 87 0
-1.888673 0.343395 35.040313 83 83 83 0
-1.824320 0.347489 35.458106 71 71 71 0
-1.737700 0.347540 35.463270 64 64 64 0
-1.576678 0.350373 35.752341 58 58 58 0
-1.475533 0.347184 35.426956 105 105 105 0
-1.382788 0.345697 35.275206 139 139 139 0
-1.291611 0.344429 35.145867 144 144 144 0
-1.205349 0.344385 35.141358 146 146 146 0
-1.119067 0.344328 35.135532 150 150 150 0
-1.033990 0.344663 35.169723 149 149 149 0
-0.946323 0.344117 35.114015 147 147 147 0
-0.861578 0.344631 35.166463 146 146 146 0
-0.776426 0.345078 35.212069 148 148 148 0
-0.689734 0.344867 35.190506 149 149 149 0
-0.603459 0.344834 35.187131 148 148 148 0
-0.518025 0.345350 35.239824 149 149 149 0
-0.431941 0.345553 35.260515 147 147 147 0
-0.345364 0.345364 35.241239 149 149 149 0
-0.258593 0.344791 35.182738 150 150 150 0
-0.172700 0.345399 35.244825 149 149 149 0
-0.086470 0.345879 35.293770 146 146 146 0
0.000000 0.345461 35.251145 148 148 148 0
0.086290 0.345161 35.220473 151 151 151 0
0.172853 0.345707 35.276198 149 149 149 0
0.259292 0.345723 35.277888 152 152 152 0
0.345089 0.345089 35.213143 151 151 151 0
0.431947 0.345558 35.260987 147 147 147 0
0.519285 0.346190 35.325498 142 142 142 0
0.605903 0.346230 35.329627 138 138 138 0
0.691537 0.345768 35.282496 135 135 135 0
0.778840 0.346151 35.321528 136 136 136 0
0.866921 0.346769 35.384542 136 136 136 0
0.953700 0.346800 35.387759 131 131 131 0
1.038718 0.346239 35.330541 135 135 135 0
1.130887 0.347965 35.506648 145 145 145 0
1.220966 0.348847 35.596671 149 149 149 0
1.308627 0.348967 35.608893 153 153 153 0
1.393737 0.348434 35.554523 157 157 157 0
1.480074 0.348253 35.535999 152 152 152 0
1.566751 0.348167 35.527241 149 149 149 0
1.650354 0.347443 35.453372 147 147 147 0
1.735366 0.347073 35.415638 150 150 150 0
1.823260 0.347288 35.437511 148 148 148 0
1.904542 0.346280 35.334733 143 143 143 0
1.988412 0.345811 35.286821 146 146 146 0
2.073420 0.345570 35.262242 145 145 145 0
2.165368 0.346459 35.352950 144 144 144 0
2.249433 0.346067 35.312924 145 145 145 0
2.332905 0.345616 35.266889 137 137 137 0
2.424712 0.346387 35.345649 141 141 141 0
2.513674 0.346714 35.378945 136 136 136 0
2.603901 0.347187 35.427218 138 138 138 0
2.681895 0.346051 35.311329 135 135 135 0
2.776156 0.347020 35.410156 138 138 138 0
2.869138 0.347774 35.487171 138 138 138 0
2.951727 0.347262 35.434903 139 139 139 0
3.035684 0.346935 35.401567 138 138 138 0
3.128624 0.347625 35.471925 143 143 143 0
3.214068 0.347467 35.455802 144 144 144 0
3.299464 0.347312 35.440001 144 144 144 0
3.383245 0.346999 35.408112 146 146 146 0
3.478413 0.347841 35.494008 148 148 148 0
3.560682 0.347384 35.447305 152 152 152 0
3.641373 0.346797 35.387491 152 152 152 0
3.729440 0.346925 35.400473 154 154 154 0
3.819347 0.347213 35.429939 151 151 151 0
3.901622 0.346811 35.388862 155 155 155 0
3.979935 0.346081 35.314418 151 151 151 0
4.070764 0.346448 35.351835 142 142 142 0
4.167122 0.347260 35.434708 130 130 130 0
3.699331 0.301986 30.814916 118 118 118 0
4.247076 0.339766 34.670005 111 111 111 0
3.949950 0.309800 31.612243 117 117 117 0
4.586400 0.352800 36.000000 146 146 146 0
4.683864 0.353499 36.071346 157 157 157 0
4.767574 0.353154 36.036088 160 160 160 0
4.854529 0.353057 36.026187 158 158 158 0
4.947085 0.353363 36.057469 159 159 159 0
5.047272 0.354195 36.142301 153 153 153 0
5.121771 0.353226 36.043429 151 151 151 0
5.202888 0.352738 35.993693 151 151 151 0
5.261093 0.350740 35.789745 148 148 148 0
5.336807 0.349955 35.709647 154 154 154 0
5.462588 0.352425 35.961741 157 157 157 0
5.684345 0.360911 36.827631 156 156 156 0
5.502824 0.343926 35.094541 157 157 157 0
5.666312 0.348696 35.581239 153 153 153 0
6.095970 0.369453 37.699259 155 155 155 0
6.190232 0.369566 37.710825 154 154 154 0
5.934626 0.349096 35.622006 154 154 154 0
6.007716 0.348273 35.538102 153 153 153 0
6.105872 0.348907 35.602754 152 152 152 0
6.191343 0.348808 35.592660 156 156 156 0
6.268147 0.348230 35.533715 153 153 153 0
7.217205 0.395463 40.353397 154 154 154 0
7.318783 0.395610 40.368355 154 154 154 0
6.523552 0.347923 35.502323 149 149 149 0
8.015076 0.421846 43.045520 149 149 149 0
8.121715 0.421907 43.051764 147 147 147 0
6.530260 0.334885 34.171954 143 143 143 0
8.459207 0.428314 43.705537 138 138 138 0
-6.914673 0.432167 35.278942 151 151 151 0
-6.824667 0.431941 35.260487 154 154 154 0
-6.728716 0.431328 35.210446 153 153 153 0
-6.642271 0.431316 35.209492 153 153 153 0
-6.555267 0.431268 35.205516 146 146 146 0
-6.462815 0.430854 35.171784 144 144 144 0
-6.361147 0.429807 35.086306 142 142 142 0
-6.267796 0.429301 35.044985 140 140 140 0
-6.176110 0.428897 35.011961 141 141 141 0
-6.089377 0.428829 35.006481 141 141 141 0
-5.999008 0.428501 34.979638 140 140 140 0
-5.919694 0.428963 35.017413 135 135 135 0
-5.837051 0.429195 35.036322 132 132 132 0
-5.738589 0.428253 34.959424 134 134 134 0
-5.619155 0.425694 34.750497 135 135 135 0
-5.516893 0.424376 34.642967 127 127 127 0
-5.403745 0.422168 34.462658 130 130 130 0
-5.309196 0.421365 34.397125 131 131 131 0
-5.211578 0.420289 34.309270 131 131 131 0
-5.116140 0.419356 34.233122 132 132 132 0
-5.043862 0.420322 34.311988 125 125 125 0
-4.953354 0.419776 34.267409 121 121 121 0
-4.877238 0.420452 34.322576 123 123 123 0
-4.793587 0.420490 34.325722 121 121 121 0
-4.711272 0.420649 34.338718 120 120 120 0
-4.635342 0.421395 34.399570 122 122 122 0
-4.564016 0.422594 34.497478 124 124 124 0
-4.483671 0.422988 34.529619 126 126 126 0
-4.397548 0.422841 34.517649 125 125 125 0
-4.322678 0.423792 34.595261 124 124 124 0
-4.249208 0.424921 34.687411 126 126 126 0
-4.162003 0.424694 34.668917 128 128 128 0
-4.086177 0.425643 34.746407 134 134 134 0
-4.004064 0.425964 34.772593 148 148 148 0
-3.924162 0.426539 34.819541 149 149 149 0
-3.836536 0.426282 34.798514 150 150 150 0
-3.745660 0.425643 34.746380 151 151 151 0
-3.652553 0.424716 34.670654 147 147 147 0
-3.571914 0.425228 34.712481 139 139 139 0
-3.479339 0.424310 34.637524 120 120 120 0
-3.392854 0.424107 34.620958 112 112 112 0
-3.332395 0.427230 34.875933 142 142 142 0
-3.251718 0.427858 34.927154 149 149 149 0
-3.168657 0.428197 34.954845 148 148 148 0
-3.076283 0.427261 34.878488 148 148 148 0
-2.991261 0.427323 34.883506 145 145 145 0
-2.904485 0.427130 34.867772 143 143 143 0
-2.816092 0.426681 34.831071 139 139 139 0
-2.730810 0.426689 34.831764 132 132 132 0
-2.647058 0.426945 34.852643 131 131 131 0
-2.565824 0.427637 34.909166 127 127 127 0
-2.482435 0.428006 34.939274 122 122 122 0
-2.400674 0.428692 34.995249 121 121 121 0
-2.320033 0.429636 35.072301 118 118 118 0
-2.236209 0.430040 35.105317 116 116 116 0
-2.157344 0.431469 35.221937 110 110 110 0
-2.077598 0.432833 35.333303 100 100 100 0
-1.958872 0.425842 34.762593 84 84 84 0
-1.896643 0.431055 35.188177 81 81 81 0
-1.819093 0.433117 35.356526 68 68 68 0
-1.738529 0.434632 35.480178 57 57 57 0
-1.666945 0.438670 35.809772 60 60 60 0
-1.598091 0.443914 36.237880 57 57 57 0
-1.483378 0.436288 35.615314 85 85 85 0
-1.385077 0.432837 35.333599 132 132 132 0
-1.293442 0.431147 35.195712 143 143 143 0
-1.206773 0.430990 35.182889 147 147 147 0
-1.120693 0.431036 35.186597 152 152 152 0
-1.034063 0.430860 35.172226 153 153 153 0
-0.947368 0.430622 35.152797 152 152 152 0
-0.862179 0.431089 35.190973 147 147 147 0
-0.775553 0.430863 35.172480 145 145 145 0
-0.689314 0.430821 35.169079 147 147 147 0
-0.603149 0.430821 35.169040 148 148 148 0
-0.517750 0.431458 35.221057 148 148 148 0
-0.431632 0.431632 35.235285 148 148 148 0
-0.345224 0.431530 35.226910 153 153 153 0
-0.258582 0.430971 35.181286 151 151 151 0
-0.172658 0.431644 35.236260 151 151 151 0
-0.086363 0.431817 35.250365 150 150 150 0
0.000000 0.431165 35.197149 150 150 150 0
0.086207 0.431037 35.186666 147 147 147 0
0.172569 0.431422 35.218127 145 145 145 0
0.258751 0.431252 35.204249 144 144 144 0
0.344948 0.431185 35.198793 144 144 144 0
0.431894 0.431894 35.256635 142 142 142 0
0.518720 0.432267 35.287091 136 136 136 0
0.606477 0.433198 35.363063 136 136 136 0
0.692297 0.432685 35.321261 135 135 135 0
0.779771 0.433206 35.363774 136 136 136 0
0.867263 0.433632 35.398505 138 138 138 0
0.956245 0.434657 35.482174 143 143 143 0
1.043044 0.434602 35.477696 152 152 152 0
1.130852 0.434943 35.505550 147 147 147 0
1.220352 0.435840 35.578773 152 152 152 0
1.305709 0.435236 35.529502 150 150 150 0
1.391489 0.434840 35.497165 149 149 149 0
1.478493 0.434851 35.498029 151 151 151 0
1.565275 0.434799 35.493762 151 151 151 0
1.649608 0.434107 35.437329 149 149 149 0
1.731724 0.432931 35.341310 151 151 151 0
1.820027 0.433340 35.374674 149 149 149 0
1.903597 0.432636 35.317198 148 148 148 0
1.986072 0.431755 35.245291 149 149 149 0
2.071389 0.431539 35.227702 148 148 148 0
2.159710 0.431942 35.260564 144 144 144 0
2.245690 0.431863 35.254162 140 140 140 0
2.332069 0.431865 35.254256 139 139 139 0
2.419885 0.432122 35.275296 140 140 140 0
2.511224 0.432970 35.344466 139 139 139 0
2.595156 0.432526 35.308238 138 138 138 0
2.680889 0.432401 35.298078 138 138 138 0
2.771236 0.433006 35.347402 140 140 140 0
2.862037 0.433642 35.399348 141 141 141 0
2.946938 0.433373 35.377407 140 140 140 0
3.032235 0.433176 35.361345 138 138 138 0
3.125346 0.434076 35.434761 140 140 140 0
3.213344 0.434236 35.447816 143 143 143 0
3.296670 0.433772 35.409993 146 146 146 0
3.381506 0.433526 35.389914 146 146 146 0
3.476623 0.434578 35.475741 147 147 147 0
3.563286 0.434547 35.473227 148 148 148 0
3.643735 0.433778 35.410450 151 151 151 0
3.728401 0.433535 35.390614 150 150 150 0
3.818562 0.433927 35.422649 153 153 153 0
3.901850 0.433539 35.390926 153 153 153 0
3.978726 0.432470 35.303693 151 151 151 0
4.072343 0.433228 35.365548 141 141 141 0
4.163954 0.433745 35.407769 131 131 131 0
3.700180 0.377569 30.821992 118 118 118 0
3.657844 0.365784 29.859947 110 110 110 0
4.377195 0.429137 35.031577 120 120 120 0
4.565627 0.439003 35.836943 148 148 148 0
4.682926 0.441785 36.064122 156 156 156 0
4.767656 0.441450 36.036704 161 161 161 0
4.854398 0.441309 36.025215 162 162 162 0
4.945962 0.441604 36.049288 156 156 156 0
5.037811 0.441913 36.074549 158 158 158 0
5.123293 0.441663 36.054135 151 151 151 0
5.202508 0.440890 35.991061 148 148 148 0
5.264847 0.438737 35.815284 154 154 154 0
5.504906 0.451222 36.834431 154 154 154 0
5.461751 0.440464 35.956231 158 158 158 0
5.819334 0.461852 37.702194 158 158 158 0
5.637831 0.440456 35.955553 159 159 159 0
5.864237 0.451095 36.824095 156 156 156 0
5.759644 0.436337 35.619321 154 154 154 0
6.189799 0.461925 37.708187 153 153 153 0
6.428072 0.472652 38.583868 156 156 156 0
6.521695 0.472587 38.578496 154 154 154 0
6.014253 0.429589 35.068529 155 155 155 0
6.189756 0.435898 35.583534 156 156 156 0
7.276272 0.505297 41.248707 156 156 156 0
6.269742 0.429434 35.055865 155 155 155 0
6.356957 0.429524 35.063192 153 153 153 0
6.524967 0.434998 35.510025 152 152 152 0
5.286529 0.347798 28.391668 149 149 149 0
8.122294 0.527422 43.054833 144 144 144 0
6.530474 0.418620 34.173074 140 140 140 0
8.338581 0.527758 43.082311 132 132 132 0
-6.921509 0.519113 35.313823 150 150 150 0
-6.829127 0.518668 35.283529 154 154 154 0
-6.735514 0.518116 35.246017 152 152 152 0
-6.646267 0.517891 35.230674 152 152 152 0
-6.562742 0.518111 35.245663 147 147 147 0
-6.475073 0.518006 35.238493 142 142 142 0
-6.375793 0.516956 35.167088 141 141 141 0
-6.287674 0.516795 35.156131 141 141 141 0
-6.189714 0.515810 35.089082 141 141 141 0
-6.099105 0.515417 35.062404 141 141 141 0
-6.017275 0.515766 35.086154 141 141 141 0
-5.932973 0.515911 35.095964 142 142 142 0
-5.849817 0.516160 35.112950 134 134 134 0
-5.764446 0.516219 35.116940 129 129 129 0
-5.671261 0.515569 35.072736 128 128 128 0
-5.561046 0.513327 34.920225 136 136 136 0
-5.451858 0.511112 34.769502 133 133 133 0
-5.337905 0.508372 34.583123 129 129 129 0
-5.253250 0.508379 34.583605 131 131 131 0
-5.148325 0.506393 34.448481 128 128 128 0
-5.066826 0.506683 34.468204 126 126 126 0
-4.978985 0.506337 34.444724 124 124 124 0
-4.896367 0.506521 34.457190 132 132 132 0
-4.805848 0.505879 34.413520 127 127 127 0
-4.723359 0.506074 34.426817 125 125 125 0
-4.645101 0.506738 34.471993 123 123 123 0
-4.571859 0.507984 34.556760 124 124 124 0
-4.494285 0.508787 34.611363 125 125 125 0
-4.409361 0.508772 34.610370 125 125 125 0
-4.329339 0.509334 34.648571 125 125 125 0
-4.252755 0.510331 34.716366 125 125 125 0
-4.174496 0.511163 34.772977 128 128 128 0
-4.094662 0.511833 34.818557 134 134 134 0
-4.011442 0.512099 34.836661 142 142 142 0
-3.930589 0.512686 34.876570 148 148 148 0
-3.840490 0.512065 34.834375 147 147 147 0
-3.749834 0.511341 34.785103 147 147 147 0
-3.659723 0.510659 34.738710 144 144 144 0
-3.577172 0.511025 34.763579 130 130 130 0
-3.485116 0.510017 34.695033 114 114 114 0
-3.396012 0.509402 34.653182 117 117 117 0
-3.342225 0.514189 34.978811 133 133 133 0
-3.257897 0.514405 34.993524 144 144 144 0
-3.169257 0.513934 34.961470 147 147 147 0
-3.080278 0.513380 34.923786 147 147 147 0
-2.993261 0.513131 34.906838 143 143 143 0
-2.907837 0.513148 34.908004 138 138 138 0
-2.820315 0.512784 34.883298 133 133 133 0
-2.736679 0.513127 34.906619 133 133 133 0
-2.652437 0.513375 34.923466 129 129 129 0
-2.568126 0.513625 34.940490 127 127 127 0
-2.486188 0.514384 34.992088 125 125 125 0
-2.403935 0.515129 35.042788 122 122 122 0
-2.324382 0.516529 35.138046 118 118 118 0
-2.242438 0.517486 35.203113 117 117 117 0
-1.943039 0.466329 31.723085 110 110 110 0
-2.077403 0.519351 35.329988 102 102 102 0
-1.985337 0.517914 35.232244 86 86 86 0
-1.899234 0.517973 35.236247 81 81 81 0
-1.829864 0.522818 35.565878 73 73 73 0
-1.737554 0.521266 35.460278 60 60 60 0
-1.653194 0.522061 35.514369 59 59 59 0
-1.389203 0.520951 35.438843 115 115 115 0
-1.294896 0.517958 35.235271 138 138 138 0
-1.207003 0.517287 35.189599 145 145 145 0
-1.121012 0.517390 35.196596 147 147 147 0
-1.034395 0.517197 35.183499 153 153 153 0
-0.946869 0.516474 35.134285 155 155 155 0
-0.861420 0.516852 35.159993 149 149 149 0
-0.775553 0.517035 35.172480 145 145 145 0
-0.689539 0.517154 35.180551 145 145 145 0
-0.602725 0.516622 35.144340 146 146 146 0
-0.517502 0.517502 35.204203 149 149 149 0
-0.431508 0.517810 35.225170 151 151 151 0
-0.345219 0.517829 35.226474 156 156 156 0
-0.258450 0.516901 35.163329 155 155 155 0
-0.172612 0.517837 35.227003 153 153 153 0
-0.086258 0.517548 35.207361 152 152 152 0
0.000000 0.516745 35.152728 148 148 148 0
0.086086 0.516518 35.137251 146 146 146 0
0.172327 0.516981 35.168780 145 145 145 0
0.258598 0.517196 35.183427 140 140 140 0
0.345007 0.517511 35.204797 134 134 134 0
0.431274 0.517529 35.206063 136 136 136 0
0.518758 0.518758 35.289674 135 135 135 0
0.605988 0.519418 35.334571 135 135 135 0
0.692389 0.519292 35.325968 134 134 134 0
0.779464 0.519643 35.349844 135 135 135 0
0.869200 0.521520 35.477543 141 141 141 0
0.958005 0.522548 35.547479 152 152 152 0
1.043406 0.521703 35.490009 153 153 153 0
1.130381 0.521714 35.490781 148 148 148 0
1.219722 0.522738 35.560405 148 148 148 0
1.305909 0.522364 35.534951 149 149 149 0
1.389314 0.520993 35.441673 150 150 150 0
1.475647 0.520817 35.429700 149 149 149 0
1.562046 0.520682 35.420548 152 152 152 0
1.644345 0.519267 35.324273 152 152 152 0
1.728258 0.518478 35.270580 149 149 149 0
1.815847 0.518813 35.293424 150 150 150 0
1.901205 0.518511 35.272824 150 150 150 0
1.984312 0.517646 35.214047 148 148 148 0
2.070277 0.517569 35.208793 147 147 147 0
2.158636 0.518073 35.243031 146 146 146 0
2.241756 0.517328 35.192405 141 141 141 0
2.327156 0.517146 35.179981 140 140 140 0
2.417273 0.517987 35.237221 141 141 141 0
2.506565 0.518600 35.278890 138 138 138 0
2.589820 0.517964 35.235653 139 139 139 0
2.679296 0.518573 35.277097 137 137 137 0
2.767864 0.518974 35.304385 138 138 138 0
2.855274 0.519141 35.315698 138 138 138 0
2.940116 0.518844 35.295513 138 138 138 0
3.032406 0.519841 35.363340 138 138 138 0
3.122849 0.520475 35.406456 141 141 141 0
3.212005 0.520866 35.433040 141 141 141 0
3.289654 0.519419 35.334632 142 142 142 0
3.378409 0.519755 35.357503 143 143 143 0
3.469598 0.520440 35.404064 145 145 145 0
3.556525 0.520467 35.405922 147 147 147 0
3.637017 0.519574 35.345156 150 150 150 0
3.726926 0.520036 35.376612 150 150 150 0
3.816975 0.520497 35.407933 149 149 149 0
3.896334 0.519511 35.340897 153 153 153 0
3.978726 0.518964 35.303693 149 149 149 0
4.072343 0.519874 35.365548 139 139 139 0
4.169718 0.521215 35.456787 129 129 129 0
4.247424 0.520093 35.380459 119 119 119 0
3.974140 0.476897 32.441962 108 108 108 0
4.355422 0.512403 34.857316 119 119 119 0
4.544622 0.524379 35.672071 138 138 138 0
4.668052 0.528459 35.949572 154 154 154 0
4.769558 0.529951 36.051078 157 157 157 0
4.849099 0.528993 35.985892 157 157 157 0
4.944444 0.529762 36.038223 153 153 153 0
5.030659 0.529543 36.023337 150 150 150 0
5.113722 0.529006 35.986784 150 150 150 0
5.191692 0.527969 35.916237 152 152 152 0
5.262003 0.526200 35.795941 149 149 149 0
5.332947 0.524552 35.683818 153 153 153 0
5.198014 0.503034 34.219976 154 154 154 0
5.684243 0.541356 36.826970 155 155 155 0
5.637221 0.528490 35.951667 153 153 153 0
5.667140 0.523121 35.586437 153 153 153 0
6.238554 0.567141 38.581036 152 152 152 0
6.190258 0.554352 37.710987 152 152 152 0
5.931617 0.523378 35.603944 153 153 153 0
6.005794 0.522243 35.526733 153 153 153 0
6.014476 0.515526 35.069828 153 153 153 0
7.020150 0.593252 40.357288 156 156 156 0
6.807073 0.567256 38.588849 156 156 156 0
6.348239 0.521773 35.494766 154 154 154 0
5.185868 0.420476 28.603792 153 153 153 0
6.527673 0.522214 35.524749 151 151 151 0
7.848194 0.619594 42.149271 146 146 146 0
6.611546 0.515185 35.046627 140 140 140 0
6.531644 0.502434 34.179193 132 132 132 0
8.339077 0.633348 43.084870 124 124 124 0
-6.924261 0.605873 35.327864 149 149 149 0
-6.836849 0.605797 35.323426 151 151 151 0
-6.744826 0.605305 35.294748 151 151 151 0
-6.650616 0.604601 35.253729 149 149 149 0
-6.571710 0.605289 35.293824 146 146 146 0
-6.486238 0.605382 35.299256 143 143 143 0
-6.389399 0.604403 35.242132 139 139 139 0
-6.305343 0.604622 35.254924 138 138 138 0
-6.210558 0.603804 35.207247 137 137 137 0
-6.113646 0.602754 35.145994 138 138 138 0
-6.026518 0.602652 35.140049 136 136 136 0
-5.944134 0.603028 35.161986 136 136 136 0
-5.862326 0.603475 35.188033 135 135 135 0
-5.775570 0.603418 35.184709 134 134 134 0
-5.703055 0.604869 35.269358 137 137 137 0
-5.618652 0.605086 35.281962 135 135 135 0
-5.494258 0.600934 35.039908 140 140 140 0
-5.379033 0.597670 34.849582 132 132 132 0
-5.277875 0.595889 34.745723 133 133 133 0
-5.184064 0.594893 34.687616 130 130 130 0
-5.088413 0.593648 34.615054 129 129 129 0
-4.999398 0.593149 34.585939 127 127 127 0
-4.909812 0.592564 34.551810 132 132 132 0
-4.826748 0.592759 34.563179 134 134 134 0
-4.743054 0.592882 34.570362 125 125 125 0
-4.660800 0.593193 34.588501 124 124 124 0
-4.581420 0.593888 34.629025 123 123 123 0
-4.503611 0.594817 34.683184 124 124 124 0
-4.420899 0.595121 34.700935 122 122 122 0
-4.342474 0.596026 34.753697 124 124 124 0
-4.265502 0.597170 34.820428 125 125 125 0
-4.179273 0.597039 34.812769 124 124 124 0
-4.103045 0.598361 34.889837 125 125 125 0
-4.021983 0.599019 34.928206 139 139 139 0
-3.934650 0.598751 34.912597 144 144 144 0
-3.846095 0.598281 34.885212 146 146 146 0
-3.751946 0.596900 34.804693 142 142 142 0
-3.663829 0.596437 34.777681 140 140 140 0
-3.583012 0.597169 34.820326 129 129 129 0
-3.484053 0.594838 34.684448 111 111 111 0
-3.412065 0.597111 34.816993 117 117 117 0
-3.348052 0.600932 35.039790 134 134 134 0
-3.266168 0.601663 35.082366 145 145 145 0
-3.177058 0.601065 35.047522 145 145 145 0
-3.086853 0.600221 34.998328 143 143 143 0
-2.997989 0.599598 34.961967 138 138 138 0
-2.913922 0.599925 34.981053 132 132 132 0
-2.827710 0.599817 34.974763 133 133 133 0
-2.741946 0.599801 34.973799 132 132 132 0
-2.658037 0.600202 34.997198 130 130 130 0
-2.574569 0.600733 35.028145 130 130 130 0
-2.490387 0.601128 35.051183 125 125 125 0
-2.407860 0.601965 35.100004 122 122 122 0
-2.325687 0.602956 35.157778 121 121 121 0
-2.244143 0.604192 35.229868 114 114 114 0
-2.163697 0.605835 35.325662 110 110 110 0
-1.872232 0.546068 31.840685 100 100 100 0
-1.783079 0.542676 31.642928 89 89 89 0
-1.911852 0.608317 35.470351 82 82 82 0
-1.838014 0.612671 35.724273 75 75 75 0
-1.738295 0.608403 35.475408 66 66 66 0
-1.657372 0.610611 35.604114 59 59 59 0
-1.394602 0.610138 35.576575 83 83 83 0
-1.298821 0.606116 35.342070 128 128 128 0
-1.208572 0.604286 35.235328 144 144 144 0
-1.122801 0.604585 35.252779 148 148 148 0
-1.035669 0.604140 35.226848 148 148 148 0
-0.946931 0.602592 35.136586 153 153 153 0
-0.861111 0.602778 35.147385 152 152 152 0
-0.775006 0.602783 35.147668 147 147 147 0
-0.689085 0.602949 35.157403 146 146 146 0
-0.602912 0.602912 35.155209 147 147 147 0
-0.517358 0.603584 35.194409 148 148 148 0
-0.431109 0.603552 35.192546 151 151 151 0
-0.345087 0.603903 35.212995 156 156 156 0
-0.258605 0.603411 35.184295 157 157 157 0
-0.172493 0.603727 35.202755 154 154 154 0
-0.086142 0.602993 35.159968 153 153 153 0
0.000000 0.601978 35.100733 150 150 150 0
0.086014 0.602099 35.107793 146 146 146 0
0.172221 0.602773 35.147097 140 140 140 0
0.258843 0.603968 35.216770 135 135 135 0
0.344435 0.602762 35.146453 134 134 134 0
0.431467 0.604054 35.221780 132 132 132 0
0.519122 0.605642 35.314431 132 132 132 0
0.605692 0.605692 35.317303 137 137 137 0
0.692329 0.605788 35.322931 138 138 138 0
0.779878 0.606571 35.368596 139 139 139 0
0.870007 0.609005 35.510490 151 151 151 0
0.957648 0.609413 35.534263 150 150 150 0
1.042477 0.608111 35.458386 150 150 150 0
1.129648 0.608272 35.467750 154 154 154 0
1.217827 0.608914 35.505172 149 149 149 0
1.304403 0.608722 35.493968 151 151 151 0
1.386683 0.606674 35.374562 151 151 151 0
1.474017 0.606948 35.390573 150 150 150 0
1.560112 0.606710 35.376695 152 152 152 0
1.643629 0.605547 35.308883 151 151 151 0
1.727817 0.604736 35.261571 151 151 151 0
1.814876 0.604959 35.274556 151 151 151 0
1.898401 0.604037 35.220805 150 150 150 0
1.982001 0.603218 35.173045 150 150 150 0
2.068788 0.603396 35.183468 148 148 148 0
2.156710 0.603879 35.211585 146 146 146 0
2.242932 0.603866 35.210863 143 143 143 0
2.327244 0.603360 35.181316 143 143 143 0
2.416285 0.604071 35.222812 141 141 141 0
2.505099 0.604679 35.258262 139 139 139 0
2.589051 0.604112 35.225177 136 136 136 0
2.674248 0.603862 35.210637 137 137 137 0
2.765757 0.605009 35.277509 138 138 138 0
2.862754 0.607251 35.408215 139 139 139 0
2.938655 0.605017 35.277974 137 137 137 0
3.025566 0.605113 35.283565 138 138 138 0
3.120349 0.606735 35.378107 141 141 141 0
3.207604 0.606844 35.384487 143 143 143 0
3.287279 0.605551 35.309115 144 144 144 0
3.376355 0.606012 35.336003 142 142 142 0
3.466837 0.606696 35.375886 146 146 146 0
3.557334 0.607350 35.413973 147 147 147 0
3.635874 0.605979 35.334054 146 146 146 0
3.722435 0.605978 35.333986 151 151 151 0
3.813286 0.606659 35.373714 149 149 149 0
3.895944 0.606036 35.337361 150 150 150 0
3.977088 0.605209 35.289156 148 148 148 0
4.070119 0.606188 35.346236 141 141 141 0
4.166665 0.607639 35.430825 129 129 129 0
4.254941 0.607849 35.443073 116 116 116 0
3.971058 0.555948 32.416802 107 107 107 0
4.398389 0.603700 35.201190 120 120 120 0
4.541557 0.611363 35.648010 136 136 136 0
4.666659 0.616351 35.938848 146 146 146 0
4.756388 0.616569 35.951537 156 156 156 0
