ply
format ascii 1.0
element vertex 1148
property float x
property float y
property float z
property uchar red
property uchar green
property uchar blue
property uchar alpha
end_header
0.357540 1.787698 36.483634 111 111 111 0
0.446592 1.786369 36.456516 111 111 111 0
0.535717 1.785723 36.443336 112 112 112 0
0.623725 1.782071 36.368794 113 113 113 0
0.712675 1.781687 36.360952 112 112 112 0
0.801991 1.782203 36.371490 111 111 111 0
0.891846 1.783692 36.401882 110 110 110 0
0.980348 1.782451 36.376546 105 105 105 0
1.070757 1.784595 36.420314 102 102 102 0
1.163445 1.789916 36.528897 102 102 102 0
1.255515 1.793593 36.603943 100 100 100 0
1.347660 1.796880 36.671020 98 98 98 0
1.439884 1.799855 36.731734 97 97 97 0
1.536375 1.807500 36.887764 94 94 94 0
1.629548 1.810609 36.951195 94 94 94 0
1.724228 1.814977 37.040347 95 95 95 0
1.823024 1.823024 37.204577 98 98 98 0
1.918176 1.826834 37.282331 98 98 98 0
2.011316 1.828469 37.315694 99 99 99 0
2.111368 1.835972 37.468817 99 99 99 0
2.208762 1.840635 37.563976 95 95 95 0
2.304886 1.843909 37.630794 95 95 95 0
2.406724 1.851326 37.782171 91 91 91 0
2.510295 1.859478 37.948533 89 89 89 0
2.611644 1.865460 38.070619 79 79 79 0
2.714260 1.871903 38.202104 75 75 75 0
2.861164 1.907443 38.927401 67 67 67 0
3.125385 1.953366 39.864606 100 100 100 0
3.227050 1.955788 39.914033 135 135 135 0
3.325239 1.956023 39.918831 142 142 142 0
3.422336 1.955620 39.910620 142 142 142 0
3.520799 1.955999 39.918354 143 143 143 0
3.620966 1.957279 39.944468 142 142 142 0
3.714617 1.955062 39.899219 142 142 142 0
3.815480 1.956656 39.931759 142 142 142 0
3.910200 1.955100 39.900001 138 138 138 0
4.005865 1.954081 39.879196 133 133 133 0
4.107465 1.955936 39.917056 124 124 124 0
4.211910 1.959028 39.980158 109 109 109 0
4.312000 1.960000 40.000000 99 99 99 0
4.424721 1.966543 40.133522 99 99 99 0
4.534533 1.971536 40.235431 103 103 103 0
4.636179 1.972842 40.262081 104 104 104 0
4.748244 1.978435 40.376228 107 107 107 0
4.855707 1.981921 40.447370 106 106 106 0
4.963564 1.985426 40.518893 106 106 106 0
5.065821 1.986597 40.542789 102 102 102 0
5.181577 1.992914 40.671718 98 98 98 0
5.286556 1.994927 40.712794 97 97 97 0
5.395715 1.998413 40.783939 96 96 96 0
5.515365 2.005587 40.930351 97 97 97 0
5.625115 2.008970 40.999381 99 99 99 0
5.735501 2.012456 41.070539 101 101 101 0
5.841950 2.014466 41.111542 103 103 103 0
5.955699 2.018881 41.201650 105 105 105 0
6.057037 2.019012 41.204335 107 107 107 0
6.169510 2.022790 41.281435 109 109 109 0
6.271039 2.022916 41.283998 110 110 110 0
6.373596 2.023364 41.293140 109 109 109 0
6.480960 2.025300 41.332651 108 108 108 0
6.588770 2.027314 41.373753 109 109 109 0
6.701819 2.030854 41.446006 107 107 107 0
6.808337 2.032339 41.476313 107 107 107 0
6.925638 2.036952 41.570454 105 105 105 0
7.022389 2.035475 41.540310 105 105 105 0
7.135672 2.038763 41.607417 103 103 103 0
7.255228 2.043726 41.708699 101 101 101 0
7.371321 2.047589 41.787536 96 96 96 0
7.509145 2.057300 41.985713 91 91 91 0
7.622741 2.060200 42.044901 90 90 90 0
7.738970 2.063725 42.116843 92 92 92 0
7.859508 2.068292 42.210031 97 97 97 0
8.269474 2.147915 43.835006 100 100 100 0
8.549072 2.192070 44.736119 103 103 103 0
8.662076 2.192931 44.753688 102 102 102 0
-7.022634 1.843441 35.829764 162 162 162 0
-6.931619 1.842582 35.813066 164 164 164 0
-6.841659 1.841985 35.801461 163 163 163 0
-6.751436 1.841301 35.788159 162 162 162 0
-6.650576 1.837659 35.717380 159 159 159 0
-6.563278 1.837718 35.718518 158 158 158 0
-6.473598 1.837102 35.706555 160 160 160 0
-6.374311 1.833706 35.640543 161 161 161 0
-6.280530 1.831821 35.603912 160 160 160 0
-6.192463 1.831574 35.599099 159 159 159 0
-6.104632 1.831390 35.595523 163 163 163 0
-6.005539 1.827773 35.525225 158 158 158 0
-5.927230 1.830468 35.577612 146 146 146 0
-5.849640 1.833469 35.635946 135 135 135 0
-5.754148 1.830865 35.585332 122 122 122 0
-5.633066 1.819914 35.372473 120 120 120 0
-5.599041 1.837185 35.708168 129 129 129 0
-5.549940 1.849980 35.956850 151 151 151 0
-5.469449 1.852555 36.006903 158 158 158 0
-5.381355 1.852598 36.007730 156 156 156 0
-5.288285 1.850900 35.974728 158 158 158 0
-5.196015 1.849429 35.946144 156 156 156 0
-5.090753 1.843204 35.825146 155 155 155 0
-4.996086 1.840663 35.775769 155 155 155 0
-4.903965 1.838987 35.743182 155 155 155 0
-4.808131 1.835832 35.681862 153 153 153 0
-4.712520 1.832646 35.619951 155 155 155 0
-4.625604 1.832787 35.622673 154 154 154 0
-4.537979 1.832645 35.619926 157 157 157 0
-4.442437 1.829239 35.553715 155 155 155 0
-4.353274 1.828375 35.536933 152 152 152 0
-4.270064 1.830027 35.569044 155 155 155 0
-4.173457 1.825888 35.488582 154 154 154 0
-4.078056 1.822110 35.415164 151 151 151 0
-3.994514 1.823582 35.443779 152 152 152 0
-3.905458 1.822547 35.423652 153 153 153 0
-3.808575 1.817729 35.330010 154 154 154 0
-3.720448 1.816963 35.315125 156 156 156 0
-3.637186 1.818593 35.346800 152 152 152 0
-3.541948 1.814169 35.260809 151 151 151 0
-3.453201 1.812931 35.236745 152 152 152 0
-3.368078 1.813580 35.249377 151 151 151 0
-3.281949 1.813709 35.251872 150 150 150 0
-3.191290 1.811273 35.204527 147 147 147 0
-3.107721 1.812837 35.234936 133 133 133 0
-3.025405 1.815243 35.281690 118 118 118 0
-2.947805 1.820703 35.387817 107 107 107 0
-2.863564 1.822268 35.418230 103 103 103 0
-2.514127 1.649896 32.067944 100 100 100 0
-2.712701 1.837636 35.716927 98 98 98 0
-2.366414 1.656490 32.196115 92 92 92 0
-2.303373 1.667960 32.419039 89 89 89 0
-2.252291 1.689219 32.832236 81 81 81 0
-2.233718 1.737336 33.767471 78 78 78 0
-2.030355 1.639902 31.873697 68 68 68 0
-1.626756 2.009523 39.057777 89 89 89 0
-1.536814 2.017069 39.204441 133 133 133 0
-1.441190 2.017666 39.216046 135 135 135 0
-1.345005 2.017508 39.212974 138 138 138 0
-1.251703 2.021981 39.299926 138 138 138 0
-1.154101 2.019677 39.255145 139 139 139 0
-1.057601 2.019056 39.243066 139 139 139 0
-0.963083 2.022474 39.309508 136 136 136 0
-0.868172 2.025735 39.372889 139 139 139 0
-0.771764 2.025880 39.375699 136 136 136 0
-0.675289 2.025868 39.375470 137 137 137 0
-0.580274 2.030957 39.474392 138 138 138 0
-0.481894 2.023955 39.338289 130 130 130 0
-0.373577 1.961278 38.120076 120 120 120 0
-0.276630 1.936407 37.636682 112 112 112 0
-0.183300 1.924647 37.408109 111 111 111 0
-0.091321 1.917737 37.273793 110 110 110 0
0.000000 1.911099 37.144773 111 111 111 0
0.090575 1.902069 36.969274 109 109 109 0
0.180687 1.897209 36.874816 109 109 109 0
0.270675 1.894726 36.826551 111 111 111 0
0.359602 1.887913 36.694124 109 109 109 0
0.448959 1.885626 36.649678 109 109 109 0
0.538414 1.884451 36.626836 108 108 108 0
0.627883 1.883649 36.611261 108 108 108 0
0.716026 1.879568 36.531924 105 105 105 0
0.806686 1.882268 36.584404 105 105 105 0
0.897045 1.883795 36.614084 102 102 102 0
0.986093 1.882542 36.589735 103 103 103 0
1.076285 1.883499 36.608344 100 100 100 0
1.168863 1.888163 36.698994 99 99 99 0
1.261645 1.892468 36.782660 97 97 97 0
1.352719 1.893806 36.808677 97 97 97 0
1.446868 1.899014 36.909899 94 94 94 0
1.541148 1.903771 37.002358 96 96 96 0
1.636383 1.909114 37.106201 94 94 94 0
1.731480 1.913741 37.196133 95 95 95 0
1.826411 1.917732 37.273697 96 96 96 0
1.925725 1.925725 37.429065 97 97 97 0
2.020161 1.928335 37.479792 95 95 95 0
2.118797 1.934554 37.600662 92 92 92 0
2.217935 1.940693 37.719982 90 90 90 0
2.317346 1.946570 37.834213 87 87 87 0
2.101587 1.697436 32.991948 83 83 83 0
2.528627 1.966710 38.225648 71 71 71 0
2.836409 2.053952 39.921315 68 68 68 0
2.930739 2.051517 39.873995 99 99 99 0
3.032505 2.054278 39.927649 132 132 132 0
3.131125 2.054801 39.937823 140 140 140 0
3.232339 2.056943 39.979455 141 141 141 0
3.324286 2.053235 39.907392 141 141 141 0
3.425005 2.055003 39.941750 142 142 142 0
3.521598 2.054266 39.927420 141 141 141 0
3.621115 2.055227 39.946108 139 139 139 0
3.716174 2.053675 39.915939 138 138 138 0
3.816277 2.054919 39.940109 134 134 134 0
3.913988 2.054844 39.938657 128 128 128 0
4.013279 2.055582 39.952998 121 121 121 0
4.113367 2.056684 39.974412 109 109 109 0
4.218291 2.060096 40.040732 98 98 98 0
4.326996 2.065157 40.139107 96 96 96 0
4.437757 2.070953 40.251764 101 101 101 0
4.550961 2.077613 40.381197 103 103 103 0
4.647896 2.076719 40.363837 104 104 104 0
4.765818 2.085045 40.525663 102 102 102 0
4.866285 2.085551 40.535486 101 101 101 0
4.982586 2.092686 40.674175 98 98 98 0
5.087300 2.094771 40.714690 96 96 96 0
5.206020 2.102431 40.863583 96 96 96 0
5.316207 2.106421 40.941136 96 96 96 0
5.423259 2.109045 40.992133 97 97 97 0
5.542795 2.116340 41.133917 98 98 98 0
5.646062 2.117273 41.152053 101 101 101 0
5.760315 2.122221 41.248230 105 105 105 0
5.869336 2.125104 41.304264 106 106 106 0
5.967566 2.124049 41.283751 107 107 107 0
6.074023 2.125908 41.319884 110 110 110 0
6.190076 2.131010 41.419041 111 111 111 0
6.284601 2.128655 41.373278 110 110 110 0
6.395642 2.131881 41.435971 109 109 109 0
6.500228 2.132887 41.455535 110 110 110 0
6.606723 2.134480 41.486489 107 107 107 0
6.716306 2.137006 41.535595 105 105 105 0
6.826539 2.139661 41.587199 103 103 103 0
6.937280 2.142395 41.640338 104 104 104 0
7.051054 2.145973 41.709873 104 104 104 0
7.158175 2.147452 41.738627 102 102 102 0
7.283855 2.154380 41.873269 97 97 97 0
7.390261 2.155493 41.894905 92 92 92 0
7.520030 2.163296 42.046578 91 91 91 0
7.656353 2.172749 42.230296 91 91 91 0
7.888126 2.208675 42.928579 95 95 95 0
7.995580 2.209305 42.940816 98 98 98 0
8.273052 2.256287 43.853972 99 99 99 0
8.552623 2.302629 44.754701 101 101 101 0
8.838439 2.349458 45.664885 102 102 102 0
-7.018570 1.930107 35.809030 159 159 159 0
-6.924330 1.928295 35.775409 161 161 161 0
-6.833695 1.927452 35.759785 163 163 163 0
-6.746376 1.927536 35.761337 159 159 159 0
-6.645869 1.923804 35.692101 161 161 161 0
-6.554478 1.922647 35.670628 160 160 160 0
-6.467173 1.922673 35.671116 159 159 159 0
-6.368989 1.919421 35.610784 159 159 159 0
-6.275038 1.917373 35.572775 158 158 158 0
-6.190098 1.918059 35.585502 160 160 160 0
-6.097908 1.916485 35.556314 159 159 159 0
-6.001505 1.913523 35.501359 157 157 157 0
-5.923499 1.916426 35.555217 147 147 147 0
-5.843163 1.918650 35.596483 133 133 133 0
-5.748646 1.916215 35.551304 126 126 126 0
-5.621734 1.902741 35.301315 113 113 113 0
-5.582333 1.918927 35.601613 124 124 124 0
-5.544966 1.936337 35.924623 151 151 151 0
-5.466800 1.939832 35.989469 155 155 155 0
-5.378268 1.939703 35.987071 155 155 155 0
-5.289145 1.939353 35.980577 156 156 156 0
-5.194331 1.936869 35.934495 156 156 156 0
-5.087725 1.929827 35.803838 157 157 157 0
-4.990102 1.926004 35.732917 154 154 154 0
-4.902123 1.925834 35.729762 156 156 156 0
-4.806972 1.922789 35.673260 154 154 154 0
-4.713570 1.920343 35.627888 155 155 155 0
-4.625214 1.919900 35.619672 155 155 155 0
-4.538092 1.919962 35.620820 156 156 156 0
-4.439625 1.915133 35.531216 154 154 154 0
-4.353282 1.915444 35.537000 154 154 154 0
-4.266998 1.915795 35.543510 154 154 154 0
-4.171190 1.911796 35.469305 154 154 154 0
-4.076927 1.908349 35.405361 154 154 154 0
-3.992220 1.909323 35.423426 154 154 154 0
-3.901822 1.907557 35.390676 154 154 154 0
-3.806835 1.903417 35.313865 155 155 155 0
-3.719532 1.903016 35.306426 154 154 154 0
-3.633096 1.903050 35.307058 155 155 155 0
-3.539289 1.899131 35.234339 153 153 153 0
-3.451985 1.898592 35.224335 155 155 155 0
-3.365162 1.898296 35.218859 157 157 157 0
-3.278884 1.898301 35.218949 155 155 155 0
-3.189396 1.896398 35.183630 149 149 149 0
-3.106428 1.898373 35.220274 136 136 136 0
-3.024850 1.901334 35.275215 122 122 122 0
-2.943471 1.904599 35.335790 112 112 112 0
-2.861589 1.907726 35.393809 107 107 107 0
-2.782778 1.913160 35.494614 103 103 103 0
-2.446703 1.736370 32.214652 101 101 101 0
-2.377068 1.743183 32.341066 92 92 92 0
-2.303990 1.747854 32.427722 92 92 92 0
-2.231059 1.752975 32.522727 83 83 83 0
-2.253225 1.835961 34.062354 79 79 79 0
-2.086042 1.765113 32.747917 67 67 67 0
-1.458711 1.887744 35.023077 68 68 68 0
-1.537878 2.114582 39.231581 123 123 123 0
-1.443332 2.116887 39.274340 133 133 133 0
-1.346693 2.116231 39.262177 136 136 136 0
-1.252455 2.119539 39.323543 136 136 136 0
-1.156330 2.119939 39.330957 139 139 139 0
-1.058457 2.116913 39.274831 139 139 139 0
-0.963796 2.120352 39.338621 136 136 136 0
-0.868771 2.123662 39.400030 139 139 139 0
-0.771785 2.122409 39.376785 139 139 139 0
-0.674942 2.121245 39.355200 139 139 139 0
-0.579860 2.126153 39.446259 136 136 136 0
-0.483790 2.128676 39.493069 138 138 138 0
-0.386728 2.127007 39.462088 144 144 144 0
-0.289008 2.119389 39.320769 129 129 129 0
-0.187263 2.059889 38.216865 117 117 117 0
-0.092137 2.027014 37.606930 111 111 111 0
0.000000 2.017252 37.425832 111 111 111 0
0.091472 2.012388 37.335578 111 111 111 0
0.182256 2.004813 37.195051 109 109 109 0
0.272504 1.998365 37.075421 107 107 107 0
0.362575 1.994162 36.997447 107 107 107 0
0.452336 1.990279 36.925392 104 104 104 0
0.543053 1.991193 36.942361 106 106 106 0
0.632291 1.987202 36.868305 105 105 105 0
0.721396 1.983838 36.805893 103 103 103 0
0.811919 1.984691 36.821724 102 102 102 0
0.903254 1.987158 36.867492 101 101 101 0
0.991596 1.983191 36.793898 100 100 100 0
1.084294 1.987872 36.880736 99 99 99 0
1.177004 1.991853 36.954600 98 98 98 0
1.269521 1.994961 37.012264 98 98 98 0
1.361093 1.996270 37.036544 96 96 96 0
1.456754 2.003036 37.162087 97 97 97 0
1.551261 2.007514 37.245155 96 96 96 0
1.646276 2.012115 37.330526 96 96 96 0
1.739997 2.014733 37.379091 96 96 96 0
1.838316 2.022147 37.516645 94 94 94 0
1.934416 2.026531 37.597986 93 93 93 0
2.034120 2.034120 37.738783 92 92 92 0
2.133590 2.040825 37.863172 87 87 87 0
2.238746 2.052184 38.073917 83 83 83 0
2.350847 2.068745 38.381177 73 73 73 0
2.632337 2.144867 39.793454 68 68 68 0
2.741301 2.153879 39.960656 97 97 97 0
2.842057 2.156044 40.000809 128 128 128 0
2.937975 2.154515 39.972450 140 140 140 0
3.038000 2.156000 40.000000 141 141 141 0
3.132605 2.153666 39.956702 138 138 138 0
3.230727 2.153818 39.959520 141 141 141 0
3.329665 2.154489 39.971970 141 141 141 0
3.425541 2.153197 39.948005 138 138 138 0
3.523989 2.153549 39.954529 136 136 136 0
3.623090 2.154270 39.967896 132 132 132 0
3.720469 2.153956 39.962072 127 127 127 0
3.822746 2.156421 40.007802 123 123 123 0
3.918955 2.155425 39.989335 117 117 117 0
4.018000 2.156000 40.000000 109 109 109 0
4.126791 2.161653 40.104873 101 101 101 0
4.236274 2.167396 40.211433 95 95 95 0
4.345192 2.172596 40.307907 99 99 99 0
4.458574 2.179747 40.440582 99 99 99 0
4.570003 2.185654 40.550163 100 100 100 0
4.666803 2.184461 40.528035 99 99 99 0
4.782198 2.191841 40.664953 97 97 97 0
4.890737 2.195841 40.739166 94 94 94 0
5.001812 2.200797 40.831121 94 94 94 0
5.113909 2.206000 40.927643 95 95 95 0
5.228062 2.211872 41.036591 94 94 94 0
5.336444 2.215128 41.096989 96 96 96 0
5.449741 2.220265 41.192300 98 98 98 0
5.562376 2.224950 41.279227 102 102 102 0
5.665802 2.225851 41.295934 104 104 104 0
5.783890 2.232379 41.417043 106 106 106 0
5.884377 2.232005 41.410111 108 108 108 0
5.989825 2.233494 41.437736 110 110 110 0
6.093998 2.234466 41.455766 110 110 110 0
6.204864 2.237820 41.517995 111 111 111 0
6.304418 2.237051 41.503738 110 110 110 0
6.414232 2.239890 41.556410 108 108 108 0
6.520389 2.241384 41.584111 107 107 107 0
6.628119 2.243363 41.620839 105 105 105 0
6.737608 2.245869 41.667336 104 104 104 0
6.852984 2.250234 41.748303 102 102 102 0
6.965914 2.253678 41.812206 103 103 103 0
7.075183 2.255856 41.852608 101 101 101 0
7.192755 2.260580 41.940265 96 96 96 0
7.306204 2.263894 42.001747 93 93 93 0
7.431652 2.270782 42.129544 90 90 90 0
7.551497 2.275794 42.222519 91 91 91 0
7.690704 2.286425 42.419767 94 94 94 0
7.801524 2.288447 42.457272 97 97 97 0
7.999833 2.315741 42.963657 99 99 99 0
8.276480 2.364709 43.872143 101 101 101 0
8.555708 2.413148 44.770840 103 103 103 0
8.840806 2.461997 45.677119 102 102 102 0
-7.010086 2.015400 35.765743 162 162 162 0
-6.917438 2.013938 35.739800 162 162 162 0
-6.830982 2.014264 35.745591 160 160 160 0
-6.744553 2.014607 35.751673 160 160 160 0
-6.644041 2.010697 35.682281 161 161 161 0
-6.554196 2.009953 35.669093 160 160 160 0
-6.466018 2.009708 35.664741 157 157 157 0
-6.366298 2.005820 35.595737 159 159 159 0
-6.274760 2.004437 35.571202 160 160 160 0
-6.187482 2.004396 35.570464 160 160 160 0
-6.092258 2.001742 35.523371 157 157 157 0
-5.998175 1.999392 35.481663 155 155 155 0
-5.919030 2.002025 35.528390 149 149 149 0
-5.838799 2.004364 35.569902 136 136 136 0
-5.746976 2.002734 35.540975 124 124 124 0
-5.662087 2.003508 35.554704 119 119 119 0
-5.573886 2.003115 35.547741 123 123 123 0
-5.541660 2.023146 35.903208 152 152 152 0
-5.461954 2.026209 35.957566 159 159 159 0
-5.376284 2.027123 35.973796 161 161 161 0
-5.280885 2.024339 35.924387 154 154 154 0
-5.189770 2.023131 35.902942 156 156 156 0
-5.083296 2.015790 35.772670 153 153 153 0
-4.987501 2.012500 35.714295 152 152 152 0
-4.899933 2.012473 35.713800 155 155 155 0
-4.802228 2.008204 35.638052 154 154 154 0
-4.708053 2.005282 35.586194 157 157 157 0
-4.626029 2.007522 35.625945 158 158 158 0
-4.538618 2.007465 35.624942 156 156 156 0
-4.437196 2.001088 35.511771 156 156 156 0
-4.352563 2.002179 35.531125 155 155 155 0
-4.267462 2.003094 35.547370 154 154 154 0
-4.172713 1.999425 35.482255 154 154 154 0
-4.077640 1.995441 35.411547 153 153 153 0
-3.992607 1.996304 35.426863 153 153 153 0
-3.902921 1.994826 35.400646 153 153 153 0
-3.806097 1.989551 35.307023 154 154 154 0
-3.720056 1.989797 35.311397 154 154 154 0
-3.633918 1.990002 35.315039 152 152 152 0
-3.538178 1.984831 35.223274 156 156 156 0
-3.451178 1.984428 35.216107 157 157 157 0
-3.364798 1.984368 35.215050 160 160 160 0
-3.277788 1.983924 35.207174 159 159 159 0
-3.188483 1.982030 35.173559 151 151 151 0
-3.106157 1.984489 35.217201 137 137 137 0
-3.024659 1.987633 35.272990 126 125 126 0
-2.939909 1.988762 35.293026 116 116 116 0
-2.858105 1.992012 35.350709 107 107 107 0
-2.783113 2.000363 35.498896 101 101 101 0
-2.436666 1.807849 32.082496 97 97 97 0
-2.370642 1.817492 32.253637 92 92 92 0
-2.303628 1.827015 32.422634 91 91 91 0
-2.238202 1.838523 32.626855 84 84 84 0
-2.140062 1.823016 32.351651 82 82 82 0
-2.230742 1.973349 35.019494 67 67 67 0
-1.541526 2.215944 39.324651 110 110 110 0
-1.444467 2.214849 39.305220 132 132 132 0
-1.348229 2.214947 39.306961 133 133 133 0
-1.254113 2.218815 39.375599 136 136 136 0
-1.156706 2.217020 39.343745 137 137 137 0
-1.059196 2.214682 39.302256 136 136 136 0
-0.964057 2.217331 39.349255 139 139 139 0
-0.869246 2.221405 39.421566 139 139 139 0
-0.771671 2.218555 39.370987 140 140 140 0
-0.674898 2.217521 39.352639 139 139 139 0
-0.579803 2.222579 39.442400 141 141 141 0
-0.483636 2.224724 39.480468 141 141 141 0
-0.386433 2.221992 39.431983 144 144 144 0
-0.290521 2.227331 39.526726 143 143 143 0
-0.193783 2.228508 39.547617 141 141 141 0
-0.096476 2.218958 39.378143 134 134 134 0
0.000000 2.181821 38.719086 121 121 121 0
0.092260 2.121984 37.657221 111 111 111 0
0.183989 2.115873 37.548770 107 107 107 0
0.275164 2.109590 37.437259 105 105 105 0
0.365184 2.099810 37.263709 105 105 105 0
0.456107 2.098091 37.233210 108 108 108 0
0.546437 2.094675 37.172585 104 104 104 0
0.637616 2.095025 37.178789 105 105 105 0
0.726914 2.089878 37.087455 100 100 100 0
0.819094 2.093241 37.147139 101 101 101 0
0.910725 2.094667 37.172445 100 100 100 0
1.000907 2.092805 37.139405 99 99 99 0
1.092102 2.093195 37.146310 98 98 98 0
1.186458 2.099117 37.251415 94 94 94 0
1.279410 2.101888 37.300592 97 97 97 0
1.371458 2.102902 37.318574 96 96 96 0
1.465130 2.106125 37.375776 96 96 96 0
1.562006 2.113303 37.503157 95 95 95 0
1.655371 2.115197 37.536766 93 93 93 0
1.752482 2.121425 37.647293 92 92 92 0
1.851218 2.128901 37.779969 90 90 90 0
1.947726 2.133224 37.856678 86 86 86 0
2.046146 2.139153 37.961896 83 83 83 0
2.165720 2.165720 38.433361 74 74 74 0
2.302173 2.206249 39.152594 66 66 66 0
2.445770 2.250109 39.930942 76 76 76 0
2.544722 2.251100 39.948539 100 100 100 0
2.645246 2.253357 39.988595 128 128 128 0
2.743944 2.253954 39.999189 140 140 140 0
2.843212 2.254962 40.017065 140 140 140 0
2.939197 2.253384 39.989076 141 141 141 0
3.039398 2.255037 40.018406 137 137 137 0
3.134861 2.253181 39.985468 136 136 136 0
3.234169 2.254118 40.002092 136 136 136 0
3.334116 2.255431 40.025400 130 130 130 0
3.433120 2.256050 40.036385 126 126 126 0
3.529129 2.254722 40.012804 121 121 121 0
3.626511 2.254317 40.005633 118 118 118 0
3.728418 2.256674 40.047456 118 118 118 0
3.830705 2.259134 40.091106 114 114 114 0
3.930488 2.260030 40.107016 109 109 109 0
4.033388 2.262632 40.153187 102 102 102 0
4.144243 2.269467 40.274473 95 95 95 0
4.252862 2.274787 40.368886 94 94 94 0
4.362273 2.280279 40.466355 97 97 97 0
4.475390 2.287422 40.593110 96 96 96 0
4.582079 2.291039 40.657310 96 96 96 0
4.688017 2.294136 40.712266 96 96 96 0
4.800728 2.300349 40.822516 94 94 94 0
4.914735 2.306916 40.939068 95 95 95 0
5.020774 2.309556 40.985910 95 95 95 0
5.139913 2.318000 41.135762 96 96 96 0
5.252932 2.323412 41.231809 99 99 99 0
5.356961 2.324719 41.254994 98 98 98 0
5.475372 2.332103 41.386032 100 100 100 0
5.585088 2.335582 41.447777 104 104 104 0
5.692854 2.338137 41.493106 105 105 105 0
5.795431 2.338507 41.499688 106 106 106 0
5.907320 2.342558 41.571572 107 107 107 0
6.010338 2.343013 41.579645 109 109 109 0
6.110989 2.342546 41.571351 110 110 110 0
6.225737 2.347409 41.657657 109 109 109 0
6.326485 2.346922 41.649012 107 107 107 0
6.439123 2.350791 41.717672 106 106 106 0
6.540571 2.350518 41.712827 103 103 103 0
6.653117 2.354180 41.777816 102 102 102 0
6.766348 2.357970 41.845069 101 101 101 0
6.883621 2.363034 41.934943 102 102 102 0
6.992260 2.365029 41.970349 101 101 101 0
7.099468 2.366489 41.996262 98 98 98 0
7.216388 2.371099 42.078063 93 93 93 0
7.341622 2.378272 42.205356 92 92 92 0
7.102246 2.268773 40.262168 93 93 93 0
7.597115 2.393612 42.477578 93 93 93 0
7.730377 2.402685 42.638592 96 96 96 0
7.844264 2.405574 42.689872 99 99 99 0
7.969976 2.411967 42.803310 99 99 99 0
8.278924 2.472925 43.885099 101 101 101 0
8.558000 2.523513 44.782836 104 104 104 0
8.328741 2.424823 43.031468 103 103 103 0
-7.011075 2.103323 35.770793 158 158 158 0
-6.913400 2.100273 35.718937 160 160 160 0
-6.834731 2.102994 35.765206 159 159 159 0
-6.740525 2.100943 35.730322 165 165 165 0
-6.643370 2.097906 35.678678 159 159 159 0
-6.551286 2.096412 35.653258 158 158 158 0
-6.463712 2.096339 35.652023 159 159 159 0
-6.359318 2.090735 35.556713 157 157 157 0
-6.272606 2.090869 35.558991 154 154 154 0
-6.183573 2.090222 35.547991 156 156 156 0
-6.088956 2.087642 35.504119 156 156 156 0
-5.996964 2.085900 35.474497 158 158 158 0
-5.916885 2.088312 35.515514 151 151 151 0
-5.838301 2.091332 35.566868 138 138 138 0
-5.746771 2.089735 35.539706 124 124 124 0
-5.633063 2.079900 35.372453 118 118 118 0
-5.562091 2.085784 35.472518 120 120 120 0
-5.537387 2.109481 35.875521 151 151 151 0
-5.460349 2.113684 35.946998 161 161 161 0
-5.371231 2.113271 35.939988 162 162 162 0
-5.281463 2.112585 35.928320 159 159 159 0
-5.187804 2.110293 35.889337 156 156 156 0
-5.087927 2.105349 35.805254 156 156 156 0
-4.987435 2.099973 35.713822 155 155 155 0
-4.898631 2.099413 35.704306 156 156 156 0
-4.802594 2.095677 35.640769 156 156 156 0
-4.707618 2.092275 35.582903 157 157 157 0
-4.623772 2.093784 35.608564 157 157 157 0
-4.534641 2.092911 35.593726 155 155 155 0
-4.439826 2.089330 35.532820 155 155 155 0
-4.351256 2.088603 35.520456 158 158 158 0
-4.267462 2.090185 35.547370 158 158 158 0
-4.170498 2.085249 35.463416 153 153 153 0
-4.077676 2.082217 35.411861 154 154 154 0
-3.992467 2.083026 35.425614 153 153 153 0
-3.903811 2.082032 35.408716 152 152 152 0
-3.808885 2.077574 35.332889 152 152 152 0
-3.720617 2.076624 35.316727 152 152 152 0
-3.634779 2.077017 35.323415 152 152 152 0
-3.539803 2.072080 35.239449 153 153 153 0
-3.451516 2.070910 35.219555 154 154 154 0
-3.365738 2.071223 35.224887 157 157 157 0
-3.278441 2.070594 35.214191 157 157 157 0
-3.188483 2.068205 35.173559 151 151 151 0
-3.105741 2.070494 35.212485 137 137 137 0
-3.023088 2.072974 35.254668 127 127 127 0
-2.942263 2.076891 35.321280 118 118 118 0
-2.859166 2.079393 35.363831 109 109 109 0
-2.776155 2.082117 35.410146 103 103 103 0
-2.433085 1.883679 32.035353 99 99 99 0
-2.366414 1.893132 32.196115 88 88 88 0
-2.294661 1.899029 32.296419 87 87 87 0
-2.228946 1.910525 32.491930 83 83 83 0
-2.115012 1.880011 31.972977 79 79 79 0
-2.085910 1.925455 32.745833 66 66 66 0
-1.539087 2.308630 39.262415 87 87 87 0
-1.447473 2.315956 39.387010 128 128 128 0
-1.349285 2.313059 39.337744 132 132 132 0
-1.255660 2.318142 39.424184 133 133 133 0
-1.159757 2.319514 39.447516 132 132 132 0
-1.060578 2.313988 39.353532 134 134 134 0
-0.965026 2.316063 39.388831 134 134 134 0
-0.869988 2.319968 39.455231 135 135 135 0
-0.772658 2.317973 39.421308 138 138 138 0
-0.675735 2.316805 39.401442 137 137 137 0
-0.580266 2.321066 39.473909 136 136 136 0
-0.483636 2.321452 39.480468 136 136 136 0
-0.386722 2.320333 39.461454 138 138 138 0
-0.290297 2.322373 39.496136 139 139 139 0
-0.193959 2.327507 39.583459 141 141 141 0
-0.096860 2.324650 39.534866 143 143 143 0
0.000000 2.324213 39.527424 143 143 143 0
0.096912 2.325898 39.556096 138 138 138 0
0.193406 2.320877 39.470694 125 125 125 0
0.284469 2.275749 38.703212 117 117 117 0
0.370804 2.224825 37.837153 107 107 107 0
0.462116 2.218159 37.723795 107 107 107 0
0.553181 2.212723 37.631335 101 101 101 0
0.643712 2.207011 37.534205 101 101 101 0
0.735311 2.205934 37.515882 100 100 100 0
0.827520 2.206721 37.529265 98 98 98 0
0.919586 2.207007 37.534135 99 99 99 0
1.010168 2.204003 37.483045 99 99 99 0
1.102421 2.204843 37.497326 96 96 96 0
1.195573 2.207211 37.537608 96 96 96 0
1.289073 2.209840 37.582313 95 95 95 0
1.383857 2.214172 37.655984 96 96 96 0
1.476845 2.215268 37.674624 91 91 91 0
1.574704 2.223111 37.808010 92 92 92 0
1.672256 2.229675 37.919645 93 93 93 0
1.775934 2.243285 38.151101 90 90 90 0
1.901602 2.281922 38.808201 90 90 90 0
2.033979 2.324548 39.533124 84 84 84 0
2.151049 2.346599 39.908150 85 85 85 0
2.249234 2.347026 39.915416 99 99 99 0
2.351111 2.351111 39.984876 120 120 120 0
2.452058 2.353976 40.033601 128 128 128 0
2.548894 2.352825 40.014034 135 135 135 0
2.647325 2.353177 40.020025 139 139 139 0
2.746173 2.353862 40.031673 137 137 137 0
2.842871 2.352721 40.012257 137 137 137 0
2.943573 2.354858 40.048612 137 137 137 0
3.041644 2.354821 40.047973 131 131 131 0
3.141677 2.356258 40.072412 123 123 123 0
3.239928 2.356311 40.073324 122 122 122 0
3.336355 2.355074 40.052276 119 119 119 0
3.437105 2.356872 40.082855 117 117 117 0
3.539464 2.359643 40.129982 116 116 116 0
3.636362 2.358721 40.114306 115 115 115 0
3.742392 2.363616 40.197547 115 115 115 0
3.842479 2.364602 40.214323 112 112 112 0
3.943930 2.366358 40.244180 105 105 105 0
4.051965 2.371882 40.338126 96 96 96 0
4.164639 2.379794 40.472683 94 94 94 0
4.271855 2.384291 40.549167 94 94 94 0
4.386350 2.392554 40.689699 96 96 96 0
4.496465 2.398115 40.784267 97 97 97 0
4.608209 2.404283 40.889169 95 95 95 0
4.713028 2.406653 40.929465 94 94 94 0
4.836418 2.418209 41.126004 92 92 92 0
4.940189 2.419685 41.151098 95 95 95 0
5.050345 2.424165 41.227303 96 96 96 0
5.168641 2.432301 41.365670 95 95 95 0
5.282185 2.437931 41.461420 96 96 96 0
5.383261 2.437703 41.457535 98 98 98 0
5.502504 2.445557 41.591112 101 101 101 0
5.605629 2.446093 41.600213 102 102 102 0
5.712961 2.448412 41.639660 105 105 105 0
5.824019 2.452219 41.704399 108 108 108 0
5.925670 2.452001 41.700701 108 108 108 0
6.034036 2.454523 41.743592 107 107 107 0
6.136659 2.454664 41.745978 106 106 106 0
6.245044 2.457066 41.786844 105 105 105 0
6.351406 2.458609 41.813073 102 102 102 0
6.455451 2.459219 41.823460 101 101 101 0
6.569928 2.463723 41.900051 101 101 101 0
6.678141 2.465775 41.934954 99 99 99 0
6.796845 2.471580 42.033676 100 100 100 0
6.911216 2.475660 42.103054 99 99 99 0
7.018925 2.477268 42.130401 96 96 96 0
7.138979 2.483123 42.229987 93 93 93 0
7.262175 2.489889 42.345045 90 90 90 0
7.382469 2.495482 42.440179 93 93 93 0
7.514073 2.504691 42.596788 94 94 94 0
7.632898 2.509446 42.677651 96 96 96 0
7.760628 2.516960 42.805450 97 97 97 0
7.898120 2.527398 42.982967 100 100 100 0
8.170413 2.580130 43.879769 100 100 100 0
8.282085 2.581429 43.901856 101 101 101 0
7.876264 2.423466 41.215407 100 100 100 0
8.498048 2.581686 43.906217 98 98 98 0
-7.002887 2.188402 35.729016 156 156 156 0
-6.909259 2.186475 35.697543 158 158 158 0
-6.826751 2.188061 35.723446 162 162 162 0
-6.735521 2.186857 35.703796 161 161 161 0
-6.641086 2.184568 35.666411 158 158 158 0
-6.549436 2.183145 35.643190 157 157 157 0
-6.456169 2.181138 35.610421 157 157 157 0
-6.362558 2.178958 35.574830 155 155 155 0
-6.269871 2.177039 35.543487 155 155 155 0
-6.181779 2.176683 35.537675 156 156 156 0
-6.083985 2.172852 35.475133 156 156 156 0
-5.990889 2.170612 35.438562 154 154 154 0
-5.906029 2.171334 35.450354 148 148 148 0
-5.828872 2.174952 35.509425 136 136 136 0
-5.742997 2.175378 35.516373 124 124 124 0
-5.620251 2.161635 35.291997 120 120 120 0
-5.541104 2.164494 35.338674 119 119 119 0
-5.529278 2.194158 35.822986 140 140 140 0
-5.460747 2.201914 35.949620 164 164 164 0
-5.372238 2.201737 35.946727 164 164 164 0
-5.281640 2.200683 35.929523 155 155 155 0
-5.191668 2.199859 35.916068 154 154 154 0
-5.089209 2.193624 35.814276 155 155 155 0
-4.987374 2.187445 35.713385 155 155 155 0
-4.896903 2.186117 35.691711 154 154 154 0
-4.799667 2.181667 35.619047 156 156 156 0
-4.708053 2.179654 35.586194 157 157 157 0
-4.624042 2.181152 35.610641 158 158 158 0
-4.535593 2.180573 35.601199 155 155 155 0
-4.438249 2.175612 35.520204 155 155 155 0
-4.351528 2.175764 35.522675 157 157 157 0
-4.267043 2.177063 35.543878 157 157 157 0
-4.172536 2.173196 35.480746 156 156 156 0
-4.080540 2.170500 35.436730 151 151 151 0
-3.994484 2.170915 35.443514 153 153 153 0
-3.906045 2.170025 35.428979 153 153 153 0
-3.811481 2.165614 35.356967 150 150 150 0
-3.724359 2.165325 35.352244 151 151 151 0
-3.635302 2.163870 35.328494 148 148 148 0
-3.540226 2.158675 35.243666 151 151 151 0
-3.452632 2.157895 35.230941 151 151 151 0
-3.366447 2.157979 35.232305 153 153 153 0
-3.278713 2.157048 35.217109 154 154 154 0
-3.188840 2.154621 35.177491 147 147 147 0
-3.106237 2.157109 35.218109 138 138 138 0
-3.022719 2.159085 35.250366 127 127 127 0
-2.941505 2.162871 35.312183 121 121 121 0
-2.857456 2.164740 35.342687 115 115 115 0
-2.774662 2.167705 35.391100 110 110 110 0
-2.701057 2.178271 35.563614 96 96 96 0
-2.362625 1.968854 32.144556 86 86 86 0
-2.291022 1.975019 32.245214 84 84 84 0
-2.218757 1.981033 32.343398 79 79 79 0
-2.009916 1.861033 30.384220 74 74 74 0
-1.384042 2.162566 35.307195 76 76 76 0
-1.449418 2.415696 39.439936 126 126 126 0
-1.353038 2.416139 39.447172 132 132 132 0
-1.257698 2.418650 39.488155 130 130 130 0
-1.161069 2.418893 39.492138 131 131 131 0
-1.063110 2.416158 39.447479 132 132 132 0
-0.966283 2.415707 39.440116 130 130 130 0
-0.871479 2.420776 39.522870 135 135 135 0
-0.773122 2.416007 39.445015 133 133 133 0
-0.676308 2.415386 39.434872 134 134 134 0
-0.580731 2.419714 39.505538 137 137 137 0
-0.484067 2.420335 39.515668 136 136 136 0
-0.387056 2.419099 39.495488 135 135 135 0
-0.290359 2.419660 39.504649 137 137 137 0
-0.193903 2.423793 39.572130 138 138 138 0
-0.096898 2.422442 39.550071 139 139 139 0
0.000000 2.421081 39.527853 140 140 140 0
0.097090 2.427244 39.628466 142 142 142 0
0.194073 2.425915 39.606781 142 142 142 0
0.291113 2.425944 39.607257 138 138 138 0
0.388050 2.425314 39.596960 132 132 132 0
0.485405 2.427023 39.624871 125 125 125 0
0.579753 2.415637 39.438966 116 116 116 0
0.673053 2.403759 39.245051 116 116 116 0
0.760944 2.377949 38.823664 111 111 111 0
0.853090 2.369694 38.688889 107 107 107 0
0.940933 2.352334 38.405445 105 105 105 0
1.031734 2.344850 38.283269 101 101 101 0
1.121092 2.335609 38.132385 100 100 100 0
1.221199 2.348459 38.342192 100 100 100 0
1.320864 2.358686 38.509165 99 99 99 0
1.427717 2.379528 38.849437 105 105 105 0
1.542765 2.410570 39.356253 106 106 106 0
1.651973 2.429372 39.663210 113 113 113 0
1.758463 2.442310 39.874455 121 121 121 0
1.859471 2.446672 39.945666 128 128 128 0
1.958124 2.447655 39.961712 130 130 130 0
2.057253 2.449110 39.985476 137 137 137 0
2.155919 2.449908 39.998493 135 135 135 0
2.254000 2.450000 40.000000 134 134 134 0
2.353718 2.451790 40.029221 134 134 134 0
2.454484 2.454484 40.073202 134 134 134 0
2.550426 2.452333 40.038090 133 133 133 0
2.650258 2.453943 40.064374 136 136 136 0
2.749624 2.455022 40.081988 133 133 133 0
2.846655 2.454013 40.065523 128 128 128 0
2.945662 2.454719 40.077038 124 124 124 0
3.046908 2.457184 40.117286 118 118 118 0
3.147916 2.459309 40.151987 116 116 116 0
3.246080 2.459152 40.149416 116 116 116 0
3.346224 2.460459 40.170753 116 116 116 0
3.447844 2.462746 40.208096 115 115 115 0
3.546066 2.462546 40.204830 118 118 118 0
3.643428 2.461776 40.192255 117 117 117 0
3.751330 2.467981 40.293560 113 113 113 0
3.853933 2.470470 40.334197 103 103 103 0
3.964730 2.477956 40.456431 92 92 92 0
4.068251 2.480641 40.500259 92 92 92 0
4.181060 2.488726 40.632269 94 94 94 0
4.296647 2.498050 40.784495 95 95 95 0
4.402023 2.501150 40.835096 93 93 93 0
4.518254 2.510141 40.981896 95 95 95 0
4.625151 2.513669 41.039496 93 93 93 0
4.736626 2.519482 41.134401 93 93 93 0
4.859603 2.531043 41.323157 93 93 93 0
4.971532 2.536496 41.412175 93 93 93 0
5.082307 2.541153 41.488220 97 97 97 0
5.203232 2.550604 41.642511 94 94 94 0
5.306945 2.551416 41.655766 97 97 97 0
5.409073 2.551450 41.656319 99 99 99 0
5.532319 2.561259 41.816468 101 101 101 0
5.626653 2.557570 41.756238 102 102 102 0
5.740777 2.562847 41.842395 103 103 103 0
5.850991 2.566224 41.897538 105 105 105 0
5.949119 2.564276 41.865723 103 103 103 0
6.053013 2.564836 41.874877 104 104 104 0
6.158242 2.565934 41.892802 103 103 103 0
6.271485 2.570281 41.963770 100 100 100 0
6.372386 2.569511 41.951194 101 101 101 0
6.489426 2.575169 42.043578 99 99 99 0
6.603976 2.579678 42.117194 98 98 98 0
6.709649 2.580634 42.132806 98 98 98 0
6.823726 2.584745 42.199914 97 97 97 0
6.936429 2.588220 42.256652 95 95 95 0
7.060778 2.595874 42.381619 93 93 93 0
7.168707 2.597358 42.405839 92 92 92 0
7.301603 2.607715 42.574945 91 91 91 0
7.419772 2.612596 42.654623 94 94 94 0
7.551774 2.622144 42.810509 95 95 95 0
7.665460 2.625158 42.859717 96 96 96 0
7.785180 2.630128 42.940869 99 99 99 0
7.906218 2.635406 43.027037 99 99 99 0
8.029826 2.641390 43.124739 98 98 98 0
8.285654 2.690147 43.920774 98 98 98 0
8.566333 2.745619 44.826441 97 97 97 0
8.677689 2.746104 44.834351 94 94 94 0
-6.989893 2.271715 35.662718 155 155 155 0
-6.905209 2.272600 35.676615 157 157 157 0
-6.818452 2.272817 35.680019 158 158 158 0
-6.735333 2.274268 35.702797 156 156 156 0
-6.635391 2.270002 35.635827 159 159 159 0
-6.545098 2.268967 35.619581 156 156 156 0
-6.452915 2.267241 35.592473 157 157 157 0
-6.357893 2.264455 35.548745 157 157 157 0
-6.265299 2.262469 35.517568 157 157 157 0
-6.178221 2.262447 35.517224 158 158 158 0
-6.079592 2.258134 35.449516 154 154 154 0
-5.988622 2.256582 35.425149 155 155 155 0
-5.905054 2.257815 35.444501 148 148 148 0
-5.821936 2.259259 35.467169 137 137 137 0
-5.261998 2.072908 32.541731 125 125 125 0
-5.632155 2.252862 35.366753 113 113 113 0
-5.542145 2.251496 35.345312 117 117 117 0
-5.516009 2.276448 35.737018 135 135 135 0
-5.458145 2.288899 35.932487 155 155 155 0
-5.371265 2.289392 35.940214 158 158 158 0
-5.285653 2.290450 35.956826 158 158 158 0
-5.194954 2.289302 35.938804 154 154 154 0
-5.092506 2.282848 35.837481 156 156 156 0
-4.989632 2.275973 35.729555 154 154 154 0
-4.897219 2.273709 35.694017 155 155 155 0
-4.802836 2.270432 35.642568 156 156 156 0
-4.708585 2.267097 35.590215 156 156 156 0
-4.623947 2.268351 35.609913 158 158 158 0
-4.534200 2.267100 35.590266 156 156 156 0
-4.438650 2.262841 35.523407 155 155 155 0
-4.351453 2.262756 35.522068 155 155 155 0
-4.267225 2.264242 35.545395 154 154 154 0
-4.173148 2.260455 35.485954 156 156 156 0
-4.082564 2.258440 35.454311 154 154 154 0
-3.994885 2.257979 35.447074 153 153 153 0
-3.907570 2.257707 35.442816 151 151 151 0
-3.812090 2.252599 35.362614 152 152 152 0
-3.725087 2.252378 35.359152 150 150 150 0
-3.639666 2.253127 35.370905 150 150 150 0
-3.544542 2.247758 35.286628 150 150 150 0
-3.454345 2.245324 35.248420 150 150 150 0
-3.367356 2.244904 35.241823 149 149 149 0
-3.281129 2.244983 35.243057 149 149 149 0
-3.189882 2.241538 35.188986 145 145 145 0
-3.106885 2.243861 35.225453 137 137 137 0
-3.024507 2.246777 35.271217 127 127 127 0
-2.942819 2.250391 35.327964 125 125 125 0
-2.857464 2.251335 35.342781 120 120 120 0
-2.778249 2.257327 35.436847 111 111 111 0
-2.699744 2.264301 35.546328 95 95 95 0
-2.363595 2.048449 32.157760 87 87 87 0
-2.303434 2.065147 32.419898 87 87 87 0
-2.229287 2.070052 32.496895 80 80 80 0
-2.115309 2.036964 31.977458 72 72 72 0
-1.539425 2.501566 39.271057 72 72 72 0
-1.452924 2.518402 39.535346 126 126 126 0
-1.354735 2.515936 39.496637 130 130 130 0
-1.259274 2.518548 39.537653 131 131 131 0
-1.163904 2.521793 39.588582 128 128 128 0
-1.064584 2.516291 39.502207 129 129 129 0
-0.968131 2.517142 39.515570 130 130 130 0
-0.872508 2.520578 39.569511 130 130 130 0
-0.774792 2.518074 39.530205 130 130 130 0
-0.676914 2.514251 39.470187 134 134 134 0
-0.581238 2.518699 39.540011 133 133 133 0
-0.484603 2.519935 39.559427 135 135 135 0
-0.386925 2.515012 39.482138 136 136 136 0
-0.290584 2.518396 39.535266 135 135 135 0
-0.193951 2.521363 39.581841 137 137 137 0
-0.097005 2.522120 39.593727 137 137 137 0
0.000000 2.519422 39.551370 138 138 138 0
0.097108 2.524816 39.636042 141 141 141 0
0.194280 2.525642 39.649012 140 140 140 0
0.291027 2.522235 39.595519 140 140 140 0
0.388437 2.524841 39.636434 138 138 138 0
0.486395 2.529254 39.705711 136 136 136 0
0.583299 2.527630 39.680222 136 136 136 0
0.680280 2.526753 39.666451 136 136 136 0
0.778932 2.531528 39.741410 134 134 134 0
0.876926 2.533341 39.769875 132 132 132 0
0.972920 2.529592 39.711021 127 127 127 0
1.072373 2.534699 39.791200 125 125 125 0
1.170838 2.536816 39.824421 127 127 127 0
1.270406 2.540813 39.887173 127 127 127 0
1.368827 2.542108 39.907501 130 130 130 0
1.467672 2.543965 39.936655 134 134 134 0
1.565953 2.544673 39.947773 134 134 134 0
1.664601 2.545860 39.966408 137 137 137 0
1.762787 2.546248 39.972493 139 139 139 0
1.861140 2.546823 39.981517 141 141 141 0
1.959719 2.547634 39.994260 139 139 139 0
2.058014 2.548017 40.000266 136 136 136 0
2.158327 2.550750 40.043177 133 133 133 0
2.255859 2.550101 40.032988 131 131 131 0
2.355547 2.551842 40.060318 131 131 131 0
2.455235 2.553444 40.085466 128 128 128 0
2.552316 2.552316 40.067751 130 130 130 0
2.653320 2.555049 40.110665 126 126 126 0
2.753964 2.557253 40.145254 122 122 122 0
2.849774 2.554970 40.109412 120 120 120 0
2.950504 2.557103 40.142906 120 120 120 0
3.052384 2.560064 40.189386 118 118 118 0
3.154596 2.563109 40.237195 119 119 119 0
3.252652 2.562696 40.230699 117 117 117 0
3.354691 2.565352 40.272404 118 118 118 0
3.458746 2.569354 40.335233 120 120 120 0
3.553076 2.566110 40.284308 117 117 117 0
3.656359 2.569333 40.334901 109 109 109 0
3.764605 2.575783 40.436146 96 96 96 0
3.873605 2.582403 40.540080 91 91 91 0
3.978408 2.585965 40.595998 92 92 92 0
4.095867 2.597379 40.775182 93 93 93 0
4.204917 2.603044 40.864109 92 92 92 0
4.317849 2.610793 40.985754 92 92 92 0
4.432160 2.619004 41.114658 91 91 91 0
4.544667 2.625808 41.221471 92 92 92 0
4.657380 2.632432 41.325469 91 91 91 0
4.778353 2.643344 41.496767 91 91 91 0
4.896250 2.652135 41.634779 93 93 93 0
4.998767 2.652407 41.639042 95 95 95 0
5.116406 2.660531 41.766578 96 96 96 0
5.225603 2.664033 41.821555 96 96 96 0
5.332435 2.666217 41.855844 98 98 98 0
5.443358 2.670327 41.920356 98 98 98 0
5.555184 2.674718 41.989296 101 101 101 0
5.662351 2.676748 42.021157 102 102 102 0
5.766275 2.677199 42.028245 101 101 101 0
5.873767 2.679262 42.060629 103 103 103 0
5.975994 2.678894 42.054850 102 102 102 0
6.080801 2.679675 42.067109 102 102 102 0
6.193570 2.683880 42.133130 102 102 102 0
6.295285 2.683236 42.123020 103 103 103 0
6.406007 2.686390 42.172530 99 99 99 0
6.516705 2.689434 42.220308 97 97 97 0
6.630583 2.693675 42.286884 95 95 95 0
6.748144 2.699258 42.374534 94 94 94 0
6.862253 2.703312 42.438176 95 95 95 0
6.983930 2.710182 42.546026 94 94 94 0
7.111571 2.719130 42.686498 92 92 92 0
7.235368 2.726371 42.800167 93 93 93 0
7.349946 2.729980 42.856827 93 93 93 0
7.469334 2.735249 42.939543 95 95 95 0
7.597897 2.743685 43.071977 94 94 94 0
7.704041 2.743905 43.075433 97 97 97 0
7.821291 2.748021 43.140047 97 97 97 0
7.947795 2.755236 43.253307 97 97 97 0
8.178337 2.797852 43.922327 96 96 96 0
8.289885 2.799182 43.943204 94 94 94 0
7.883197 2.627732 41.251686 92 92 92 0
8.445486 2.779527 43.634647 92 92 92 0
-6.985500 2.357606 35.640306 155 155 155 0
-6.896336 2.356976 35.630774 154 154 154 0
-6.813795 2.358621 35.655651 154 154 154 0
-6.719605 2.356225 35.619430 157 157 157 0
-6.633655 2.356693 35.626502 157 157 157 0
-6.544339 2.355962 35.615448 160 160 160 0
-6.448184 2.352716 35.566376 159 159 159 0
-6.349989 2.348626 35.504551 158 158 158 0
-6.262509 2.348441 35.501754 155 155 155 0
-6.173228 2.347566 35.488521 155 155 155 0
-6.070648 2.341536 35.397363 155 155 155 0
-5.984544 2.341778 35.401030 154 154 154 0
-5.901126 2.343094 35.420927 146 146 146 0
-5.823425 2.346753 35.476238 133 133 133 0
-5.744211 2.349905 35.523878 123 123 123 0
-5.646122 2.345312 35.454457 117 117 117 0
-5.537421 2.336099 35.315185 116 116 116 0
-5.490673 2.353145 35.572872 127 127 127 0
-5.452014 2.374264 35.892124 149 149 149 0
-5.366825 2.375480 35.910507 163 163 163 0
-5.284875 2.378194 35.951532 159 159 159 0
-5.199147 2.379271 35.967812 156 156 156 0
-5.095760 2.372164 35.860377 152 152 152 0
-4.992372 2.364808 35.749170 153 153 153 0
-4.898520 2.361787 35.703500 154 154 154 0
-4.803308 2.357988 35.646072 154 154 154 0
-4.708154 2.354077 35.586957 157 157 157 0
-4.622522 2.354870 35.598935 156 156 156 0
-4.537013 2.355757 35.612348 157 157 157 0
-4.439297 2.350216 35.528585 154 154 154 0
-4.351328 2.349717 35.521046 152 152 152 0
-4.269765 2.352728 35.566555 153 153 153 0
-4.174889 2.348375 35.500754 153 153 153 0
-4.082298 2.345150 35.452004 152 152 152 0
-3.999675 2.347635 35.489575 151 151 151 0
-3.911047 2.346628 35.474346 151 151 151 0
-3.814761 2.340876 35.387391 151 151 151 0
-3.728014 2.340846 35.386936 150 150 150 0
-3.640774 2.340498 35.381676 150 150 150 0
-3.547664 2.336266 35.317706 149 149 149 0
-3.456300 2.333002 35.268367 151 151 151 0
-3.371124 2.333855 35.281255 148 148 148 0
-3.282434 2.332256 35.257078 148 148 148 0
-3.191290 2.328779 35.204527 145 145 145 0
-3.107832 2.330874 35.236194 137 137 137 0
-3.026448 2.334688 35.293851 126 126 126 0
-2.944156 2.338006 35.344010 126 126 126 0
-2.858045 2.338401 35.349975 124 124 124 0
-2.777222 2.343281 35.423750 111 111 111 0
-2.435994 2.121672 32.073655 98 98 98 0
-2.365743 2.129169 32.186980 88 88 88 0
-2.296154 2.137799 32.317438 80 80 80 0
-2.241344 2.161296 32.672651 76 76 76 0
-2.037490 2.037490 30.801059 71 71 71 0
-1.544450 2.606260 39.399243 68 68 68 0
-1.454875 2.618776 39.588447 125 125 125 0
-1.356947 2.616970 39.561144 127 127 127 0
-1.261421 2.619875 39.605067 128 128 128 0
-1.165822 2.623099 39.653807 129 129 129 0
-1.066850 2.618631 39.586253 130 130 130 0
-0.969686 2.618153 39.579037 129 129 129 0
-0.874109 2.622326 39.642113 130 130 130 0
-0.776460 2.620551 39.615284 130 130 130 0
-0.678250 2.616105 39.548079 130 130 130 0
-0.582305 2.620373 39.612597 130 130 130 0
-0.485454 2.621449 39.628862 130 130 130 0
-0.387938 2.618579 39.585478 131 131 131 0
-0.291059 2.619530 39.599842 131 131 131 0
-0.194279 2.622770 39.648823 132 132 132 0
-0.097086 2.621324 39.626964 135 135 135 0
0.000000 2.619702 39.602453 134 134 134 0
0.097176 2.623759 39.663776 135 135 135 0
0.194420 2.624666 39.677495 136 136 136 0
0.291495 2.623456 39.659196 134 134 134 0
0.388611 2.623125 39.654195 136 136 136 0
0.486505 2.627125 39.714666 136 136 136 0
0.583304 2.624869 39.680566 134 134 134 0
0.680129 2.623356 39.657690 135 135 135 0
0.779002 2.629130 39.744976 129 129 129 0
0.877228 2.631685 39.783603 125 125 125 0
0.974992 2.632479 39.795596 129 129 129 0
1.073831 2.635767 39.845305 128 128 128 0
1.173027 2.639310 39.898871 132 132 132 0
1.270431 2.638587 39.887929 131 131 131 0
1.369011 2.640236 39.912863 134 134 134 0
1.467534 2.641561 39.932896 135 135 135 0
1.567595 2.645317 39.989674 136 136 136 0
1.664507 2.643628 39.964144 136 136 136 0
1.763199 2.644799 39.981847 137 137 137 0
1.862109 2.646154 40.002332 136 136 136 0
1.960393 2.646531 40.008027 136 136 136 0
2.059716 2.648206 40.033354 131 131 131 0
2.158343 2.648875 40.043461 128 128 128 0
2.256366 2.648777 40.041986 129 129 129 0
2.358480 2.653291 40.110212 127 127 127 0
2.457854 2.654483 40.128234 125 125 125 0
2.554688 2.652945 40.104985 123 123 123 0
2.658116 2.658116 40.183156 123 123 123 0
2.759728 2.661166 40.229266 121 121 121 0
2.858709 2.661556 40.235168 118 118 118 0
2.955713 2.660142 40.213788 120 120 120 0
3.061433 2.666409 40.308527 118 118 118 0
3.161359 2.667397 40.323458 116 116 116 0
3.258175 2.665779 40.299006 119 119 119 0
3.360069 2.668290 40.336967 120 120 120 0
3.466397 2.674078 40.424456 118 118 118 0
3.566240 2.674680 40.433555 108 108 108 0
3.669437 2.677697 40.479171 94 94 94 0
3.775030 2.682258 40.548124 92 92 92 0
3.890797 2.693628 40.720006 92 92 92 0
4.003742 2.702526 40.854513 92 92 92 0
4.115430 2.710161 40.969931 91 91 91 0
4.230075 2.719334 41.108598 89 89 89 0
4.350426 2.731663 41.294981 89 89 89 0
4.462737 2.738498 41.398302 92 92 92 0
4.584157 2.750494 41.579657 92 92 92 0
4.686225 2.750610 41.581412 92 92 92 0
4.803261 2.759320 41.713074 91 91 91 0
4.932785 2.774692 41.945451 93 93 93 0
5.046093 2.780500 42.033262 95 95 95 0
5.158359 2.785514 42.109055 96 96 96 0
5.265416 2.787573 42.140185 98 98 98 0
5.374687 2.790703 42.187493 98 98 98 0
5.484131 2.793802 42.234353 103 103 103 0
5.587370 2.793685 42.232577 101 101 101 0
5.688819 2.792693 42.217583 101 101 101 0
5.801018 2.796919 42.281473 102 102 102 0
5.910669 2.799791 42.324880 103 103 103 0
6.001800 2.793941 42.236450 101 101 101 0
6.117110 2.799355 42.318297 100 100 100 0
6.220181 2.799082 42.314158 99 99 99 0
6.335666 2.804311 42.393213 97 97 97 0
6.438408 2.803823 42.385832 95 95 95 0
6.552888 2.808381 42.454734 95 95 95 0
6.673909 2.815555 42.563193 96 96 96 0
6.795665 2.822815 42.672933 92 92 92 0
6.909089 2.826446 42.727826 93 93 93 0
7.033576 2.834426 42.848468 95 95 95 0
7.138730 2.834496 42.849519 96 96 96 0
7.272295 2.845680 43.018602 95 95 95 0
7.393773 2.851884 43.112379 95 95 95 0
7.508039 2.855170 43.162054 96 96 96 0
7.628481 2.860680 43.245357 94 94 94 0
7.745226 2.864673 43.305710 96 96 96 0
7.867335 2.870514 43.394015 96 96 96 0
7.997911 2.879248 43.526047 96 96 96 0
8.116419 2.883465 43.589790 94 94 94 0
8.295558 2.908832 43.973275 92 92 92 0
8.575726 2.968521 44.875595 92 92 92 0
8.478708 2.897786 43.806293 90 90 90 0
-6.977005 2.441952 35.596965 152 152 152 0
-6.889632 2.441895 35.596136 153 153 153 0
-6.811012 2.444979 35.641089 154 154 154 0
-6.716630 2.442411 35.603659 155 155 155 0
-6.629271 2.442363 35.602960 154 154 154 0
-6.537568 2.440692 35.578601 157 157 157 0
-6.445917 2.438996 35.553874 158 158 158 0
-6.343184 2.433002 35.466502 156 156 156 0
-6.258845 2.433995 35.480983 157 157 157 0
-6.169241 2.432940 35.465600 158 158 158 0
-6.071227 2.428491 35.400743 158 158 158 0
-5.979541 2.426480 35.371432 156 156 156 0
-5.898770 2.428905 35.406782 146 146 146 0
-5.814239 2.429831 35.420280 134 134 134 0
-5.737061 2.433905 35.479660 123 123 123 0
-5.632843 2.426456 35.371072 115 115 115 0
-5.546243 2.426481 35.371445 116 116 116 0
-5.481141 2.436062 35.511115 122 122 122 0
-5.438203 2.455963 35.801207 140 140 140 0
