ply
format ascii 1.0
element vertex 1138
property float x
property float y
property float z
property uchar red
property uchar green
property uchar blue
property uchar alpha
end_header
-5.784835 1.509087 34.219670 134 134 134 0
-5.697434 1.508144 34.198283 131 131 131 0
-5.619752 1.509784 34.235466 126 126 126 0
-5.546718 1.512741 34.302522 127 127 127 0
-5.467600 1.514105 34.333437 123 123 123 0
-5.394261 1.517136 34.402177 119 119 119 0
-5.316306 1.518945 34.443191 118 118 118 0
-5.244495 1.522595 34.525973 116 116 116 0
-5.175426 1.527175 34.629818 114 114 114 0
-5.101719 1.530516 34.705572 112 112 112 0
-4.583884 1.398473 31.711410 114 114 114 0
-4.522485 1.403530 31.826075 108 108 108 0
-4.450444 1.405403 31.868559 111 111 111 0
-4.393492 1.412194 32.022538 108 108 108 0
-4.328346 1.416549 32.121302 106 106 106 0
-4.258583 1.419528 32.188837 110 110 110 0
-4.195619 1.424927 32.311276 103 103 103 0
-4.145316 1.434917 32.537799 107 107 107 0
-4.057302 1.431989 32.471405 115 115 115 0
-3.980822 1.433096 32.496502 113 113 113 0
-4.296610 1.578347 35.790172 118 118 118 0
-4.237284 1.588982 36.031330 124 124 124 0
-4.160248 1.593286 36.128941 133 133 133 0
-4.078887 1.596086 36.192435 149 149 149 0
-3.989700 1.595880 36.187753 150 150 150 0
-3.893395 1.592753 36.116837 150 150 150 0
-3.798293 1.589983 36.054043 150 150 150 0
-3.700051 1.585736 35.957740 147 147 147 0
-3.609903 1.584835 35.937311 144 144 144 0
-3.514812 1.581665 35.865430 144 144 144 0
-3.422593 1.579658 35.819912 139 139 139 0
-3.337016 1.580692 35.843349 132 132 132 0
-3.255330 1.583674 35.910982 130 130 130 0
-3.165810 1.582905 35.893541 126 126 126 0
-3.082298 1.585182 35.945170 127 127 127 0
-2.998950 1.587679 36.001802 132 132 132 0
-2.914393 1.589669 36.046914 130 130 130 0
-2.830329 1.592060 36.101136 125 125 125 0
-2.745281 1.594034 36.145897 118 118 118 0
-2.385657 1.431394 32.457913 104 104 104 0
-2.542707 1.578232 35.787570 89 89 89 0
-2.470241 1.588012 36.009338 78 78 78 0
-2.170692 1.447128 32.814701 65 65 65 0
-2.125696 1.594272 36.151291 104 104 104 0
-2.031552 1.589910 36.052385 149 149 149 0
-1.936001 1.584001 35.918395 152 152 152 0
-1.846062 1.582339 35.880694 152 152 152 0
-1.755091 1.579582 35.818192 153 153 153 0
-1.668011 1.580221 35.832677 153 153 153 0
-1.575460 1.575460 35.724727 151 151 151 0
-1.483965 1.571257 35.629420 151 151 151 0
-1.397434 1.572114 35.648833 152 152 152 0
-1.305376 1.566451 35.520433 151 151 151 0
-1.213770 1.560561 35.386873 146 146 146 0
-1.125269 1.558065 35.330261 150 150 150 0
-1.036329 1.554494 35.249301 146 146 146 0
-0.946926 1.549516 35.136412 149 149 149 0
-0.860599 1.549078 35.126477 150 150 150 0
-0.773350 1.546700 35.072570 152 152 152 0
-0.686633 1.544925 35.032305 150 150 150 0
-0.600179 1.543317 34.995849 149 149 149 0
-0.513920 1.541761 34.960577 149 149 149 0
-0.428100 1.541161 34.946968 150 150 150 0
-0.342442 1.540989 34.943052 145 145 145 0
-0.256758 1.540551 34.933122 147 147 147 0
-0.171127 1.540141 34.923822 144 144 144 0
-0.085576 1.540361 34.928815 142 142 142 0
0.000000 1.541363 34.951536 140 140 140 0
0.085702 1.542640 34.980500 140 140 140 0
0.171545 1.543907 35.009225 138 138 138 0
0.257516 1.545095 35.036171 133 133 133 0
0.343415 1.545368 35.042358 132 132 132 0
0.429543 1.546354 35.064723 135 135 135 0
0.516184 1.548552 35.114556 137 137 137 0
0.601908 1.547764 35.096682 137 137 137 0
0.688625 1.549406 35.133916 142 142 142 0
0.775815 1.551631 35.184368 150 150 150 0
0.863884 1.554990 35.260554 155 155 155 0
0.949011 1.552927 35.213766 156 156 156 0
1.034284 1.551426 35.179730 154 154 154 0
1.120104 1.550914 35.168107 155 155 155 0
1.204773 1.548994 35.124581 152 152 152 0
1.288711 1.546454 35.066973 146 146 146 0
1.374615 1.546442 35.066718 136 136 136 0
1.462217 1.548230 35.107252 125 125 125 0
1.550534 1.550534 35.159511 107 107 107 0
1.640713 1.554360 35.246250 96 96 96 0
1.508500 1.357650 30.785718 89 89 89 0
1.594723 1.366906 30.995590 77 77 77 0
3.116597 1.753086 39.752514 76 76 76 0
3.233177 1.763551 39.989824 105 105 105 0
3.332286 1.764152 40.003439 108 108 108 0
3.435976 1.767073 40.069691 111 111 111 0
3.532188 1.766094 40.047488 110 110 110 0
3.629034 1.765476 40.033474 111 111 111 0
3.730659 1.767154 40.071522 110 110 110 0
3.832012 1.768621 40.104785 111 111 111 0
3.921046 1.764471 40.010674 112 112 112 0
4.018561 1.764246 40.005588 113 113 113 0
4.120167 1.765786 40.040494 111 111 111 0
4.217352 1.765403 40.031819 114 114 114 0
4.308588 1.762604 39.968353 111 111 111 0
4.404410 1.761764 39.949301 112 112 112 0
4.503480 1.762231 39.959896 114 114 114 0
4.595175 1.759854 39.905989 113 113 113 0
4.690272 1.758852 39.883268 113 113 113 0
4.794454 1.761228 39.937144 110 110 110 0
4.954255 1.783532 40.442898 107 107 107 0
4.435603 1.565507 35.499023 106 106 106 0
4.564111 1.579885 35.825047 103 103 103 0
4.649712 1.579147 35.808332 105 105 105 0
4.725900 1.575300 35.721088 106 106 106 0
4.812350 1.574951 35.713174 105 105 105 0
4.901569 1.575504 35.725723 107 107 107 0
4.973641 1.570623 35.615045 107 107 107 0
5.064619 1.571778 35.641230 110 110 110 0
5.195613 1.585102 35.943366 112 112 112 0
5.228479 1.568544 35.567887 115 115 115 0
5.500224 1.623017 36.803105 116 116 116 0
5.386014 1.563681 35.457628 117 117 117 0
5.545421 1.584406 35.927575 116 116 116 0
5.769424 1.622650 36.794794 118 118 118 0
5.579766 1.545166 35.037779 118 118 118 0
5.707836 1.556683 35.298927 116 116 116 0
6.182062 1.660852 37.661053 116 116 116 0
5.690181 1.506224 34.154750 113 113 113 0
6.514791 1.699511 38.537655 113 113 113 0
6.760043 1.738297 39.417160 109 109 109 0
6.857607 1.738548 39.422863 111 111 111 0
7.110890 1.777723 40.311170 112 112 112 0
7.210188 1.777854 40.314160 113 113 113 0
7.311299 1.778424 40.327075 113 113 113 0
6.471372 1.553129 35.218349 112 112 112 0
8.009057 1.896882 43.013196 104 104 104 0
8.118004 1.897715 43.032089 99 99 99 0
8.305410 1.916633 43.461066 91 91 91 0
8.337525 1.899689 43.076856 89 89 89 0
-6.934935 1.647047 35.382319 134 134 134 0
-6.829031 1.642425 35.283034 134 134 134 0
-6.729078 1.639134 35.212340 133 133 133 0
-6.628866 1.635694 35.138435 132 132 132 0
-6.538683 1.634671 35.116452 130 130 130 0
-6.425831 1.627877 34.970506 131 131 131 0
-6.320321 1.622785 34.861120 133 133 133 0
-6.203320 1.614563 34.684486 134 134 134 0
-6.104222 1.610836 34.604436 130 130 130 0
-5.987506 1.602290 34.420843 130 130 130 0
-5.887274 1.597974 34.328131 130 130 130 0
-5.796297 1.596082 34.287473 133 133 133 0
-5.707045 1.594616 34.255973 133 133 133 0
-5.624926 1.595128 34.266985 127 127 127 0
-5.552669 1.598496 34.339328 122 122 122 0
-5.475283 1.600467 34.381681 119 119 119 0
-5.398024 1.602538 34.426175 117 117 117 0
-5.322193 1.605106 34.481328 115 115 115 0
-5.249003 1.608565 34.555649 114 114 114 0
-5.177997 1.612819 34.647018 115 115 115 0
-5.105447 1.616725 34.730932 113 113 113 0
-5.032851 1.620749 34.817371 111 111 111 0
-4.522169 1.481400 31.823848 107 107 107 0
-4.898649 1.632883 35.078042 104 104 104 0
-4.400670 1.493085 32.074857 106 106 106 0
-4.336375 1.498021 32.180894 103 103 103 0
-4.276586 1.504725 32.324910 105 105 105 0
-4.214713 1.510935 32.458321 107 107 107 0
-4.131844 1.509712 32.432060 108 108 108 0
-4.454443 1.659498 35.649803 110 110 110 0
-4.000432 1.520164 32.656585 112 112 112 0
-4.293339 1.664764 35.762920 120 120 120 0
-4.239248 1.678036 36.048031 121 121 121 0
-4.175175 1.687837 36.258578 135 135 135 0
-4.089027 1.688946 36.282403 145 145 145 0
-3.999244 1.688570 36.274320 146 146 146 0
-3.898681 1.683521 36.165873 147 147 147 0
-3.803960 1.680820 36.107833 152 152 152 0
-3.709571 1.678139 36.050255 145 145 145 0
-3.615328 1.675396 35.991321 142 142 142 0
-3.522426 1.673152 35.943125 140 140 140 0
-3.433391 1.672678 35.932927 134 134 134 0
-3.346752 1.673376 35.947922 130 130 130 0
-3.263797 1.676004 36.004381 130 130 130 0
-3.173908 1.675118 35.985349 132 132 132 0
-3.089933 1.677392 36.034208 132 132 132 0
-3.005575 1.679586 36.081330 135 135 135 0
-2.917218 1.679610 36.081851 135 135 135 0
-2.832680 1.681904 36.131128 130 130 130 0
-2.754952 1.688519 36.273237 121 121 121 0
-2.659099 1.684096 36.178218 98 98 98 0
-2.544109 1.666830 35.807299 80 80 80 0
-2.480375 1.683111 36.157067 82 82 82 0
-2.406705 1.693607 36.382540 59 59 59 0
-2.129131 1.685562 36.209708 69 69 69 0
-2.029842 1.676826 36.022046 140 140 140 0
-1.936167 1.672144 35.921469 152 152 152 0
-1.844427 1.668767 35.848920 152 152 152 0
-1.753898 1.666203 35.793832 152 152 152 0
-1.665046 1.665046 35.768976 150 150 150 0
-1.572969 1.660356 35.668230 151 151 151 0
-1.481899 1.656240 35.579806 151 151 151 0
-1.395439 1.657084 35.597942 149 149 149 0
-1.302623 1.649989 35.445521 149 149 149 0
-1.212310 1.645278 35.344318 149 149 149 0
-1.123316 1.641770 35.268948 148 148 148 0
-1.035761 1.639954 35.229950 148 148 148 0
-0.946776 1.635341 35.130853 148 148 148 0
-0.859316 1.632700 35.074113 152 152 152 0
-0.772420 1.630664 35.030376 150 150 150 0
-0.685697 1.628532 34.984566 151 151 151 0
-0.599480 1.627161 34.955121 151 151 151 0
-0.513193 1.625112 34.911104 152 152 152 0
-0.427669 1.625141 34.911725 153 153 153 0
-0.342214 1.625515 34.919765 150 150 150 0
-0.256587 1.625053 34.909840 149 149 149 0
-0.170908 1.623629 34.879241 146 146 146 0
-0.085569 1.625809 34.926083 145 145 145 0
0.000000 1.626104 34.932406 142 142 142 0
0.085662 1.627582 34.964167 141 141 141 0
0.171335 1.627683 34.966343 139 139 139 0
0.257176 1.628784 34.989990 135 135 135 0
0.343348 1.630902 35.035490 129 129 129 0
0.428759 1.629282 35.000697 129 129 129 0
0.515489 1.632383 35.067309 134 134 134 0
0.602365 1.634991 35.123321 138 138 138 0
0.688277 1.634659 35.116198 140 140 140 0
0.775079 1.636278 35.150983 145 145 145 0
0.863351 1.640368 35.238835 151 151 151 0
0.947744 1.637012 35.166749 155 155 155 0
1.033709 1.636707 35.160185 158 158 158 0
1.120171 1.637173 35.170196 155 155 155 0
1.205294 1.635756 35.139756 149 149 149 0
1.290240 1.634303 35.108559 140 140 140 0
1.376484 1.634574 35.114380 130 130 130 0
1.464617 1.636924 35.164863 113 113 113 0
1.555884 1.642322 35.280816 100 100 100 0
1.644426 1.644426 35.326018 91 91 91 0
1.514012 1.438312 30.898207 85 85 85 0
1.603713 1.450979 31.170324 69 69 69 0
3.134544 1.861136 39.981430 87 87 87 0
3.248936 1.870600 40.184740 106 106 106 0
3.338963 1.865891 40.083591 107 107 107 0
3.446143 1.870764 40.188260 108 108 108 0
3.543848 1.870364 40.179686 110 110 110 0
3.643797 1.871139 40.196323 107 107 107 0
3.749789 1.874895 40.277006 106 106 106 0
3.842832 1.872149 40.218022 107 107 107 0
3.942864 1.872860 40.233306 107 107 107 0
4.037827 1.871188 40.197386 110 110 110 0
4.140413 1.873044 40.237249 108 108 108 0
4.234332 1.870984 40.192994 112 112 112 0
4.326732 1.868362 40.136661 110 110 110 0
4.424537 1.868138 40.131859 109 109 109 0
4.527518 1.870062 40.173183 109 109 109 0
4.618431 1.867025 40.107951 109 109 109 0
4.711668 1.865035 40.065207 107 107 107 0
4.814264 1.866756 40.102159 108 108 108 0
4.907310 1.864778 40.059670 110 110 110 0
5.006645 1.865221 40.069184 109 109 109 0
5.137258 1.877075 40.323849 106 106 106 0
4.754074 1.704291 36.612047 106 106 106 0
4.815647 1.694394 36.399450 104 104 104 0
4.862600 1.679807 36.086086 106 106 106 0
4.941899 1.676716 36.019669 103 103 103 0
5.024243 1.674748 35.977396 105 105 105 0
5.099026 1.670371 35.883365 106 106 106 0
5.200398 1.674704 35.976463 108 108 108 0
5.256617 1.664595 35.759301 106 106 106 0
5.504995 1.714671 36.835030 111 111 111 0
5.462104 1.673871 35.958551 109 109 109 0
5.682657 1.713817 36.816697 109 109 109 0
5.636389 1.673303 35.946356 108 108 108 0
5.656524 1.653445 35.519771 107 107 107 0
6.236820 1.795448 38.570317 107 107 107 0
6.186599 1.754409 37.688693 104 104 104 0
6.277953 1.754134 37.682793 103 103 103 0
6.520247 1.795430 38.569933 102 102 102 0
6.766071 1.836505 39.452311 106 106 106 0
6.863210 1.836634 39.455076 100 100 100 0
6.960281 1.836741 39.457376 100 100 100 0
7.217556 1.878542 40.355357 98 98 98 0
7.317393 1.878790 40.360691 97 97 97 0
7.255326 1.838016 39.484770 97 97 97 0
8.018375 2.004594 43.063237 95 95 95 0
8.125089 2.004892 43.069645 90 90 90 0
7.893937 1.922882 41.307888 88 88 88 0
5.523922 1.328538 28.540025 88 88 88 0
-6.977725 1.744431 35.600637 130 130 130 0
-6.857293 1.736024 35.429051 131 131 131 0
-6.748222 1.730313 35.312515 132 132 132 0
-6.651367 1.727628 35.257710 133 133 133 0
-6.558456 1.725909 35.222642 132 132 132 0
-6.453315 1.720884 35.120083 131 131 131 0
-6.350850 1.716446 35.029509 130 130 130 0
-6.237952 1.709028 34.878120 131 131 131 0
-6.131238 1.703122 34.757583 129 129 129 0
-6.021511 1.696200 34.616334 130 130 130 0
-5.912011 1.689146 34.472365 134 134 134 0
-5.812699 1.684840 34.384495 131 131 131 0
-5.721606 1.682825 34.343374 128 128 128 0
-5.635415 1.682213 34.330883 126 126 126 0
-5.562282 1.685540 34.398775 124 124 124 0
-5.486042 1.688013 34.449246 119 119 119 0
-5.407304 1.689783 34.485359 116 116 116 0
-5.327813 1.691369 34.517740 116 116 116 0
-5.263489 1.697900 34.651016 111 111 111 0
-4.738503 1.553608 31.706278 110 110 110 0
-4.672447 1.557482 31.785352 112 112 112 0
-4.593824 1.557228 31.780170 110 110 110 0
-4.530606 1.562278 31.883225 109 109 109 0
-4.471717 1.569023 32.020887 111 111 111 0
-4.412022 1.575722 32.157591 106 106 106 0
-4.330656 1.574784 32.138447 106 106 106 0
-4.272648 1.582462 32.295144 107 107 107 0
-4.214055 1.590209 32.453255 109 109 109 0
-4.153860 1.597639 32.604870 104 104 104 0
-4.081938 1.600760 32.668572 113 113 113 0
-4.370568 1.748227 35.678109 121 121 121 0
-4.335306 1.769513 36.112502 120 120 120 0
-4.269503 1.778960 36.305297 125 125 125 0
-4.192706 1.784130 36.410825 140 140 140 0
-4.105885 1.785167 36.431989 150 150 150 0
-4.009829 1.782146 36.370335 145 145 145 0
-3.906431 1.775651 36.237769 143 143 143 0
-3.814954 1.774397 36.212188 146 146 146 0
-3.717207 1.770098 36.124456 147 147 147 0
-3.626208 1.768882 36.099635 141 141 141 0
-3.534438 1.767219 36.065694 141 141 141 0
-3.443180 1.765733 36.035377 140 140 140 0
-3.358615 1.767692 36.075345 135 135 135 0
-3.267540 1.766238 36.045670 135 135 135 0
-3.179874 1.766597 36.052992 136 136 136 0
-3.095453 1.768831 36.098583 137 137 137 0
-3.009955 1.770562 36.133918 139 139 139 0
-2.918920 1.769043 36.102909 134 134 134 0
-2.835490 1.772181 36.166965 133 133 133 0
-2.757583 1.779086 36.307880 122 122 122 0
-2.660506 1.773671 36.197358 98 98 98 0
-2.545056 1.755211 35.820630 87 87 87 0
-2.479022 1.770730 36.137342 80 80 80 0
-2.156953 1.597743 32.607005 64 64 64 0
-2.030491 1.765645 36.033564 118 118 118 0
-1.934703 1.758821 35.894309 148 148 148 0
-1.843596 1.755806 35.832767 151 151 151 0
-1.753111 1.753111 35.777781 153 153 153 0
-1.663870 1.751442 35.743711 151 151 151 0
-1.572004 1.746671 35.646344 152 152 152 0
-1.481279 1.742681 35.564917 153 153 153 0
-1.394253 1.742817 35.567685 150 150 150 0
-1.303084 1.737445 35.458064 147 147 147 0
-1.209936 1.728480 35.275111 145 145 145 0
-1.123161 1.727940 35.264073 147 147 147 0
-1.033275 1.722125 35.145410 149 149 149 0
-0.945813 1.719661 35.095117 148 148 148 0
-0.858737 1.717474 35.050483 148 148 148 0
-0.771490 1.714422 34.988207 149 149 149 0
-0.685348 1.713369 34.966712 152 152 152 0
-0.599651 1.713288 34.965070 151 151 151 0
-0.513047 1.710156 34.901146 151 151 151 0
-0.427327 1.709308 34.883828 152 152 152 0
-0.342061 1.710304 34.904172 151 151 151 0
-0.256451 1.709670 34.891232 150 150 150 0
-0.170729 1.707294 34.842735 146 146 146 0
-0.085504 1.710077 34.899530 141 141 141 0
0.000000 1.710244 34.902946 142 142 142 0
0.085481 1.709622 34.890245 140 140 140 0
0.170967 1.709673 34.891279 139 139 139 0
0.257053 1.713689 34.973252 136 136 136 0
0.342776 1.713878 34.977096 131 131 131 0
0.428714 1.714855 34.997031 131 131 131 0
0.514407 1.714691 34.993687 133 133 133 0
0.601081 1.717375 35.048466 137 137 137 0
0.687886 1.719715 35.096219 139 139 139 0
0.774842 1.721872 35.140243 145 145 145 0
0.861829 1.723659 35.176713 150 150 150 0
0.946747 1.721359 35.129770 156 156 156 0
1.033391 1.722319 35.149361 159 159 159 0
1.120104 1.723237 35.168111 154 154 154 0
1.205679 1.722399 35.150995 144 144 144 0
1.291416 1.721888 35.140578 130 130 130 0
1.377856 1.722320 35.149390 119 119 119 0
1.466821 1.725672 35.217792 106 106 106 0
1.558315 1.731461 35.335934 96 96 96 0
1.436027 1.511607 30.849124 88 88 88 0
1.522541 1.522541 31.072274 80 80 80 0
3.156991 1.973119 40.267742 95 95 95 0
3.258404 1.974790 40.301846 106 106 106 0
3.357836 1.975198 40.310162 105 105 105 0
3.467502 1.981429 40.437336 105 105 105 0
3.566576 1.981431 40.437374 102 102 102 0
3.663949 1.980513 40.418636 104 104 104 0
3.764890 1.981521 40.439206 104 104 104 0
3.870089 1.984661 40.503289 100 100 100 0
3.965404 1.982702 40.463311 104 104 104 0
4.057759 1.979395 40.395807 105 105 105 0
4.162026 1.981917 40.447285 107 107 107 0
4.250022 1.976754 40.341927 109 109 109 0
4.349221 1.976918 40.345275 110 110 110 0
4.446235 1.976105 40.328665 109 109 109 0
4.548216 1.977485 40.356838 108 108 108 0
4.637327 1.973330 40.272050 108 108 108 0
4.739360 1.974733 40.300678 109 109 109 0
4.831354 1.971981 40.244513 106 106 106 0
4.926059 1.970424 40.212729 108 108 108 0
5.016238 1.967152 40.145960 109 109 109 0
5.128121 1.972354 40.252129 107 107 107 0
5.208092 1.965318 40.108527 109 109 109 0
4.960455 1.837205 37.493989 112 112 112 0
4.994701 1.816255 37.066430 107 107 107 0
5.021528 1.793403 36.600059 107 107 107 0
5.085329 1.784326 36.414816 105 105 105 0
5.166779 1.781648 36.360163 107 107 107 0
5.237364 1.775378 36.232195 106 106 106 0
5.315143 1.771714 36.157432 105 105 105 0
5.399525 1.770336 36.129308 103 103 103 0
5.487422 1.770136 36.125230 105 105 105 0
5.559941 1.765061 36.021644 104 104 104 0
5.643017 1.763443 35.988628 102 102 102 0
5.871488 1.806612 36.869627 106 106 106 0
5.959839 1.806012 36.857384 103 103 103 0
6.193789 1.848892 37.732494 102 102 102 0
6.432512 1.891915 38.610515 101 101 101 0
6.528732 1.892386 38.620126 103 103 103 0
6.620888 1.891682 38.605762 101 101 101 0
6.871370 1.935597 39.501982 100 100 100 0
7.124027 1.978896 40.385642 99 99 99 0
7.383502 2.022877 41.283212 97 97 97 0
7.487192 2.023565 41.297254 98 98 98 0
7.590628 2.024168 41.309542 96 96 96 0
6.867109 1.807134 36.880284 94 94 94 0
8.134331 2.112813 43.118640 91 91 91 0
8.413825 2.157391 44.028388 95 95 95 0
6.971272 1.764879 36.017938 91 91 91 0
-7.020844 1.842971 35.820631 132 132 132 0
-6.887995 1.830986 35.587679 133 133 133 0
-6.776816 1.824527 35.462145 132 132 132 0
-6.667857 1.818506 35.345120 134 134 134 0
-6.577397 1.817439 35.324368 133 133 133 0
-6.483414 1.815356 35.283886 131 131 131 0
-6.377784 1.809912 35.178071 130 130 130 0
-6.270287 1.803781 35.058914 131 131 131 0
-6.162772 1.797475 34.936347 132 132 132 0
-6.050888 1.789699 34.785212 130 130 130 0
-5.940631 1.782189 34.639247 130 130 130 0
-5.839934 1.777371 34.545600 128 128 128 0
-5.739011 1.772342 34.447847 126 126 126 0
-5.649402 1.770708 34.416093 124 124 124 0
-5.568265 1.771721 34.435776 125 125 125 0
-5.493378 1.774784 34.495309 123 123 123 0
-5.413447 1.776287 34.524532 116 116 116 0
-5.334458 1.778153 34.560790 111 111 111 0
-4.802378 1.626612 31.615391 111 111 111 0
-5.198611 1.789686 34.784954 111 111 111 0
-5.121525 1.792534 34.840306 111 111 111 0
-4.605317 1.639180 31.859679 110 110 110 0
-4.543157 1.644936 31.971545 109 109 109 0
-4.473461 1.648117 32.033374 107 107 107 0
-4.413435 1.655038 32.167897 103 103 103 0
-4.362826 1.665806 32.377185 106 106 106 0
-4.286800 1.667089 32.402115 108 108 108 0
-4.211553 1.668728 32.433983 106 106 106 0
-4.151642 1.676625 32.587460 110 110 110 0
-4.467814 1.839688 35.756811 104 104 104 0
-4.422916 1.857625 36.105434 116 116 116 0
-4.371534 1.873515 36.414277 130 130 130 0
-4.290494 1.877091 36.483793 137 137 137 0
-4.215487 1.883515 36.608656 148 148 148 0
-4.117495 1.879726 36.535005 148 148 148 0
-4.026944 1.879241 36.525572 148 148 148 0
-3.916395 1.869189 36.330195 150 150 150 0
-3.818695 1.864944 36.247699 147 147 147 0
-3.730734 1.865367 36.255921 139 139 139 0
-3.632947 1.860778 36.166717 143 143 143 0
-3.540579 1.858804 36.128360 144 144 144 0
-3.451323 1.858404 36.120593 140 140 140 0
-3.365000 1.859605 36.143933 142 142 142 0
-3.275875 1.859281 36.137620 142 142 142 0
-3.184681 1.857731 36.107495 140 140 140 0
-3.100763 1.860458 36.160497 142 142 142 0
-3.013953 1.861559 36.181911 141 141 141 0
-2.922028 1.859472 36.141344 137 137 137 0
-2.837984 1.862427 36.198775 130 130 130 0
-2.759082 1.869056 36.327615 121 121 121 0
-2.673560 1.871492 36.374966 100 100 100 0
-2.341619 1.695655 32.957344 80 80 80 0
-2.261158 1.695869 32.961488 79 79 79 0
-2.404991 1.870548 36.356627 66 66 66 0
-2.033503 1.856677 36.087012 82 82 82 0
-1.932636 1.844789 35.855961 141 141 141 0
-1.840062 1.840062 35.764084 151 151 151 0
-1.751776 1.839364 35.750523 151 151 151 0
-1.662864 1.837903 35.722110 152 152 152 0
-1.569042 1.830549 35.579187 152 152 152 0
-1.480899 1.829345 35.555787 152 152 152 0
-1.393008 1.828323 35.535927 147 147 147 0
-1.299951 1.819932 35.372821 149 149 149 0
-1.209857 1.814785 35.272787 147 147 147 0
-1.120773 1.810480 35.189112 149 149 149 0
-1.033232 1.808157 35.143961 148 148 148 0
-0.944783 1.803677 35.056899 148 148 148 0
-0.857733 1.801240 35.009519 150 150 150 0
-0.771227 1.799529 34.976268 149 149 149 0
-0.684791 1.797577 34.938333 150 150 150 0
-0.599222 1.797665 34.940031 151 151 151 0
-0.512881 1.795085 34.889895 151 151 151 0
-0.426945 1.793171 34.852689 151 151 151 0
-0.341832 1.794617 34.880795 147 147 147 0
-0.256264 1.793849 34.865867 148 148 148 0
-0.170685 1.792193 34.833691 148 148 148 0
-0.085417 1.793760 34.864137 143 143 143 0
0.000000 1.794911 34.886506 143 143 143 0
0.085525 1.796022 34.908103 139 139 139 0
0.171080 1.796339 34.914266 138 138 138 0
0.256927 1.798491 34.956089 136 136 136 0
0.342443 1.797825 34.943152 134 134 134 0
0.428467 1.799562 34.976917 131 131 131 0
0.515075 1.802762 35.039111 134 134 134 0
0.601081 1.803244 35.048466 136 136 136 0
0.687423 1.804485 35.072592 138 138 138 0
0.774351 1.806819 35.117963 142 142 142 0
0.861444 1.809033 35.160984 148 148 148 0
0.947401 1.808675 35.154038 153 153 153 0
1.033304 1.808281 35.146379 153 153 153 0
1.119838 1.808970 35.159763 142 142 142 0
1.207346 1.811019 35.199585 133 133 133 0
1.293134 1.810388 35.187326 121 121 121 0
1.380091 1.811369 35.206397 108 108 108 0
1.471696 1.817977 35.334834 100 100 100 0
1.565097 1.825946 35.489721 93 93 93 0
1.442500 1.594342 30.988181 85 85 85 0
1.531317 1.607883 31.251372 72 72 72 0
3.174931 2.083548 40.496564 94 94 94 0
3.276268 2.084898 40.522798 99 99 99 0
3.376405 2.085426 40.533069 96 96 96 0
3.491965 2.095179 40.722620 94 94 94 0
3.581574 2.089251 40.607412 94 94 94 0
3.686642 2.092419 40.668970 94 94 94 0
3.787037 2.092836 40.677085 93 93 93 0
3.897388 2.098594 40.788994 92 92 92 0
3.983628 2.091405 40.649262 91 91 91 0
4.094014 2.096934 40.756735 93 93 93 0
4.176084 2.088042 40.583906 96 96 96 0
4.266044 2.083417 40.494011 101 101 101 0
4.374782 2.087964 40.582395 98 98 98 0
4.471283 2.086599 40.555854 101 101 101 0
4.577099 2.089545 40.613120 103 103 103 0
4.663428 2.083659 40.498726 106 106 106 0
4.768925 2.086405 40.552087 105 105 105 0
4.859621 2.082695 40.479974 105 105 105 0
4.958021 2.082369 40.473637 107 107 107 0
5.056821 2.082220 40.470753 108 108 108 0
5.150468 2.079997 40.427534 107 107 107 0
5.242874 2.077365 40.376387 107 107 107 0
5.191452 2.018898 39.240001 112 112 112 0
5.041018 1.924752 37.410152 117 117 117 0
5.120099 1.920037 37.318504 116 116 116 0
5.183981 1.909888 37.121238 113 113 113 0
5.239103 1.896917 36.869126 114 114 114 0
5.285199 1.881172 36.563119 109 109 109 0
5.373454 1.880709 36.554110 108 108 108 0
5.259568 1.810671 35.192826 110 110 110 0
5.523036 1.870706 36.359685 109 109 109 0
5.604402 1.868134 36.309698 108 108 108 0
5.924166 1.943867 37.781672 109 109 109 0
5.768418 1.863643 36.222407 109 109 109 0
6.250990 1.988951 38.657946 108 108 108 0
6.200894 1.943564 37.775776 107 107 107 0
5.998815 1.852575 36.007291 104 104 104 0
6.533763 1.988537 38.649885 107 107 107 0
6.476803 1.943041 37.765618 105 105 105 0
6.877422 2.034167 39.536772 104 104 104 0
7.131228 2.079942 40.426465 102 102 102 0
7.390045 2.125903 41.319795 98 98 98 0
7.491578 2.125988 41.321447 100 100 100 0
7.759781 2.172739 42.230103 97 97 97 0
7.864697 2.173140 42.237898 95 95 95 0
8.140675 2.220184 43.152267 94 94 94 0
8.421149 2.267232 44.066714 95 95 95 0
7.041519 1.871796 36.380877 94 94 94 0
-7.070728 1.944450 36.075142 128 128 128 0
-6.955911 1.937089 35.938574 127 127 127 0
-6.822849 1.924393 35.703029 130 130 130 0
-6.694265 1.912647 35.485104 127 127 127 0
-6.594431 1.908914 35.415850 131 131 131 0
-6.509689 1.909509 35.426876 131 131 131 0
-6.402501 1.903446 35.314402 131 131 131 0
-6.300597 1.898810 35.228389 132 132 132 0
-6.196305 1.893315 35.126443 128 128 128 0
-6.083658 1.885077 34.973604 132 132 132 0
-5.970197 1.876348 34.811646 129 129 129 0
-5.863410 1.869493 34.684472 126 126 126 0
-5.765689 1.865370 34.607978 126 126 126 0
-5.667287 1.860900 34.525050 126 126 126 0
-5.581750 1.860583 34.519170 125 125 125 0
-5.504095 1.862924 34.562603 123 123 123 0
-5.422430 1.863960 34.581824 114 114 114 0
-5.347055 1.867226 34.642407 109 109 109 0
-5.278521 1.873024 34.749974 107 107 107 0
-5.201547 1.875968 34.804599 112 112 112 0
-5.136201 1.883274 34.940143 113 113 113 0
-5.065727 1.888915 35.044806 106 106 106 0
-4.552341 1.726750 32.036180 106 106 106 0
-4.481700 1.729779 32.092375 105 105 105 0
-4.410760 1.732799 32.148399 106 106 106 0
-4.362360 1.744944 32.373725 102 102 102 0
-4.285764 1.746052 32.394288 108 108 108 0
-4.238823 1.759512 32.644000 104 104 104 0
-4.176169 1.766841 32.779978 113 113 113 0
-4.454847 1.921699 35.653038 115 115 115 0
-4.460302 1.962533 36.410632 125 125 125 0
-4.392097 1.971962 36.585561 138 138 138 0
-4.306193 1.973672 36.617289 141 141 141 0
-4.232691 1.981260 36.758065 151 151 151 0
-4.131677 1.976020 36.660847 147 147 147 0
-4.036707 1.973501 36.614125 150 150 150 0
-3.939521 1.969760 36.544721 153 153 153 0
-3.835643 1.962422 36.408568 153 153 153 0
-3.742032 1.960112 36.365717 150 150 150 0
-3.645507 1.956126 36.291758 148 148 148 0
-3.545374 1.949956 36.177286 148 148 148 0
-3.458972 1.951215 36.200645 148 148 148 0
-3.367949 1.949865 36.175607 147 147 147 0
-3.278194 1.949196 36.163197 147 147 147 0
-3.189857 1.949357 36.166181 148 148 148 0
-3.101455 1.949486 36.168573 146 146 146 0
-3.015117 1.950958 36.195887 144 144 144 0
-2.926270 1.950847 36.193820 140 140 140 0
-2.840445 1.952806 36.230164 135 135 135 0
-2.762436 1.960439 36.371773 121 121 121 0
-2.673901 1.960861 36.379606 99 99 99 0
-2.521891 1.913159 35.494597 83 83 83 0
-2.271101 1.784437 33.106432 76 76 76 0
-2.163670 1.762991 32.708547 66 66 66 0
-1.934504 1.934504 35.890619 124 124 124 0
-1.840513 1.928157 35.772851 146 146 146 0
-1.751523 1.926676 35.745374 150 150 150 0
-1.661465 1.923802 35.692060 152 152 152 0
-1.569014 1.917683 35.578544 151 151 151 0
-1.477515 1.912078 35.474554 149 149 149 0
-1.391657 1.913529 35.501463 149 149 149 0
-1.298889 1.905037 35.343913 149 149 149 0
-1.208411 1.898931 35.230629 148 148 148 0
-1.120204 1.895730 35.171249 150 150 150 0
-1.031801 1.891635 35.095269 148 148 148 0
-0.944200 1.888400 35.035256 149 149 149 0
-0.857830 1.887227 35.013489 150 150 150 0
-0.770313 1.882989 34.934852 152 152 152 0
-0.684293 1.881805 34.912896 152 152 152 0
-0.598469 1.880902 34.896141 151 151 151 0
-0.512114 1.877752 34.837696 149 149 149 0
-0.427021 1.878892 34.858848 151 151 151 0
-0.341707 1.879390 34.868098 149 149 149 0
-0.256082 1.877937 34.841137 147 147 147 0
-0.170437 1.874807 34.783055 145 145 145 0
-0.085386 1.878495 34.851480 145 145 145 0
0.000000 1.878669 34.854719 143 143 143 0
0.085442 1.879726 34.874331 140 140 140 0
0.170802 1.878819 34.857487 135 135 135 0
0.256633 1.881977 34.916087 132 132 132 0
0.342542 1.883980 34.953241 135 135 135 0
0.428785 1.886653 35.002848 135 135 135 0
0.514216 1.885460 34.980709 133 133 133 0
0.600502 1.887294 35.014722 137 137 137 0
0.686899 1.888973 35.045873 137 137 137 0
0.772816 1.889105 35.048322 140 140 140 0
0.860805 1.893770 35.134888 143 143 143 0
0.947515 1.895030 35.158249 145 145 145 0
1.032912 1.893672 35.133057 142 142 142 0
1.121260 1.897516 35.204383 134 134 134 0
1.208446 1.898986 35.231654 120 120 120 0
1.295606 1.900222 35.254576 110 110 110 0
1.383505 1.902320 35.293500 104 104 104 0
1.475620 1.909626 35.429046 96 96 96 0
1.569005 1.917672 35.578338 89 89 89 0
1.449335 1.678177 31.135008 79 79 79 0
3.104109 2.202916 40.870426 69 69 69 0
3.186785 2.190915 40.647766 86 86 86 0
3.295065 2.196710 40.755284 82 82 82 0
3.424842 2.216074 41.114551 79 79 79 0
3.500492 2.200309 40.822064 75 75 75 0
4.256653 2.601288 48.261373 75 75 75 0
3.935860 2.340241 43.418197 74 74 74 0
4.088770 2.367183 43.918050 74 74 74 0
4.525766 2.552996 47.365425 68 68 68 0
4.949853 2.722419 50.508705 75 75 75 0
4.560460 2.447076 45.400299 72 72 72 0
4.767430 2.497225 46.330708 88 88 88 0
4.910899 2.512553 46.615080 93 93 93 0
5.064241 2.532121 46.978118 88 88 88 0
5.201404 2.542909 47.178268 93 93 93 0
5.351493 2.559410 47.484408 89 89 89 0
4.708285 2.203878 40.888275 99 99 99 0
4.830443 2.213953 41.075197 103 103 103 0
4.902203 2.200989 40.834678 100 100 100 0
4.989220 2.195257 40.728330 99 99 99 0
5.080472 2.191576 40.660039 104 104 104 0
5.186943 2.194476 40.713840 102 102 102 0
5.272839 2.188726 40.607153 101 101 101 0
5.371284 2.188301 40.599274 102 102 102 0
5.035230 2.014092 37.367199 113 113 113 0
5.137109 2.018150 37.442485 126 126 126 0
5.215731 2.013089 37.348591 126 126 126 0
5.282065 2.003542 37.171461 123 123 123 0
5.357920 1.997868 37.066205 119 119 119 0
5.435707 1.993092 36.977597 118 118 118 0
5.526558 1.993185 36.979309 114 114 114 0
5.578845 1.979590 36.727090 112 112 112 0
5.640322 1.969636 36.542419 111 111 111 0
5.731381 1.970162 36.552176 115 115 115 0
5.883032 1.991180 36.942115 112 112 112 0
5.830685 1.943562 36.058659 112 112 112 0
6.204911 2.037434 37.800252 109 109 109 0
6.443037 2.084512 38.673693 109 109 109 0
6.538709 2.084806 38.679141 109 109 109 0
6.482926 2.037491 37.801317 105 105 105 0
6.880886 2.132105 39.556688 103 103 103 0
6.981184 2.133140 39.575872 102 102 102 0
7.394575 2.228502 41.345124 101 101 101 0
7.498803 2.229374 41.361298 101 101 101 0
7.600400 2.229451 41.362723 98 98 98 0
7.871036 2.278458 42.271943 97 97 97 0
8.146831 2.327666 43.184895 98 98 98 0
8.427244 2.376915 44.098609 95 95 95 0
8.712657 2.426309 45.015018 93 93 93 0
-7.092775 2.039173 36.187626 132 132 132 0
-7.005593 2.039603 36.195262 132 132 132 0
-6.918764 2.040148 36.204939 132 132 132 0
-6.772678 2.023008 35.900758 128 128 128 0
-6.627896 2.005811 35.595575 128 128 128 0
-6.525961 2.001295 35.515432 129 129 129 0
-6.431929 1.999113 35.476718 130 130 130 0
-6.333639 1.995530 35.413136 130 130 130 0
-6.230183 1.990197 35.318496 130 130 130 0
-6.110852 1.979572 35.129933 130 130 130 0
-6.008291 1.974153 35.033766 127 127 127 0
-5.899523 1.966508 34.898097 128 128 128 0
-5.796451 1.960564 34.792623 126 126 126 0
-5.694801 1.954932 34.692666 128 128 128 0
-5.607000 1.953955 34.675328 124 124 124 0
-5.519209 1.952951 34.657516 124 124 124 0
-5.440615 1.955221 34.697797 117 117 117 0
-5.360289 1.956931 34.728147 112 112 112 0
-5.285907 1.960901 34.798599 110 110 110 0
-5.214955 1.966294 34.894311 112 112 112 0
-5.142780 1.971399 34.984898 109 109 109 0
-4.625186 1.803039 31.997134 109 109 109 0
-4.561835 1.809004 32.102994 104 104 104 0
-4.495342 1.813910 32.190063 104 104 104 0
-4.423758 1.816901 32.243134 108 108 108 0
-4.377978 1.830791 32.489635 102 102 102 0
-4.334324 1.846101 32.761330 107 107 107 0
-4.232244 1.836634 32.593332 106 106 106 0
-4.579497 2.025547 35.945818 110 110 110 0
-4.518107 2.037577 36.159316 118 118 118 0
-4.472556 2.057376 36.510662 131 131 131 0
-4.397866 2.064305 36.633622 143 143 143 0
-4.319607 2.069812 36.731354 147 147 147 0
-4.242601 2.076166 36.844126 155 155 155 0
-4.135985 2.067993 36.699072 154 154 154 0
-4.045254 2.067574 36.691649 159 159 159 0
-3.938990 2.059018 36.539800 152 152 152 0
-3.839803 2.053848 36.448058 152 152 152 0
-3.743218 2.049858 36.377243 157 157 157 0
-3.652826 2.049146 36.364622 153 153 153 0
-3.548796 2.040558 36.212207 150 150 150 0
-3.461496 2.041395 36.227068 155 155 155 0
-3.374028 2.042175 36.240897 154 154 154 0
-3.281253 2.039698 36.196940 153 153 153 0
-3.190192 2.038178 36.169972 151 151 151 0
-3.105899 2.041020 36.220401 148 148 148 0
-3.018581 2.041981 36.237462 145 145 145 0
-2.928871 2.041335 36.225992 141 141 141 0
-2.843126 2.043497 36.264369 134 134 134 0
-2.763265 2.050165 36.382692 119 119 119 0
-2.684250 2.057925 36.520405 94 94 94 0
-2.342203 1.857609 32.965556 79 79 79 0
-2.528564 2.077035 36.859531 82 82 82 0
-2.401896 2.046060 36.309842 69 69 69 0
-1.933431 2.021314 35.870704 82 82 82 0
-1.839874 2.015100 35.760433 141 141 141 0
-1.750650 2.013248 35.727555 149 149 149 0
-1.661841 2.011702 35.700130 151 151 151 0
-1.567544 2.002973 35.545209 150 150 150 0
-1.477657 1.999183 35.477957 148 148 148 0
-1.389819 1.997865 35.454572 149 149 149 0
-1.298769 1.991446 35.340660 148 148 148 0
-1.207989 1.984554 35.218343 144 144 144 0
-1.119898 1.981357 35.161621 151 151 151 0
-1.031801 1.977618 35.095269 147 147 147 0
-0.943805 1.973410 35.020581 149 149 149 0
-0.856616 1.970217 34.963926 150 150 150 0
-0.769462 1.966402 34.896228 151 151 151 0
-0.684024 1.966568 34.899159 152 152 152 0
-0.598058 1.965046 34.872164 151 151 151 0
-0.511677 1.961428 34.807942 150 150 150 0
-0.426411 1.961489 34.809040 151 151 151 0
-0.341544 1.963878 34.851422 152 152 152 0
-0.255985 1.962553 34.827920 148 148 148 0
-0.170349 1.959017 34.765166 147 147 147 0
-0.085327 1.962529 34.827485 145 145 145 0
0.000000 1.963698 34.848236 144 144 144 0
0.085359 1.963252 34.840323 137 137 137 0
0.170751 1.963632 34.847071 134 134 134 0
0.256560 1.966959 34.906107 138 138 138 0
0.342490 1.969316 34.947927 137 137 137 0
0.428191 1.969681 34.954401 137 137 137 0
0.513888 1.969904 34.958368 135 135 135 0
0.600280 1.972347 35.001723 132 132 132 0
0.686656 1.974135 35.033448 135 135 135 0
0.772945 1.975303 35.054183 137 137 137 0
0.860199 1.978459 35.110180 138 138 138 0
0.946915 1.979914 35.136008 136 136 136 0
1.033340 1.980569 35.147634 131 131 131 0
1.121853 1.984818 35.223028 119 119 119 0
1.210465 1.988621 35.290529 110 110 110 0
1.298731 1.991387 35.339611 106 106 106 0
1.387133 1.994003 35.386042 100 100 100 0
1.481565 2.004471 35.571794 93 93 93 0
1.369794 1.750293 31.061095 84 84 84 0
1.439893 1.743028 30.932170 75 75 75 0
2.936630 2.412232 42.808024 70 70 70 0
3.024563 2.398792 42.569505 74 74 74 0
3.212405 2.462844 43.706191 75 75 75 0
3.646594 2.705538 48.013091 71 71 71 0
3.870323 2.781794 49.366361 71 71 71 0
3.904811 2.721535 48.296980 72 72 72 0
3.545900 2.398697 42.567827 69 69 69 0
3.819887 2.510211 44.546787 72 72 72 0
4.847772 3.097188 54.963400 71 71 71 0
3.936166 2.446806 43.421582 73 73 73 0
4.594706 2.781006 49.352369 75 75 75 0
4.609642 2.718507 48.243241 73 73 73 0
4.021320 2.312259 41.033875 70 70 70 0
4.783596 2.683481 47.621660 70 70 70 0
4.793005 2.624741 46.579254 89 89 89 0
4.973189 2.660078 47.206352 91 91 91 0
5.119056 2.675870 47.486609 89 89 89 0
5.244283 2.680411 47.567193 92 92 92 0
5.392803 2.696401 47.850957 92 92 92 0
5.524432 2.703445 47.975960 95 95 95 0
5.667108 2.715489 48.189691 93 93 93 0
5.792045 2.718715 48.246938 97 97 97 0
5.936541 2.730809 48.461563 94 94 94 0
6.058381 2.732211 48.486440 99 99 99 0
6.191075 2.738360 48.595569 97 97 97 0
6.311368 2.738896 48.605071 93 93 93 0
6.456547 2.750011 48.802320 98 98 98 0
5.726260 2.394618 42.495438 101 101 101 0
5.132636 2.108047 37.409881 128 128 128 0
5.221293 2.106838 37.388421 134 134 134 0
5.296506 2.100339 37.273090 130 130 130 0
5.372443 2.094342 37.166679 129 129 129 0
5.458946 2.092596 37.135690 129 129 129 0
5.535400 2.087118 37.038474 128 128 128 0
5.355276 1.986635 35.255273 126 126 126 0
5.441310 1.986510 35.253062 122 122 122 0
5.798370 2.083789 36.979402 116 116 116 0
5.749880 2.034573 36.105995 115 115 115 0
6.119135 2.132426 37.842516 115 115 115 0
6.209387 2.131581 37.827520 117 117 117 0
6.447256 2.180690 38.699018 114 114 114 0
6.542490 2.180830 38.701508 115 115 115 0
6.261153 2.057236 36.508179 111 111 111 0
6.272639 2.031982 36.060009 109 109 109 0
7.141210 2.281220 40.483049 106 106 106 0
7.240873 2.281371 40.485729 102 102 102 0
7.181569 2.232109 39.611520 98 98 98 0
7.607655 2.333014 41.402204 96 96 96 0
7.547754 2.284189 40.535734 97 97 97 0
8.156108 2.436240 43.234073 103 103 103 0
6.904832 2.036040 36.132038 104 104 104 0
8.202290 2.388009 42.378146 109 109 109 0
-7.109804 2.132941 36.274510 135 135 135 0
-7.024581 2.134050 36.293367 128 128 128 0
-6.948528 2.138009 36.360691 136 136 136 0
-6.853955 2.136298 36.331595 134 134 134 0
-6.729900 2.125232 36.143396 131 131 131 0
-6.588094 2.108190 35.853573 128 128 128 0
-6.464423 2.096569 35.655943 127 127 127 0
-6.353058 2.088677 35.521710 125 125 125 0
-6.257430 2.085810 35.472960 126 126 126 0
-6.151902 2.079516 35.365923 130 130 130 0
-6.043721 2.072133 35.240355 127 127 127 0
-5.932505 2.063480 35.093198 125 125 125 0
-5.833403 2.058848 35.014423 126 126 126 0
-5.737266 2.055140 34.951363 126 126 126 0
-5.629305 2.047020 34.813265 124 124 124 0
-5.537666 2.044677 34.773411 123 123 123 0
-5.459214 2.047205 34.816415 120 120 120 0
-5.371511 2.046290 34.800849 115 115 115 0
-5.293596 2.049134 34.849215 114 114 114 0
-5.222637 2.054808 34.945713 109 109 109 0
-4.710828 1.884331 32.046446 110 110 110 0
-4.629642 1.883244 32.027963 111 111 111 0
-4.574994 1.893101 32.195594 107 107 107 0
-4.500786 1.895068 32.229046 106 106 106 0
-4.443751 1.904465 32.388856 101 101 101 0
-4.401676 1.920731 32.665501 106 106 106 0
-4.757191 2.114307 35.957602 110 110 110 0
-4.703503 2.129888 36.222587 126 126 126 0
-4.632076 2.137881 36.358524 119 119 119 0
-4.560468 2.146102 36.498340 116 116 116 0
-4.489314 2.154871 36.647458 140 140 140 0
-4.414664 2.162285 36.773548 145 145 145 0
-4.330391 2.165195 36.823051 157 157 157 0
-4.248368 2.169379 36.894209 160 160 160 0
-4.144677 2.162440 36.776192 159 159 159 0
-4.048211 2.159046 36.718464 155 155 155 0
-3.947053 2.152938 36.614593 153 153 153 0
-3.845647 2.146408 36.503535 152 152 152 0
-3.745181 2.140103 36.396317 151 151 151 0
-3.653886 2.138860 36.375170 150 150 150 0
-3.549604 2.129763 36.220452 158 158 158 0
-3.463053 2.131110 36.243364 155 155 155 0
-3.375163 2.131682 36.253097 156 156 156 0
-3.281521 2.128554 36.199903 157 157 157 0
-3.193231 2.128821 36.204436 152 152 152 0
-3.105312 2.129357 36.213546 146 146 146 0
-3.020073 2.131816 36.255377 144 144 144 0
-2.929264 2.130374 36.230848 139 139 139 0
-2.845721 2.134291 36.297465 127 127 127 0
-2.767627 2.142679 36.440117 117 117 117 0
-2.423430 1.938744 32.971841 88 88 88 0
-2.368630 1.960245 33.337503 83 83 83 0
-2.525471 2.164689 36.814443 82 82 82 0
-2.435640 2.165013 36.819954 67 67 67 0
-1.838113 2.100701 35.726202 118 118 118 0
-1.751798 2.102158 35.750982 144 144 144 0
-1.661159 2.098306 35.685475 151 151 151 0
-1.567851 2.090468 35.552170 151 151 151 0
-1.476308 2.084200 35.445575 153 153 153 0
-1.389068 2.083601 35.435398 149 149 149 0
-1.297515 2.076025 35.306541 149 149 149 0
-1.207616 2.070199 35.207462 148 148 148 0
-1.118780 2.065439 35.126519 148 148 148 0
-1.030988 2.061975 35.067608 149 149 149 0
-0.943040 2.057541 34.992198 148 148 148 0
-0.855972 2.054334 34.937646 150 150 150 0
-0.769304 2.051477 34.889056 150 150 150 0
-0.683427 2.050280 34.868699 152 152 152 0
-0.597729 2.049356 34.852991 152 152 152 0
-0.511249 2.044996 34.778845 152 152 152 0
-0.426230 2.045906 34.794317 151 151 151 0
-0.341140 2.046838 34.810178 149 149 149 0
-0.255779 2.046231 34.799844 146 146 146 0
-0.170347 2.044159 34.764601 145 145 145 0
-0.085212 2.045095 34.780525 144 144 144 0
0.000000 2.047118 34.814932 141 141 141 0
0.085348 2.048357 34.836001 137 137 137 0
0.170737 2.048842 34.844260 138 138 138 0
0.256348 2.050785 34.877298 138 138 138 0
0.342037 2.052222 34.901727 140 140 140 0
0.427452 2.051771 34.894060 140 140 140 0
0.513214 2.052857 34.912535 135 135 135 0
0.599743 2.056260 34.970409 132 132 132 0
0.685694 2.057083 34.984402 130 130 130 0
0.771991 2.058642 35.010921 130 130 130 0
0.859805 2.063531 35.094069 133 133 133 0
0.947399 2.067051 35.153934 126 126 126 0
1.034101 2.068203 35.173516 120 120 120 0
1.122470 2.072252 35.242373 112 112 112 0
1.211850 2.077458 35.330914 110 110 110 0
1.301350 2.082160 35.410879 103 103 103 0
1.391235 2.086852 35.490686 93 93 93 0
1.296053 1.829723 31.117730 90 90 90 0
1.376477 1.835302 31.212622 79 79 79 0
2.569738 2.466949 41.954910 68 68 68 0
2.611700 2.410800 41.000000 72 72 72 0
2.899623 2.577443 43.834061 73 73 73 0
3.104040 2.660606 45.248401 73 73 73 0
3.177683 2.629807 44.724606 74 74 74 0
3.550109 2.840087 48.300808 71 71 71 0
3.892048 3.013198 51.244870 71 71 71 0
3.702746 2.777059 47.228898 72 72 72 0
4.445355 3.232986 54.982749 74 74 74 0
4.564930 3.222303 54.801077 71 71 71 0
3.687250 2.528400 43.000000 70 70 70 0
4.350100 2.900067 49.320860 75 75 75 0
3.845484 2.494368 42.421219 72 72 72 0
4.515350 2.851800 48.500000 74 74 74 0
4.324987 2.661530 45.264119 68 68 68 0
4.730456 2.838274 48.269961 78 78 78 0
5.042656 2.951799 50.200655 74 74 74 0
4.246829 2.426759 41.271415 83 83 83 0
5.057774 2.822943 48.009243 91 91 91 0
5.192646 2.832352 48.169259 95 95 95 0
5.316276 2.835347 48.220189 93 93 93 0
5.467484 2.852600 48.513613 95 95 95 0
5.596890 2.857987 48.605213 96 96 96 0
5.726797 2.863399 48.697255 97 97 97 0
5.854299 2.867412 48.765508 96 96 96 0
5.992462 2.876382 48.918060 97 97 97 0
6.114819 2.877562 48.938126 99 99 99 0
6.248740 2.884034 49.048193 103 103 103 0
6.370018 2.884537 49.056745 100 100 100 0
6.509681 2.893191 49.203936 100 100 100 0
6.634558 2.895080 49.236049 99 99 99 0
5.075384 2.175164 36.992592 113 113 113 0
5.226079 2.200454 37.422692 133 133 133 0
5.299307 2.192817 37.292802 138 138 138 0
5.386287 2.191032 37.262449 139 139 139 0
5.474916 2.189967 37.244329 138 138 138 0
5.542957 2.180836 37.089041 134 134 134 0
5.631508 2.179938 37.073783 136 136 136 0
5.846818 2.227359 37.880262 133 133 133 0
5.792622 2.172233 36.942743 132 132 132 0
5.890556 2.174974 36.989360 133 133 133 0
5.979285 2.174286 36.977647 126 126 126 0
6.212979 2.225545 37.849401 128 128 128 0
6.449297 2.276223 38.711269 124 124 124 0
6.544794 2.276450 38.715137 123 123 123 0
6.791491 2.328511 39.600531 119 119 119 0
7.041513 2.380230 40.480100 115 115 115 0
6.986611 2.328870 39.606639 108 108 108 0
7.243679 2.381483 40.501418 100 100 100 0
6.668632 2.162800 36.782307 97 97 97 0
6.783244 2.170638 36.915611 101 101 101 0
8.049745 2.542025 43.231711 107 107 107 0
8.159304 2.543160 43.251014 115 115 115 0
6.906367 2.125036 36.140068 121 121 121 0
8.376822 2.544857 43.279888 124 124 124 0
-7.128679 2.227712 36.370811 133 133 133 0
-7.042369 2.228598 36.385272 131 131 131 0
-6.951455 2.228030 36.376005 133 133 133 0
-6.876843 2.232741 36.452920 133 133 133 0
-6.787013 2.232570 36.450126 133 133 133 0
-6.690084 2.230028 36.408618 132 132 132 0
-6.552892 2.213815 36.143916 129 129 129 0
-6.411196 2.195615 35.846779 129 129 129 0
-6.301699 2.188090 35.723916 129 129 129 0
-6.191402 2.180071 35.592997 122 122 122 0
-6.089301 2.174750 35.506126 125 125 125 0
-5.985691 2.168729 35.407817 129 129 129 0
-5.875127 2.159973 35.264867 123 123 123 0
-5.779429 2.156503 35.208216 130 130 130 0
-5.660435 2.144104 35.005782 128 128 128 0
-5.575283 2.144340 35.009629 126 126 126 0
-5.474201 2.138360 34.911997 122 122 122 0
-5.394110 2.140520 34.947266 117 117 117 0
-5.316212 2.143634 34.998105 115 115 115 0
-5.234186 2.145158 35.022994 112 112 112 0
-5.169665 2.154027 35.167790 108 108 108 0
-4.653961 1.972017 32.196199 105 105 105 0
-4.597213 1.981557 32.351954 106 106 106 0
-4.525039 1.984666 32.402711 106 106 106 0
-4.854602 2.167233 35.383393 108 108 108 0
-4.854730 2.206695 36.027681 112 112 112 0
-4.771402 2.208983 36.065023 111 111 111 0
-4.735344 2.233653 36.467804 118 118 118 0
-4.671140 2.245740 36.665150 135 135 135 0
-4.592274 2.251115 36.752891 150 150 150 0
-4.504555 2.252278 36.771881 156 156 156 0
-4.413143 2.251604 36.760877 162 162 162 0
-4.333336 2.256946 36.848096 162 162 162 0
-4.247093 2.259092 36.883136 167 167 167 0
-4.151535 2.256269 36.837042 157 157 157 0
-4.056409 2.253561 36.792829 154 154 154 0
-3.955539 2.247465 36.693312 150 150 150 0
-3.846810 2.236517 36.514571 153 153 153 0
-3.747747 2.230802 36.421250 154 154 154 0
-3.655709 2.229091 36.393322 150 150 150 0
-3.559785 2.224866 36.324341 153 153 153 0
-3.467904 2.223015 36.294130 151 151 151 0
-3.376893 2.221640 36.271673 156 156 156 0
-3.282035 2.217591 36.205565 153 153 153 0
-3.193500 2.217709 36.207486 150 150 150 0
-3.109035 2.220739 36.256966 147 147 147 0
-3.022568 2.222476 36.285325 141 141 141 0
-2.934162 2.222850 36.291424 134 134 134 0
-2.849611 2.226258 36.347075 128 128 128 0
-2.768593 2.232736 36.452832 109 109 109 0
-2.424689 2.020574 32.988965 84 84 84 0
-2.613661 2.253156 36.786220 82 82 82 0
-2.289278 2.043999 33.371407 82 82 82 0
-2.201579 2.038499 33.281616 67 67 67 0
-2.007579 2.389975 39.019994 110 110 110 0
-1.749322 2.186652 35.700442 136 136 136 0
-1.661765 2.186534 35.698507 147 147 147 0
-1.567804 2.177506 35.551112 150 150 150 0
-1.477168 2.172306 35.466213 149 149 149 0
-1.389234 2.170678 35.439633 147 147 147 0
-1.295679 2.159465 35.256567 150 150 150 0
-1.206880 2.155143 35.186012 146 146 146 0
-1.118934 2.151796 35.131357 148 148 148 0
-1.030590 2.147061 35.054065 147 147 147 0
-0.942858 2.142859 34.985456 150 150 150 0
-0.854935 2.137337 34.895303 149 149 149 0
-0.768618 2.135049 34.857944 152 152 152 0
-0.682860 2.133938 34.839802 152 152 152 0
-0.597031 2.132255 34.812325 151 151 151 0
-0.510929 2.128872 34.757100 151 151 151 0
-0.425859 2.129294 34.763981 149 149 149 0
-0.340827 2.130166 34.778217 149 149 149 0
-0.255470 2.128917 34.757827 145 145 145 0
-0.170202 2.127523 34.735062 143 143 143 0
-0.085218 2.130442 34.782721 142 142 142 0
0.000000 2.131849 34.805706 141 141 141 0
0.085260 2.131488 34.799811 138 138 138 0
0.170497 2.131216 34.795365 135 135 135 0
0.256359 2.136323 34.878735 135 135 135 0
0.341812 2.136324 34.878753 142 142 142 0
0.427722 2.138611 34.916102 142 142 142 0
0.513118 2.137993 34.906003 134 134 134 0
0.598980 2.139213 34.925922 130 130 130 0
0.685562 2.142380 34.977638 128 128 128 0
0.772376 2.145488 35.028377 124 124 124 0
0.860404 2.151011 35.118541 122 122 122 0
0.947760 2.154000 35.167352 117 117 117 0
1.034784 2.155800 35.196731 113 113 113 0
1.124928 2.163324 35.319571 108 108 108 0
1.215168 2.169944 35.427650 103 103 103 0
1.305301 2.175502 35.518407 95 95 95 0
1.220929 1.907702 31.146153 88 88 88 0
1.490724 2.192241 35.791693 79 79 79 0
1.391072 1.932045 31.543584 70 70 70 0
2.413311 2.623164 42.827171 69 69 69 0
2.501570 2.605802 42.543703 75 75 75 0
2.943875 2.943875 48.063268 72 72 72 0
2.765861 2.659482 43.420116 73 73 73 0
2.806258 2.598387 42.422648 72 72 72 0
3.348339 2.989589 48.809610 75 75 75 0
3.077306 2.652850 43.311843 71 71 71 0
3.606538 3.005448 49.068538 75 75 75 0
3.546332 2.859945 46.692980 76 76 76 0
3.869428 3.022991 49.354950 75 75 75 0
4.034286 3.056277 49.898403 71 71 71 0
4.165000 3.062500 50.000000 70 70 70 0
4.088514 2.920367 47.679466 72 72 72 0
4.551805 3.160976 51.607768 77 77 77 0
4.274943 2.888475 47.158781 73 73 73 0
4.563084 3.002029 49.012721 79 79 79 0
4.372977 2.803190 45.766374 75 75 75 0
5.384901 3.365563 54.947969 72 72 72 0
4.959256 3.023937 49.370392 75 75 75 0
5.001210 2.976911 48.602626 79 79 79 0
5.095803 2.962676 48.370220 92 92 92 0
5.251682 2.983910 48.716903 99 99 99 0
5.366159 2.981199 48.672644 96 96 96 0
5.517286 2.998525 48.955506 97 97 97 0
5.658570 3.009878 49.140864 99 99 99 0
