ply
format ascii 1.0
element vertex 1110
property float x
property float y
property float z
property uchar red
property uchar green
property uchar blue
property uchar alpha
end_header
-4.311774 -0.703963 35.916482 166 166 166 0
-4.232859 -0.705477 35.993703 162 162 162 0
-4.140636 -0.704789 35.958627 153 153 153 0
-4.003383 -0.696241 35.522479 138 138 138 0
-3.883377 -0.690378 35.223372 131 130 131 0
-3.781908 -0.687620 35.082639 125 125 125 0
-3.680903 -0.684819 34.939752 126 125 126 0
-3.590654 -0.683934 34.894593 120 120 120 0
-3.499876 -0.682903 34.841968 116 115 116 0
-3.412326 -0.682465 34.819656 116 116 116 0
-3.325865 -0.682229 34.807588 114 114 114 0
-3.246189 -0.683408 34.867771 100 100 100 0
-2.864294 -0.619307 31.597291 91 91 91 0
-2.813965 -0.625326 31.904371 86 85 85 0
-2.736534 -0.625493 31.912929 73 73 73 0
-2.669078 -0.667270 34.044367 59 59 59 0
-2.773895 -0.715844 36.522646 75 75 75 0
-2.682272 -0.715273 36.493500 131 131 131 0
-2.585774 -0.713317 36.393721 144 144 144 0
-2.493812 -0.712518 36.352941 147 147 147 0
-2.403069 -0.712021 36.327578 148 148 148 0
-2.309864 -0.710727 36.261594 149 149 149 0
-2.215313 -0.708900 36.168374 147 147 147 0
-2.128376 -0.709459 36.196875 145 144 145 0
-2.038257 -0.708959 36.171380 141 141 141 0
-1.949328 -0.708846 36.165634 140 140 140 0
-1.859919 -0.708541 36.150026 134 134 134 0
-1.775310 -0.710124 36.230813 131 131 131 0
-1.685825 -0.709821 36.215357 124 124 124 0
-1.599439 -0.710862 36.268454 123 123 123 0
-1.512006 -0.711532 36.302671 118 118 118 0
-1.426963 -0.713482 36.402125 116 116 116 0
-1.340728 -0.715055 36.482407 116 116 116 0
-1.249669 -0.714096 36.433493 122 122 122 0
-1.159166 -0.713333 36.394529 122 122 122 0
-1.060845 -0.707230 36.083174 121 120 121 0
-0.969431 -0.705041 35.971469 119 119 119 0
-0.879872 -0.703898 35.913141 110 109 110 0
-0.794113 -0.705878 36.014173 104 104 104 0
-0.707633 -0.707633 36.103726 99 98 99 0
-0.622931 -0.711921 36.322497 93 93 93 0
-0.536781 -0.715708 36.515711 84 84 84 0
-0.454252 -0.726804 37.081815 69 68 68 0
-0.365207 -0.730414 37.266046 83 83 83 0
-0.274112 -0.730964 37.294085 107 107 107 0
-0.183030 -0.732122 37.353150 123 123 123 0
-0.091564 -0.732510 37.372947 132 131 132 0
0.000000 -0.731397 37.316175 135 135 135 0
0.091477 -0.731813 37.337387 130 130 130 0
0.183053 -0.732211 37.357695 132 132 132 0
0.274206 -0.731217 37.306985 125 124 125 0
0.364840 -0.729680 37.228547 118 117 118 0
0.454303 -0.726885 37.085984 107 106 107 0
0.548620 -0.731493 37.321093 104 104 104 0
0.636055 -0.726920 37.087752 93 93 93 0
0.730918 -0.730918 37.291713 89 89 89 0
0.869373 -0.772776 39.427335 68 68 68 0
0.946968 -0.757575 38.651766 74 73 74 0
1.047045 -0.761487 38.851386 123 123 123 0
1.142314 -0.761543 38.854229 134 134 134 0
1.238106 -0.761911 38.873032 139 138 139 0
1.330694 -0.760396 38.795732 142 142 142 0
1.422484 -0.758658 38.707048 135 135 135 0
1.516486 -0.758243 38.685859 132 132 132 0
1.605411 -0.755488 38.545282 136 135 136 0
1.694082 -0.752925 38.414559 134 134 134 0
1.794184 -0.755446 38.543156 153 152 153 0
1.886897 -0.754759 38.508111 150 150 150 0
1.977669 -0.753398 38.438650 142 142 142 0
2.072775 -0.753736 38.455929 133 133 133 0
2.162188 -0.752066 38.370691 127 127 127 0
2.255794 -0.751931 38.363851 130 130 130 0
2.343986 -0.750076 38.269165 128 128 128 0
2.435510 -0.749388 38.234062 129 129 129 0
2.530033 -0.749639 38.246904 136 135 136 0
2.620893 -0.748827 38.205434 138 138 138 0
2.718136 -0.749831 38.256663 128 128 128 0
2.811735 -0.749796 38.254902 121 121 121 0
2.898350 -0.747961 38.161288 118 118 118 0
2.990362 -0.747590 38.142370 113 113 113 0
3.084924 -0.747860 38.156141 111 110 110 0
3.174731 -0.746996 38.112020 106 106 106 0
3.274573 -0.748474 38.187440 92 91 92 0
3.369702 -0.748823 38.205242 75 74 74 0
3.665131 -0.771606 39.367675 75 74 75 0
3.760046 -0.771292 39.351608 110 110 110 0
3.861912 -0.772382 39.407267 131 131 131 0
3.942517 -0.769272 39.248549 128 128 128 0
4.031281 -0.767863 39.176684 125 124 125 0
4.119770 -0.766469 39.105550 121 121 121 0
4.202752 -0.764137 38.986572 121 120 120 0
4.292803 -0.763165 38.936990 116 115 115 0
4.369972 -0.759995 38.775260 114 114 114 0
4.463124 -0.759681 38.759217 109 109 109 0
4.550860 -0.758477 38.697785 109 109 109 0
4.638520 -0.757309 38.638230 107 107 107 0
4.726870 -0.756299 38.586692 102 101 102 0
4.830076 -0.757659 38.656070 95 94 95 0
4.933778 -0.759043 38.726673 85 85 85 0
-6.828335 -0.597479 34.838446 163 163 163 0
-6.738018 -0.597040 34.812800 162 162 162 0
-6.647912 -0.596608 34.787611 162 162 162 0
-6.546714 -0.595156 34.702962 162 162 162 0
-6.463334 -0.595307 34.711783 161 161 161 0
-6.370207 -0.594553 34.667791 159 159 159 0
-6.272798 -0.593373 34.598997 163 163 163 0
-6.183994 -0.592986 34.576426 157 157 157 0
-6.096563 -0.592721 34.561016 160 160 160 0
-6.005156 -0.592058 34.522311 161 161 161 0
-5.916010 -0.591601 34.495684 155 155 155 0
-5.840279 -0.592492 34.547642 145 145 145 0
-5.761436 -0.593089 34.582452 135 135 135 0
-5.676802 -0.593099 34.583018 124 124 124 0
-5.605678 -0.594542 34.667150 114 114 114 0
-5.516413 -0.594075 34.639955 104 104 104 0
-5.421215 -0.592945 34.574075 107 107 107 0
-5.401235 -0.600137 34.993421 103 103 103 0
-5.310979 -0.599627 34.963655 103 103 103 0
-5.253957 -0.602913 35.155282 95 95 95 0
-5.208837 -0.607698 35.434267 97 97 97 0
-5.180956 -0.614690 35.841967 119 119 119 0
-5.107380 -0.616408 35.942156 161 161 161 0
-5.020681 -0.616575 35.951889 157 157 157 0
-4.934528 -0.616816 35.965949 156 156 156 0
-4.842852 -0.616363 35.939530 156 156 156 0
-4.757123 -0.616664 35.957089 158 158 158 0
-4.666183 -0.616288 35.935182 158 158 158 0
-4.578561 -0.616345 35.938472 154 154 154 0
-4.488174 -0.616024 35.919763 154 154 154 0
-4.406900 -0.616966 35.974692 165 165 165 0
-4.316446 -0.616635 35.955402 163 163 163 0
-4.226023 -0.616295 35.935569 146 146 146 0
-4.061224 -0.604863 35.268992 133 133 133 0
-3.954817 -0.601820 35.091548 132 132 132 0
-3.845892 -0.598250 34.883374 128 128 128 0
-3.751927 -0.596898 34.804521 126 126 126 0
-3.658922 -0.595638 34.731107 122 122 122 0
-3.574272 -0.595712 34.735398 123 123 123 0
-3.481294 -0.594367 34.656979 117 116 117 0
-3.396411 -0.594372 34.657251 116 116 116 0
-3.310972 -0.594277 34.651724 117 116 116 0
-3.221136 -0.593367 34.598668 112 112 112 0
-3.149016 -0.595760 34.738176 96 95 96 0
-2.813100 -0.546992 31.894553 84 84 84 0
-2.742298 -0.548460 31.980156 84 84 84 0
-2.760819 -0.568404 33.143083 69 69 69 0
-2.617979 -0.591157 34.469768 63 63 63 0
-2.663538 -0.621492 36.238616 68 67 68 0
-2.585536 -0.624095 36.390370 132 132 132 0
-2.492143 -0.623036 36.328612 146 146 146 0
-2.404073 -0.623278 36.342747 148 148 148 0
-2.306712 -0.621038 36.212119 148 148 148 0
-2.214406 -0.620034 36.153572 154 154 154 0
-2.127392 -0.620489 36.180140 153 153 153 0
-2.037746 -0.620184 36.162312 151 151 151 0
-1.946976 -0.619492 36.122008 146 146 146 0
-1.858821 -0.619607 36.128686 140 140 140 0
-1.773466 -0.620713 36.193189 137 137 137 0
-1.685159 -0.620848 36.201050 131 131 131 0
-1.596865 -0.621003 36.210088 127 127 127 0
-1.510214 -0.621853 36.259629 123 123 123 0
-1.423886 -0.622950 36.323623 120 120 120 0
-1.333424 -0.622265 36.283650 120 119 120 0
-1.234851 -0.617425 36.001475 126 126 126 0
-1.140505 -0.614118 35.808644 131 131 131 0
-1.052030 -0.613684 35.783335 126 126 126 0
-0.963341 -0.613035 35.745479 123 123 123 0
-0.875141 -0.612598 35.720027 117 117 117 0
-0.788202 -0.613046 35.746101 110 110 110 0
-0.702293 -0.614506 35.831281 104 104 104 0
-0.615228 -0.615228 35.873372 99 99 99 0
-0.530071 -0.618416 36.059226 94 93 94 0
-0.442291 -0.619208 36.105401 91 91 91 0
-0.355714 -0.622500 36.297377 86 86 86 0
-0.268355 -0.626162 36.510933 83 83 83 0
-0.181468 -0.635137 37.034230 94 94 94 0
-0.090868 -0.636077 37.089013 114 114 114 0
0.000000 -0.634010 36.968534 121 121 121 0
0.090186 -0.631304 36.810739 116 116 116 0
0.179565 -0.628477 36.645910 113 112 112 0
0.268679 -0.626918 36.554964 110 109 110 0
0.355070 -0.621373 36.231636 114 113 114 0
0.442822 -0.619951 36.148736 110 110 110 0
0.531637 -0.620243 36.165792 105 105 105 0
0.619568 -0.619568 36.126422 104 103 104 0
0.706503 -0.618190 36.046061 106 106 106 0
0.791668 -0.615742 35.903322 103 103 103 0
0.876713 -0.613699 35.784220 95 95 95 0
0.932318 -0.593293 34.594343 102 102 102 0
1.144425 -0.667582 38.926036 102 102 102 0
1.245176 -0.670480 39.095023 94 94 94 0
1.332006 -0.666003 38.833982 105 105 105 0
1.422245 -0.663714 38.700546 109 109 109 0
1.499797 -0.656161 38.260125 115 114 115 0
1.582088 -0.651448 37.985313 116 116 116 0
1.679013 -0.652950 38.072865 113 112 113 0
1.775812 -0.654247 38.148496 121 120 121 0
1.867962 -0.653787 38.121680 122 122 122 0
1.954623 -0.651541 37.990727 114 113 114 0
2.048410 -0.651767 38.003892 114 113 113 0
2.143623 -0.652407 38.041224 111 111 111 0
2.236164 -0.652214 38.029994 109 109 109 0
2.331134 -0.652717 38.059327 118 118 118 0
2.414119 -0.649955 37.898256 109 109 109 0
2.503046 -0.648938 37.838947 108 108 108 0
2.606016 -0.651504 37.988573 124 124 124 0
2.701878 -0.652177 38.027838 121 120 121 0
2.782939 -0.649352 37.863111 112 112 112 0
2.853776 -0.644401 37.574404 104 103 104 0
2.945419 -0.644310 37.569117 96 95 96 0
3.019666 -0.640535 37.348987 95 94 95 0
3.112425 -0.640793 37.364047 96 96 96 0
3.213746 -0.642749 37.478093 93 92 93 0
3.295020 -0.640698 37.358498 87 87 87 0
3.384295 -0.640272 37.333643 74 73 74 0
3.829102 -0.670093 39.072466 77 77 77 0
3.929167 -0.670833 39.115645 98 98 98 0
4.017318 -0.669553 39.040994 118 118 118 0
4.102167 -0.667795 38.938463 120 120 120 0
4.190442 -0.666661 38.872371 119 119 119 0
4.276406 -0.665219 38.788267 116 116 116 0
4.351888 -0.662244 38.614804 117 117 117 0
4.447647 -0.662416 38.624813 117 116 117 0
4.529747 -0.660588 38.518255 116 116 116 0
4.615325 -0.659332 38.445026 114 114 114 0
4.704209 -0.658589 38.401703 109 109 109 0
4.808311 -0.659964 38.481884 101 100 100 0
4.912072 -0.661240 38.556293 90 90 90 0
5.031790 -0.664576 38.750793 70 70 70 0
-6.839640 -0.512973 34.896124 161 161 161 0
-6.741133 -0.511985 34.828899 164 164 164 0
-6.652636 -0.511741 34.812330 164 164 164 0
-6.550172 -0.510403 34.721291 160 160 160 0
-6.461039 -0.510082 34.699456 157 157 157 0
-6.367919 -0.509434 34.655341 162 162 162 0
-6.268835 -0.508284 34.577137 159 159 159 0
-6.181617 -0.508078 34.563136 160 160 160 0
-6.096766 -0.508064 34.562166 158 158 158 0
-5.998654 -0.506928 34.484930 160 160 160 0
-5.915104 -0.507009 34.490403 159 159 159 0
-5.838827 -0.507724 34.539054 146 146 146 0
-5.761927 -0.508405 34.585397 131 131 131 0
-5.687474 -0.509326 34.648029 123 123 123 0
-5.598345 -0.508940 34.621800 110 110 110 0
-5.493133 -0.507058 34.493771 106 106 106 0
-5.433738 -0.509413 34.653939 111 111 111 0
-5.393984 -0.513713 34.946448 119 119 119 0
-5.345314 -0.517288 35.189692 111 111 111 0
-5.251544 -0.516545 35.139135 101 101 101 0
-5.204922 -0.520492 35.407636 90 90 90 0
-5.168412 -0.525601 35.755182 86 86 86 0
-5.103067 -0.527904 35.911804 151 151 151 0
-5.023771 -0.528818 35.974013 161 161 161 0
-4.936340 -0.528894 35.979151 160 160 160 0
-4.848136 -0.528888 35.978749 158 158 158 0
-4.753227 -0.528136 35.927641 161 161 161 0
-4.667039 -0.528344 35.941775 162 161 162 0
-4.576400 -0.528046 35.921508 150 150 150 0
-4.470605 -0.525954 35.779154 138 137 137 0
-4.378459 -0.525415 35.742523 137 136 137 0
-4.244802 -0.519772 35.358617 134 134 134 0
-4.112385 -0.514048 34.969263 123 123 123 0
-4.007559 -0.511603 34.802947 123 123 123 0
-3.920087 -0.511316 34.783380 120 120 120 0
-3.823218 -0.509762 34.677713 122 122 122 0
-3.729863 -0.508618 34.599843 120 120 120 0
-3.641707 -0.508145 34.567695 118 118 118 0
-3.555173 -0.507882 34.549787 120 120 120 0
-3.464447 -0.506992 34.489272 114 114 114 0
-3.378628 -0.506794 34.475799 116 115 116 0
-3.290262 -0.506194 34.434973 115 115 115 0
-3.203967 -0.505890 34.414255 110 110 110 0
-3.119609 -0.505882 34.413775 98 98 98 0
-2.739112 -0.456519 31.055689 86 86 86 0
-2.620526 -0.449233 30.560071 80 80 80 0
-2.621360 -0.462593 31.468914 79 79 79 0
-2.762217 -0.502221 34.164716 63 63 63 0
-2.578325 -0.533447 36.288885 75 75 75 0
-2.493047 -0.534224 36.341789 128 128 128 0
-2.404916 -0.534426 36.355492 148 148 148 0
-2.308973 -0.532840 36.247611 149 149 149 0
-2.215310 -0.531674 36.168321 150 150 150 0
-2.127206 -0.531802 36.176978 157 157 157 0
-2.035874 -0.531098 36.129084 156 156 156 0
-1.946136 -0.530764 36.106420 154 154 154 0
-1.856993 -0.530569 36.093157 145 145 145 0
-1.770125 -0.531038 36.125008 143 143 143 0
-1.680808 -0.530782 36.107588 143 142 143 0
-1.594914 -0.531638 36.165862 136 136 136 0
-1.507988 -0.532231 36.206194 132 132 132 0
-1.418901 -0.532088 36.196463 127 127 127 0
-1.323887 -0.529555 36.024126 133 133 133 0
-1.226832 -0.525785 35.767690 136 136 136 0
-1.136163 -0.524383 35.672321 136 136 136 0
-1.049532 -0.524766 35.698366 135 135 135 0
-0.960718 -0.524028 35.648180 131 131 131 0
-0.872433 -0.523460 35.609514 124 124 124 0
-0.785694 -0.523796 35.632388 118 118 118 0
-0.699960 -0.524970 35.712242 111 110 111 0
-0.612155 -0.524704 35.694156 109 108 108 0
-0.524775 -0.524775 35.698950 104 104 104 0
-0.439219 -0.527063 35.854630 101 100 101 0
-0.352296 -0.528444 35.948539 99 99 99 0
-0.264304 -0.528608 35.959741 103 102 102 0
-0.176836 -0.530507 36.088910 104 104 104 0
-0.088230 -0.529381 36.012321 103 102 103 0
0.000000 -0.529522 36.021904 104 104 104 0
0.088248 -0.529487 36.019498 110 109 110 0
0.176107 -0.528320 35.940124 107 107 107 0
0.264026 -0.528052 35.921875 108 108 108 0
0.351345 -0.527018 35.851566 106 106 106 0
0.438699 -0.526439 35.812164 108 108 108 0
0.526436 -0.526436 35.811957 108 108 108 0
0.613399 -0.525771 35.766713 107 107 107 0
0.700523 -0.525392 35.740956 110 110 110 0
0.786505 -0.524336 35.669148 106 105 105 0
0.874439 -0.524663 35.691380 107 107 107 0
0.958972 -0.523075 35.583365 103 103 103 0
1.046447 -0.523224 35.593448 104 104 104 0
1.132683 -0.522777 35.563048 96 96 96 0
1.219094 -0.522469 35.542091 93 93 93 0
1.290126 -0.516050 35.105465 91 91 91 0
1.484644 -0.556742 37.873580 90 90 90 0
1.592903 -0.562201 38.244969 91 91 91 0
1.656907 -0.552302 37.571592 98 97 98 0
1.745784 -0.551300 37.503421 107 107 107 0
1.826488 -0.547946 37.275271 108 108 108 0
1.918603 -0.548172 37.290635 109 109 109 0
1.996875 -0.544602 37.047765 109 108 109 0
2.088769 -0.544896 37.067770 114 114 114 0
2.179085 -0.544771 37.059271 109 108 109 0
2.259686 -0.542325 36.892832 113 113 113 0
2.342799 -0.540646 36.778632 109 109 109 0
2.427001 -0.539333 36.689351 111 110 111 0
2.508483 -0.537532 36.566801 108 108 108 0
2.593163 -0.536516 36.497717 107 106 106 0
2.683101 -0.536620 36.504781 105 105 105 0
2.763964 -0.534961 36.391887 102 102 102 0
2.860334 -0.536313 36.483856 101 101 101 0
2.941728 -0.534860 36.385008 101 101 101 0
3.031530 -0.534976 36.392920 100 99 100 0
3.125326 -0.535770 36.446951 96 95 95 0
3.225913 -0.537652 36.574975 92 92 92 0
3.314644 -0.537510 36.565292 84 83 84 0
3.973996 -0.567714 38.619983 77 76 76 0
4.088888 -0.570543 38.812417 110 110 110 0
4.171818 -0.568884 38.699610 113 113 113 0
4.257480 -0.567664 38.616598 118 118 118 0
4.336137 -0.565583 38.475043 118 118 118 0
4.429882 -0.565517 38.470531 118 118 118 0
4.512562 -0.564070 38.372124 117 116 117 0
4.599514 -0.563206 38.313321 117 117 117 0
4.690089 -0.562811 38.286438 112 112 112 0
4.790973 -0.563644 38.343122 103 103 103 0
4.896219 -0.564948 38.431859 90 90 90 0
5.013157 -0.567527 38.607294 74 74 74 0
-6.865672 -0.429105 35.028940 164 164 164 0
-6.745968 -0.426960 34.853875 164 164 164 0
-6.652388 -0.426435 34.811031 164 164 164 0
-6.548045 -0.425198 34.710021 159 159 159 0
-6.460264 -0.425017 34.695295 159 159 159 0
-6.365786 -0.424386 34.643734 158 158 158 0
-6.265620 -0.423353 34.559405 159 159 159 0
-6.180712 -0.423336 34.558076 158 158 158 0
-6.096143 -0.423343 34.558634 156 156 156 0
-6.001517 -0.422642 34.501392 158 158 158 0
-5.912225 -0.422302 34.473615 153 153 153 0
-5.837970 -0.423041 34.533984 142 142 142 0
-5.763321 -0.423774 34.593763 131 131 131 0
-5.686117 -0.424337 34.639764 119 119 119 0
-5.573845 -0.422261 34.470288 110 110 110 0
-5.488277 -0.422175 34.463281 110 110 110 0
-5.449219 -0.425720 34.752670 117 117 117 0
-5.401900 -0.428722 34.997731 126 126 126 0
-5.338652 -0.430536 35.145830 131 130 131 0
-5.265143 -0.431569 35.230132 125 124 125 0
-5.194379 -0.432865 35.335910 122 122 122 0
-5.108304 -0.432907 35.339358 115 115 115 0
-5.041744 -0.434633 35.480253 132 132 132 0
-4.982719 -0.437081 35.680049 142 141 142 0
-4.880949 -0.435799 35.575429 138 138 138 0
-4.787352 -0.435214 35.527657 129 128 128 0
-4.700840 -0.435263 35.531671 126 125 126 0
-4.586840 -0.432721 35.324141 126 126 126 0
-4.460302 -0.428875 35.010219 121 121 121 0
-4.353314 -0.426795 34.840444 124 123 124 0
-4.263114 -0.426311 34.800929 121 121 121 0
-4.168705 -0.425378 34.724738 126 125 126 0
-4.072056 -0.424172 34.626323 122 121 122 0
-3.984319 -0.423864 34.601124 124 124 124 0
-3.893000 -0.423152 34.543038 123 123 123 0
-3.798848 -0.422094 34.456668 119 118 119 0
-3.708711 -0.421444 34.403630 120 120 120 0
-3.622768 -0.421252 34.387930 114 114 114 0
-3.532464 -0.420531 34.329101 115 114 115 0
-3.437890 -0.419255 34.224888 112 111 111 0
-3.348887 -0.418611 34.172320 118 117 118 0
-3.266400 -0.418769 34.185240 113 112 112 0
-3.178630 -0.418241 34.142106 105 104 105 0
-3.100820 -0.419030 34.206512 95 95 95 0
-2.739122 -0.380434 31.055804 82 81 82 0
-2.914842 -0.416406 33.992327 82 82 82 0
-2.621273 -0.385481 31.467866 87 87 87 0
-2.555941 -0.387264 31.613369 80 80 80 0
-2.479593 -0.442784 36.145671 82 82 82 0
-2.402764 -0.444956 36.322967 137 137 137 0
-2.309367 -0.444109 36.253798 148 148 148 0
-2.215944 -0.443189 36.178675 155 155 155 0
-2.127216 -0.443170 36.177136 156 156 156 0
-2.035850 -0.442576 36.128662 157 157 157 0
-1.946960 -0.442491 36.121714 155 155 155 0
-1.856237 -0.441961 36.078466 151 151 151 0
-1.769074 -0.442268 36.103549 150 150 150 0
-1.680217 -0.442162 36.094889 147 147 147 0
-1.592976 -0.442493 36.121911 145 145 145 0
-1.506348 -0.443043 36.166807 140 139 140 0
-1.414896 -0.442155 36.094275 135 134 135 0
-1.318573 -0.439524 35.879531 139 139 139 0
-1.225117 -0.437542 35.717683 142 142 142 0
-1.134155 -0.436213 35.609254 144 144 144 0
-1.047665 -0.436527 35.634877 142 142 142 0
-0.958959 -0.435890 35.582890 137 137 137 0
-0.870308 -0.435154 35.522764 132 132 132 0
-0.784248 -0.435693 35.566797 124 124 124 0
-0.697751 -0.436094 35.599548 120 120 120 0
-0.610520 -0.436086 35.598858 116 116 116 0
-0.523679 -0.436399 35.624424 113 113 113 0
-0.436994 -0.436994 35.672976 109 108 108 0
-0.350271 -0.437839 35.741972 107 107 107 0
-0.262035 -0.436724 35.650970 107 106 107 0
-0.175008 -0.437521 35.715961 109 108 109 0
-0.087579 -0.437895 35.746564 108 107 108 0
0.000000 -0.437641 35.725793 111 110 111 0
0.087372 -0.436862 35.662183 109 108 109 0
0.174710 -0.436774 35.655050 112 112 112 0
0.262199 -0.436998 35.673291 111 111 111 0
0.349572 -0.436965 35.670603 111 111 111 0
0.435788 -0.435788 35.574532 112 111 112 0
0.522749 -0.435624 35.561140 113 113 113 0
0.610045 -0.435747 35.571152 108 108 108 0
0.695182 -0.434489 35.468457 110 110 110 0
0.781686 -0.434270 35.450617 110 110 110 0
0.868060 -0.434030 35.431034 106 106 106 0
0.953270 -0.433304 35.371791 109 108 109 0
1.038292 -0.432622 35.316046 107 107 107 0
1.124216 -0.432391 35.297214 106 105 106 0
1.212953 -0.433197 35.363054 102 102 102 0
1.302761 -0.434254 35.449275 98 98 98 0
1.388549 -0.433922 35.422168 92 92 92 0
1.476823 -0.434360 35.457940 83 83 83 0
1.660134 -0.461148 37.644760 78 78 78 0
1.739386 -0.457733 37.365969 81 80 81 0
1.808742 -0.452185 36.913095 97 97 97 0
1.899461 -0.452253 36.918588 109 109 109 0
1.977974 -0.449540 36.697111 110 110 110 0
2.063164 -0.448514 36.613384 110 109 109 0
2.147102 -0.447313 36.515343 112 112 112 0
2.232271 -0.446454 36.445248 111 110 110 0
2.314299 -0.445058 36.331228 113 113 113 0
2.401883 -0.444793 36.309651 112 111 112 0
2.489283 -0.444515 36.286918 111 111 111 0
2.575024 -0.443970 36.242423 109 109 109 0
2.658293 -0.443049 36.167249 110 110 110 0
2.748496 -0.443306 36.188235 108 107 108 0
2.835701 -0.443078 36.169655 106 106 106 0
2.926392 -0.443393 36.195321 108 107 107 0
3.020929 -0.444254 36.265657 107 107 107 0
3.112932 -0.444705 36.302414 107 106 107 0
3.210553 -0.445910 36.400822 103 103 103 0
3.300698 -0.446040 36.411455 98 98 98 0
3.401909 -0.447620 36.540381 88 88 88 0
3.508929 -0.449863 36.723490 72 71 71 0
3.645882 -0.455735 37.202881 68 68 68 0
3.983081 -0.485742 39.652378 70 70 70 0
4.056811 -0.471722 38.507936 76 76 76 0
4.149306 -0.471512 38.490783 112 112 112 0
4.241253 -0.471250 38.469412 116 115 115 0
4.319023 -0.469459 38.323182 117 116 117 0
4.413544 -0.469526 38.328646 117 117 117 0
4.496726 -0.468409 38.237469 118 118 118 0
4.583563 -0.467710 38.180448 114 114 114 0
4.674190 -0.467419 38.156655 110 110 110 0
4.777607 -0.468393 38.236148 102 102 102 0
4.883866 -0.469603 38.334902 91 91 91 0
4.998271 -0.471535 38.492652 75 75 75 0
-6.887214 -0.344361 35.138845 162 162 162 0
-6.755772 -0.342064 34.904533 165 165 165 0
-6.646180 -0.340830 34.778543 161 161 161 0
-6.550297 -0.340275 34.721956 163 163 163 0
-6.458244 -0.339908 34.684449 158 158 158 0
-6.364296 -0.339429 34.635622 158 158 158 0
-6.257836 -0.338261 34.516471 155 154 155 0
-6.176251 -0.338425 34.533136 155 155 155 0
-6.088661 -0.338259 34.516221 150 150 150 0
-5.993544 -0.337664 34.455558 151 151 151 0
-5.911156 -0.337780 34.467381 145 145 145 0
-5.837541 -0.338408 34.531445 136 136 136 0
-5.769233 -0.339367 34.629247 126 125 126 0
-5.663512 -0.338120 34.502054 110 110 110 0
-5.573859 -0.337810 34.470373 107 107 107 0
-5.512407 -0.339225 34.614800 117 117 117 0
-5.468062 -0.341754 34.872843 125 125 125 0
-5.404379 -0.343135 35.013796 134 134 134 0
-5.336913 -0.344317 35.134386 140 140 140 0
-5.262085 -0.345055 35.209667 142 142 142 0
-5.181861 -0.345457 35.250757 144 144 144 0
-5.088552 -0.344987 35.202709 142 141 142 0
-4.980774 -0.343502 35.051187 141 141 141 0
-4.874990 -0.342105 34.908627 134 134 134 0
-4.781156 -0.341511 34.848079 133 132 133 0
-4.684845 -0.340716 34.766937 127 127 127 0
-4.594097 -0.340303 34.724843 127 127 127 0
-4.507354 -0.340178 34.712003 122 122 122 0
-4.415586 -0.339660 34.659229 120 120 120 0
-4.314708 -0.338408 34.531474 123 123 123 0
-4.231532 -0.338523 34.543116 127 127 127 0
-4.136506 -0.337674 34.456528 123 123 123 0
-4.040239 -0.336687 34.355776 123 123 123 0
-3.953521 -0.336470 34.333662 123 123 123 0
-3.862905 -0.335905 34.275995 120 119 120 0
-3.770228 -0.335131 34.197082 124 124 124 0
-3.680170 -0.334561 34.138872 123 122 122 0
-3.590966 -0.334043 34.086052 119 118 119 0
-3.500945 -0.333423 34.022794 118 118 118 0
-3.412904 -0.332966 33.976150 121 121 121 0
-3.329116 -0.332912 33.970570 117 117 117 0
-3.245796 -0.332902 33.969610 118 117 118 0
-3.161749 -0.332816 33.960787 112 112 112 0
-3.081448 -0.333129 33.992806 102 101 102 0
-2.719487 -0.302165 30.833190 85 85 85 0
-2.644509 -0.302230 30.839750 78 77 78 0
-2.520301 -0.296506 30.255720 81 81 81 0
-2.538381 -0.307683 31.396183 93 92 93 0
-2.395804 -0.354934 36.217754 100 100 100 0
-2.310539 -0.355468 36.272199 146 146 146 0
-2.215190 -0.354430 36.166373 149 149 149 0
-2.127060 -0.354510 36.174490 156 156 156 0
-2.034355 -0.353801 36.102123 157 157 157 0
-1.944688 -0.353580 36.079555 154 154 154 0
-1.856233 -0.353568 36.078395 150 150 150 0
-1.769495 -0.353899 36.112141 152 152 152 0
-1.682022 -0.354110 36.133669 150 150 150 0
-1.592293 -0.353843 36.106421 145 145 145 0
-1.502534 -0.353537 36.075247 141 141 141 0
-1.409551 -0.352388 35.957940 139 139 139 0
-1.315870 -0.350899 35.805984 140 139 140 0
-1.223498 -0.349571 35.670484 142 142 142 0
-1.133628 -0.348809 35.592729 148 148 148 0
-1.046650 -0.348883 35.600346 147 147 147 0
-0.957794 -0.348289 35.539651 146 146 146 0
-0.869304 -0.347721 35.481777 139 138 138 0
-0.782894 -0.347953 35.505379 131 131 131 0
-0.695784 -0.347892 35.499204 124 124 124 0
-0.608624 -0.347785 35.488253 120 120 120 0
-0.521639 -0.347759 35.485636 117 116 117 0
-0.435548 -0.348438 35.554905 115 115 115 0
-0.348316 -0.348316 35.542466 112 112 112 0
-0.260956 -0.347942 35.504274 112 111 112 0
-0.174245 -0.348490 35.560241 109 109 109 0
-0.087109 -0.348435 35.554643 110 109 110 0
0.000000 -0.348090 35.519353 112 112 112 0
0.086921 -0.347685 35.478076 111 111 111 0
0.174024 -0.348048 35.515065 112 111 112 0
0.260984 -0.347979 35.508054 114 113 113 0
0.346980 -0.346980 35.406128 113 113 113 0
0.432786 -0.346229 35.329471 113 112 113 0
0.520096 -0.346731 35.380689 108 108 108 0
0.604639 -0.345508 35.255898 110 110 110 0
0.690766 -0.345383 35.243155 108 108 108 0
0.775780 -0.344791 35.182753 107 107 107 0
0.863361 -0.345344 35.239217 112 112 112 0
0.946657 -0.344239 35.126403 110 109 110 0
1.031702 -0.343901 35.091910 113 113 113 0
1.118917 -0.344282 35.130843 112 112 112 0
1.206048 -0.344585 35.161752 107 107 107 0
1.294104 -0.345094 35.213716 107 107 107 0
1.380625 -0.345156 35.220022 103 103 103 0
1.472413 -0.346450 35.352043 97 97 97 0
1.569840 -0.348853 35.597281 90 90 90 0
1.655139 -0.348450 35.556151 80 80 80 0
1.775579 -0.355116 36.236313 77 77 77 0
1.870222 -0.356233 36.350284 94 93 93 0
1.957344 -0.355881 36.314362 105 104 104 0
2.050033 -0.356528 36.380362 109 109 109 0
2.129460 -0.354910 36.215312 110 109 110 0
2.216924 -0.354708 36.194680 114 113 114 0
2.305157 -0.354640 36.187714 112 112 112 0
2.387773 -0.353744 36.096343 111 111 111 0
2.475318 -0.353617 36.083358 109 109 109 0
2.561880 -0.353363 36.057420 112 112 112 0
2.647490 -0.352999 36.020273 113 113 113 0
2.737252 -0.353194 36.040187 113 112 112 0
2.827915 -0.353489 36.070347 113 113 113 0
2.919956 -0.353934 36.115721 113 113 113 0
3.010012 -0.354119 36.134598 113 113 113 0
3.105316 -0.354893 36.213600 112 112 112 0
3.201995 -0.355777 36.303800 109 109 109 0
3.292456 -0.355941 36.320534 104 103 104 0
3.393360 -0.357196 36.448551 98 97 97 0
3.496843 -0.358651 36.596999 88 88 88 0
3.606713 -0.360671 36.803191 73 73 73 0
3.929413 -0.374230 38.186718 70 69 69 0
4.125704 -0.375064 38.271840 99 98 99 0
4.222431 -0.375327 38.298689 115 115 115 0
4.303961 -0.374257 38.189536 118 118 118 0
4.394113 -0.373967 38.159909 119 119 119 0
4.479525 -0.373294 38.091200 120 120 120 0
4.565534 -0.372697 38.030273 117 116 117 0
4.663825 -0.373106 38.072043 111 111 111 0
4.761367 -0.373441 38.106176 97 97 97 0
4.881225 -0.375479 38.314171 89 89 89 0
5.000317 -0.377382 38.508411 77 77 77 0
-6.888686 -0.258326 35.146356 164 164 164 0
-6.746812 -0.256208 34.858238 153 153 153 0
-6.643041 -0.255502 34.762117 159 159 159 0
-6.547205 -0.255086 34.705566 163 162 163 0
-6.454623 -0.254788 34.665002 162 162 162 0
-6.356710 -0.254268 34.594340 159 159 159 0
-6.262177 -0.253872 34.540411 154 154 154 0
-6.166924 -0.253435 34.480985 150 150 150 0
-6.077413 -0.253226 34.452454 144 144 144 0
-5.986136 -0.252935 34.412971 135 135 135 0
-5.907660 -0.253185 34.446995 135 135 135 0
-5.833295 -0.253622 34.506331 129 129 129 0
-5.751878 -0.253759 34.525075 118 118 118 0
-5.656030 -0.253255 34.456476 109 109 109 0
-5.575600 -0.253436 34.481141 111 111 111 0
-5.524727 -0.254987 34.692164 122 122 122 0
-5.469944 -0.256404 34.884850 131 131 131 0
-5.406697 -0.257462 35.028811 137 137 137 0
-5.333165 -0.258056 35.109710 153 153 153 0
-5.254504 -0.258418 35.158944 149 148 148 0
-5.174699 -0.258735 35.202035 152 152 152 0
-5.074443 -0.258023 35.105108 150 150 150 0
-4.965895 -0.256857 34.946480 142 142 142 0
-4.864025 -0.256001 34.830113 141 141 141 0
-4.769465 -0.255507 34.762862 136 136 136 0
-4.669661 -0.254709 34.654259 133 133 133 0
-4.579440 -0.254413 34.614062 129 128 129 0
-4.482918 -0.253750 34.523821 127 127 127 0
-4.384426 -0.252948 34.414644 127 127 127 0
-4.301061 -0.253004 34.422254 128 128 128 0
-4.209596 -0.252576 34.364045 128 127 127 0
-4.113601 -0.251853 34.265730 126 126 126 0
-4.022284 -0.251393 34.203095 127 127 127 0
-3.933890 -0.251099 34.163183 126 126 126 0
-3.841452 -0.250529 34.085646 125 125 125 0
-3.748462 -0.249897 33.999656 129 128 129 0
-3.662137 -0.249691 33.971588 131 131 131 0
-3.575046 -0.249422 33.934936 133 133 133 0
-3.490523 -0.249323 33.921506 129 129 129 0
-3.402185 -0.248940 33.869433 130 130 130 0
-3.317208 -0.248791 33.849057 128 128 128 0
-3.234270 -0.248790 33.848980 127 126 127 0
-3.151602 -0.248811 33.851796 120 120 120 0
-3.070838 -0.248987 33.875768 108 108 108 0
-2.994553 -0.249546 33.951849 92 92 92 0
-2.610776 -0.223781 30.446372 77 77 77 0
-2.526336 -0.222912 30.328163 78 78 78 0
-2.539838 -0.230894 31.414195 83 82 82 0
-2.709515 -0.254017 34.560142 73 73 73 0
-2.403353 -0.248623 33.826226 58 58 58 0
-2.169268 -0.241030 32.793162 64 64 64 0
-2.309047 -0.266428 36.248769 121 121 121 0
-2.216397 -0.265968 36.186078 146 146 146 0
-2.126698 -0.265837 36.168329 151 151 151 0
-2.034689 -0.265394 36.108063 156 156 156 0
-1.945083 -0.265239 36.086882 155 155 155 0
-1.855575 -0.265082 36.065594 150 150 150 0
-1.769545 -0.265432 36.113168 151 151 151 0
-1.680044 -0.265270 36.091178 149 149 149 0
-1.590937 -0.265156 36.075662 144 144 144 0
-1.500181 -0.264738 36.018759 147 147 147 0
-1.405587 -0.263548 35.856815 141 141 141 0
-1.314776 -0.262955 35.776226 141 141 141 0
-1.223713 -0.262224 35.676778 146 146 146 0
-1.134092 -0.261713 35.607271 147 147 147 0
-1.046473 -0.261618 35.594303 148 148 148 0
-0.957098 -0.261027 35.513837 150 150 150 0
-0.867957 -0.260387 35.426800 146 146 146 0
-0.781837 -0.260612 35.457439 141 141 141 0
-0.694427 -0.260410 35.429927 132 132 132 0
-0.606734 -0.260029 35.378084 128 127 128 0
-0.519827 -0.259913 35.362360 122 122 122 0
-0.433800 -0.260280 35.412205 115 114 115 0
-0.346284 -0.259713 35.335057 117 117 117 0
-0.259805 -0.259805 35.347556 109 109 109 0
-0.173494 -0.260240 35.406853 112 112 112 0
-0.086634 -0.259902 35.360849 111 111 111 0
0.000000 -0.259786 35.345038 112 112 112 0
0.086503 -0.259510 35.307524 113 113 113 0
0.172852 -0.259279 35.275990 112 112 112 0
0.259596 -0.259596 35.319220 115 115 115 0
0.344495 -0.258371 35.152584 115 115 115 0
0.430159 -0.258096 35.115051 117 117 117 0
0.516151 -0.258075 35.112295 118 118 118 0
0.601662 -0.257855 35.082328 116 116 116 0
0.686571 -0.257464 35.029115 118 117 118 0
0.772272 -0.257424 35.023680 118 117 118 0
0.857627 -0.257288 35.005175 121 121 121 0
0.943205 -0.257238 34.998343 123 123 123 0
1.029161 -0.257290 35.005488 123 123 123 0
1.115675 -0.257464 35.029048 121 121 121 0
1.203044 -0.257795 35.074169 117 117 117 0
1.290174 -0.258035 35.106775 114 114 114 0
1.378273 -0.258426 35.160023 112 111 112 0
1.467366 -0.258947 35.230879 108 108 108 0
1.557309 -0.259552 35.313133 101 101 101 0
1.648149 -0.260234 35.406002 92 92 92 0
1.738888 -0.260833 35.487504 87 87 87 0
1.838447 -0.262635 35.732687 84 83 84 0
1.937178 -0.264161 35.940228 95 95 95 0
2.029594 -0.264730 36.017645 101 101 101 0
2.113386 -0.264173 35.941936 101 101 101 0
2.200266 -0.264032 35.922715 111 110 110 0
2.288915 -0.264106 35.932735 112 112 112 0
2.373908 -0.263768 35.886746 114 113 114 0
2.462857 -0.263878 35.901708 119 118 119 0
2.552301 -0.264031 35.922605 122 122 122 0
2.641142 -0.264114 35.933908 123 123 123 0
2.728505 -0.264049 35.925016 121 121 121 0
2.822698 -0.264628 36.003800 119 119 119 0
2.913010 -0.264819 36.029812 116 116 116 0
3.003560 -0.265020 36.057141 115 115 115 0
3.100518 -0.265759 36.157645 113 113 113 0
3.196434 -0.266369 36.240743 111 111 111 0
3.286484 -0.266472 36.254648 108 108 108 0
3.384380 -0.267188 36.352093 104 103 103 0
3.485656 -0.268127 36.479919 98 98 98 0
3.589781 -0.269234 36.630419 84 84 84 0
4.105403 -0.279914 38.083512 86 85 86 0
4.210203 -0.280680 38.187779 119 119 119 0
4.289693 -0.279763 38.062933 118 118 118 0
4.379190 -0.279523 38.030311 123 122 122 0
4.467160 -0.279197 37.986053 123 123 123 0
4.556350 -0.278960 37.953766 119 119 119 0
4.652574 -0.279154 37.980193 110 109 110 0
4.757942 -0.279879 38.078770 96 95 95 0
4.871644 -0.281056 38.238966 86 85 86 0
4.997224 -0.282862 38.484589 76 76 76 0
-6.840752 -0.171019 34.901797 146 146 146 0
-6.721743 -0.170171 34.728715 141 141 141 0
-6.630493 -0.170013 34.696456 147 147 147 0
-6.540698 -0.169888 34.671074 151 151 151 0
-6.451091 -0.169766 34.646030 155 155 155 0
-6.347416 -0.169264 34.543758 148 148 148 0
-6.245055 -0.168785 34.445972 142 142 142 0
-6.157764 -0.168706 34.429767 138 138 138 0
-6.064608 -0.168461 34.379865 133 133 133 0
-5.972570 -0.168241 34.334979 123 122 123 0
-5.900302 -0.168580 34.404091 116 116 116 0
-5.827585 -0.168916 34.472551 111 111 111 0
-5.743927 -0.168939 34.477355 109 109 109 0
-5.641763 -0.168411 34.369559 106 106 106 0
-5.589689 -0.169385 34.568268 113 113 113 0
-5.536342 -0.170349 34.765101 127 127 127 0
-5.475088 -0.171097 34.917655 134 134 134 0
-5.400984 -0.171460 34.991800 144 144 144 0
-5.327187 -0.171845 35.070353 149 149 149 0
-5.249637 -0.172119 35.126379 150 150 150 0
-5.166691 -0.172223 35.147558 151 151 151 0
-5.064724 -0.171686 35.037872 144 143 143 0
-4.952661 -0.170781 34.853347 143 143 143 0
-4.849855 -0.170170 34.728644 137 136 137 0
-4.744122 -0.169433 34.578146 132 132 132 0
-4.642599 -0.168822 34.453423 132 132 132 0
-4.559752 -0.168880 34.465248 127 127 127 0
-4.463714 -0.168442 34.375927 126 126 126 0
-4.368140 -0.168005 34.286810 127 126 127 0
-4.281494 -0.167902 34.265661 130 129 130 0
-4.190127 -0.167605 34.205122 130 130 130 0
-4.097925 -0.167262 34.135156 131 131 131 0
-4.008003 -0.167000 34.081662 132 132 132 0
-3.916623 -0.166665 34.013225 132 132 132 0
-3.829242 -0.166489 33.977306 135 135 135 0
-3.742589 -0.166337 33.946385 138 138 138 0
-3.652479 -0.166022 33.881997 138 138 138 0
-3.569323 -0.166015 33.880616 138 138 138 0
-3.481301 -0.165776 33.831887 138 138 138 0
-3.393830 -0.165553 33.786261 137 136 136 0
-3.308550 -0.165428 33.760716 135 135 135 0
-3.226269 -0.165450 33.765248 130 130 130 0
-3.145934 -0.165575 33.790916 124 124 124 0
-3.062261 -0.165528 33.781150 116 116 116 0
-2.985925 -0.165885 33.854026 104 104 104 0
-2.618264 -0.149615 30.533690 86 86 86 0
-2.573895 -0.151406 30.899103 77 77 77 0
-2.529139 -0.153281 31.281869 78 77 78 0
-2.500892 -0.156306 31.899136 86 85 86 0
-2.391922 -0.154318 31.493376 59 59 59 0
-2.066334 -0.158949 32.438527 74 74 74 0
-2.213264 -0.177061 36.134929 137 137 137 0
-2.126682 -0.177223 36.168055 146 146 146 0
-2.035429 -0.176994 36.121190 153 153 153 0
-1.944307 -0.176755 36.072484 152 152 152 0
-1.855603 -0.176724 36.066139 147 147 147 0
-1.768933 -0.176893 36.100678 145 145 145 0
-1.679662 -0.176807 36.082970 147 147 147 0
-1.589452 -0.176606 36.042005 142 142 142 0
-1.496925 -0.176109 35.940581 145 145 145 0
-1.404252 -0.175531 35.822743 143 143 143 0
-1.314707 -0.175294 35.774340 145 145 145 0
-1.221897 -0.174557 35.623808 146 146 146 0
-1.132710 -0.174263 35.563883 147 147 147 0
-1.045771 -0.174295 35.570435 148 148 148 0
-0.956549 -0.173918 35.493485 150 150 150 0
-0.867442 -0.173488 35.405798 150 150 150 0
-0.781544 -0.173677 35.444192 148 148 148 0
-0.693692 -0.173423 35.392437 145 145 145 0
-0.605361 -0.172960 35.298005 137 137 137 0
-0.518624 -0.172875 35.280520 130 129 130 0
-0.432335 -0.172934 35.292630 127 126 127 0
-0.345378 -0.172689 35.242608 122 122 122 0
-0.258594 -0.172396 35.182851 120 120 120 0
-0.172564 -0.172564 35.217042 117 116 117 0
-0.086116 -0.172232 35.149315 117 116 116 0
0.000000 -0.172094 35.121306 116 115 116 0
0.086001 -0.172003 35.102555 117 117 117 0
0.171915 -0.171915 35.084732 117 117 117 0
0.257826 -0.171884 35.078340 123 123 123 0
0.343107 -0.171554 35.010962 124 124 124 0
0.428368 -0.171347 34.968826 126 126 126 0
0.514329 -0.171443 34.988351 128 128 128 0
0.599439 -0.171268 34.952688 127 127 127 0
0.684672 -0.171168 34.932227 128 128 128 0
0.770115 -0.171137 34.925849 130 130 130 0
0.855259 -0.171052 34.908535 130 130 130 0
0.941675 -0.171214 34.941549 129 129 129 0
1.026994 -0.171166 34.931765 128 128 128 0
1.113522 -0.171311 34.961457 125 125 125 0
1.201279 -0.171611 35.022700 122 122 122 0
1.287936 -0.171725 35.045885 118 118 118 0
1.374719 -0.171840 35.069363 115 115 115 0
1.464384 -0.172280 35.159277 112 112 112 0
1.554310 -0.172701 35.245118 107 107 107 0
1.644316 -0.173086 35.323647 103 103 103 0
1.733567 -0.173357 35.378909 100 100 100 0
1.826734 -0.173975 35.505026 99 99 99 0
1.921269 -0.174661 35.645058 100 100 100 0
2.008783 -0.174677 35.648320 103 103 103 0
2.099965 -0.174997 35.713690 109 108 109 0
2.190747 -0.175260 35.767296 113 112 112 0
2.282743 -0.175596 35.835843 118 117 118 0
2.366908 -0.175327 35.780928 124 124 124 0
2.457496 -0.175535 35.823558 127 127 127 0
2.546689 -0.175634 35.843621 128 128 128 0
2.636291 -0.175753 35.867901 127 126 127 0
2.724258 -0.175759 35.869093 124 124 124 0
2.817919 -0.176120 35.942848 120 120 120 0
2.910418 -0.176389 35.997743 117 117 117 0
3.001680 -0.176569 36.034571 116 116 116 0
3.096446 -0.176940 36.110156 115 115 115 0
3.190620 -0.177257 36.174831 113 112 112 0
3.282561 -0.177436 36.211373 109 109 109 0
3.381240 -0.177960 36.318364 105 105 105 0
3.479447 -0.178433 36.414938 99 99 99 0
3.584961 -0.179248 36.581236 91 91 91 0
3.665194 -0.178790 36.487749 69 69 69 0
4.076047 -0.185275 37.811193 88 87 87 0
4.192868 -0.186350 38.030546 125 125 125 0
4.281699 -0.186161 37.992002 127 126 126 0
4.368546 -0.185896 37.937870 129 129 129 0
4.451113 -0.185463 37.849602 128 128 128 0
4.551433 -0.185773 37.912808 122 122 122 0
4.643386 -0.185735 37.905188 109 109 109 0
4.751357 -0.186328 38.026065 92 92 92 0
4.872316 -0.187397 38.244241 84 84 84 0
4.994512 -0.188472 38.463701 76 76 76 0
-6.795406 -0.084943 34.670437 139 139 139 0
-6.702015 -0.084836 34.626790 140 140 140 0
-6.604440 -0.084672 34.560125 142 142 142 0
-6.503402 -0.084460 34.473371 140 140 140 0
-6.416605 -0.084429 34.460822 137 137 137 0
-6.315651 -0.084209 34.370892 138 137 138 0
-6.213850 -0.083971 34.273854 137 136 137 0
-6.128942 -0.083958 34.268616 128 128 128 0
-6.043994 -0.083944 34.263003 130 130 130 0
-5.955542 -0.083881 34.237090 113 113 113 0
-5.884200 -0.084060 34.310203 105 105 105 0
-5.315462 -0.077036 31.443136 93 93 93 0
-5.698203 -0.083797 34.202900 96 96 96 0
-5.619731 -0.083877 34.235341 101 101 101 0
-5.597956 -0.084818 34.619392 112 112 112 0
-5.545497 -0.085315 34.822585 122 122 122 0
-5.476470 -0.085570 34.926468 132 132 132 0
-5.396801 -0.085664 34.964696 143 143 143 0
-5.321035 -0.085823 35.029855 143 142 142 0
-5.242050 -0.085935 35.075610 146 146 146 0
-5.154951 -0.085916 35.067695 147 146 147 0
-5.054163 -0.085664 34.964808 142 142 142 0
-4.934258 -0.085073 34.723841 133 133 133 0
-4.817708 -0.084521 34.498445 128 127 128 0
-4.711807 -0.084139 34.342617 126 126 126 0
-4.626693 -0.084122 34.335382 130 130 130 0
-4.538236 -0.084041 34.302616 125 125 125 0
-4.443912 -0.083847 34.223425 127 126 127 0
-4.351726 -0.083687 34.157974 133 132 132 0
-4.266278 -0.083653 34.143878 132 132 132 0
-4.173742 -0.083475 34.071359 139 138 139 0
-4.085721 -0.083382 34.033497 136 136 136 0
-3.993125 -0.083190 33.955145 135 135 135 0
-3.906250 -0.083112 33.923141 139 139 139 0
-3.824624 -0.083144 33.936328 139 139 139 0
-3.733851 -0.082974 33.867128 141 141 141 0
-3.647507 -0.082898 33.835870 142 142 142 0
-3.559620 -0.082782 33.788512 142 142 142 0
-3.473969 -0.082714 33.760632 144 144 144 0
-3.385660 -0.082577 33.704933 140 139 140 0
-3.301721 -0.082543 33.691031 139 139 139 0
-3.221244 -0.082596 33.712648 137 137 137 0
-3.139393 -0.082616 33.720655 128 127 128 0
-3.055193 -0.082573 33.703177 117 116 116 0
-2.979833 -0.082773 33.784957 109 109 109 0
-2.904369 -0.082982 33.870187 98 98 98 0
-2.542305 -0.074774 30.519865 80 80 80 0
-2.495488 -0.075621 30.865657 79 79 79 0
-2.458962 -0.076843 31.364310 83 83 83 0
-2.341173 -0.075522 30.825191 74 74 74 0
-2.260506 -0.086943 35.486747 60 60 60 0
-2.212612 -0.088504 36.124273 92 92 92 0
-2.127044 -0.088627 36.174218 142 142 142 0
-2.035398 -0.088496 36.120630 151 151 151 0
-1.945096 -0.088413 36.087134 151 151 151 0
-1.855322 -0.088349 36.060677 147 147 147 0
-1.765872 -0.088294 36.038205 144 144 144 0
-1.677007 -0.088264 36.025940 143 143 143 0
-1.586390 -0.088133 35.972555 144 144 144 0
-1.495352 -0.087962 35.902804 147 147 147 0
-1.403999 -0.087750 35.816302 146 146 146 0
-1.313206 -0.087547 35.733497 148 148 148 0
-1.222470 -0.087319 35.640520 146 146 146 0
-1.132894 -0.087146 35.569685 151 151 151 0
-1.046764 -0.087230 35.604207 147 147 147 0
-0.956413 -0.086947 35.488407 150 150 150 0
-0.867100 -0.086710 35.391841 148 148 148 0
-0.780990 -0.086777 35.419035 150 150 150 0
-0.693106 -0.086638 35.362561 147 147 147 0
-0.604695 -0.086385 35.259184 149 149 149 0
-0.518227 -0.086371 35.253507 144 144 144 0
-0.431467 -0.086293 35.221826 140 140 140 0
-0.344556 -0.086139 35.158745 138 138 138 0
-0.258028 -0.086009 35.105793 138 138 138 0
-0.172083 -0.086042 35.119027 136 136 136 0
-0.085904 -0.085904 35.062720 133 133 133 0
0.000000 -0.085848 35.039882 133 133 133 0
0.085755 -0.085755 35.001990 132 132 132 0
0.171332 -0.085666 34.965741 131 131 131 0
0.256954 -0.085651 34.959782 134 134 134 0
0.342408 -0.085602 34.939560 135 135 135 0
0.427618 -0.085524 34.907604 136 136 136 0
0.512668 -0.085445 34.875344 139 139 139 0
0.598783 -0.085540 34.914480 138 138 138 0
0.683651 -0.085456 34.880177 138 138 138 0
0.768575 -0.085397 34.856004 135 135 135 0
0.853939 -0.085394 34.854665 135 135 135 0
0.940433 -0.085494 34.895456 133 133 133 0
1.025788 -0.085482 34.890761 131 130 131 0
1.112476 -0.085575 34.928598 128 128 128 0
1.199021 -0.085644 34.956874 125 125 125 0
1.286352 -0.085757 35.002784 119 119 119 0
1.373731 -0.085858 35.044165 117 117 117 0
1.463395 -0.086082 35.135543 113 113 113 0
1.553000 -0.086278 35.215427 109 109 109 0
1.642329 -0.086438 35.280964 106 106 106 0
1.731308 -0.086565 35.332810 106 106 106 0
1.824840 -0.086897 35.468221 107 107 107 0
1.918030 -0.087183 35.584970 112 112 112 0
2.004389 -0.087147 35.570354 115 115 115 0
2.095109 -0.087296 35.631112 119 119 119 0
2.187045 -0.087482 35.706858 124 124 124 0
2.277948 -0.087613 35.760559 127 127 127 0
2.362786 -0.087511 35.718608 131 131 131 0
2.453240 -0.087616 35.761522 132 132 132 0
2.545484 -0.087775 35.826661 131 131 131 0
2.635020 -0.087834 35.850607 129 129 129 0
2.720966 -0.087773 35.825759 128 127 128 0
2.816382 -0.088012 35.923241 124 123 124 0
2.906775 -0.088084 35.952686 119 119 119 0
2.997940 -0.088175 35.989672 116 116 116 0
3.094354 -0.088410 36.085766 115 115 115 0
3.189682 -0.088602 36.164196 113 113 113 0
3.282363 -0.088713 36.209192 110 110 110 0
3.376568 -0.088857 36.268188 107 107 107 0
3.477791 -0.089174 36.397605 101 101 101 0
3.580049 -0.089501 36.531116 93 93 93 0
3.691767 -0.090043 36.752286 67 67 67 0
4.071188 -0.092527 37.766123 91 91 91 0
4.184376 -0.092986 37.953520 130 129 130 0
4.275258 -0.092940 37.934850 131 131 131 0
4.358740 -0.092739 37.852715 132 132 132 0
4.445117 -0.092607 37.798610 128 128 128 0
4.543615 -0.092727 37.847689 122 121 121 0
4.638037 -0.092761 37.861528 108 108 108 0
4.741041 -0.092962 37.943505 93 93 93 0
4.862055 -0.093501 38.163695 83 83 83 0
4.982391 -0.094007 38.370356 73 72 73 0
-6.757091 0.000000 34.474953 141 141 141 0
-6.656370 0.000000 34.390959 139 139 139 0
-6.573774 0.000000 34.399653 136 136 136 0
-6.486503 0.000000 34.383795 136 136 136 0
-6.377749 0.000000 34.252144 136 136 136 0
-6.282862 0.000000 34.192447 134 133 133 0
-6.193742 0.000000 34.162943 130 129 130 0
-6.099585 0.000000 34.104471 131 131 131 0
-6.005208 0.000000 34.043131 126 126 126 0
-5.917452 0.000000 34.018119 115 115 115 0
-5.857731 0.000000 34.155866 104 103 104 0
-5.661362 0.000000 33.489275 93 93 93 0
-5.575240 0.000000 33.464829 90 89 90 0
-5.573296 0.000000 33.952460 86 86 86 0
-5.579514 0.000000 34.505343 99 99 99 0
-5.538129 0.000000 34.776320 121 121 121 0
-5.464864 0.000000 34.852448 135 135 135 0
-5.391994 0.000000 34.933554 148 148 148 0
-5.315107 0.000000 34.990828 153 152 153 0
-5.234272 0.000000 35.023565 141 141 141 0
-5.132869 0.000000 34.917473 133 132 133 0
-4.998854 0.000000 34.582177 128 128 128 0
-4.884487 0.000000 34.373588 127 127 127 0
-4.787036 0.000000 34.278812 125 124 124 0
-4.690814 0.000000 34.189607 125 125 125 0
-4.607713 0.000000 34.194530 127 127 127 0
-4.517871 0.000000 34.148682 129 129 129 0
-4.429579 0.000000 34.113048 128 128 128 0
-4.337465 0.000000 34.046039 130 130 130 0
-4.251728 0.000000 34.027432 134 134 134 0
-4.161630 0.000000 33.972488 135 135 135 0
-4.072025 0.000000 33.919408 137 137 137 0
-3.987795 0.000000 33.909825 138 138 138 0
-3.900005 0.000000 33.868907 139 139 139 0
-3.815199 0.000000 33.852695 141 141 141 0
-3.726893 0.000000 33.804022 143 143 143 0
-3.640197 0.000000 33.768057 143 142 142 0
-3.555428 0.000000 33.748726 142 142 142 0
-3.470812 0.000000 33.729956 143 143 143 0
-3.381450 0.000000 33.663021 141 141 141 0
-3.296480 0.000000 33.637549 140 140 140 0
-3.216574 0.000000 33.663779 136 136 136 0
-3.132618 0.000000 33.647883 130 130 130 0
-3.048629 0.000000 33.630764 118 117 117 0
-2.972568 0.000000 33.702587 110 110 110 0
-2.897781 0.000000 33.793360 108 107 108 0
-2.819952 0.000000 33.852965 93 93 93 0
-2.489409 0.000000 30.790468 83 82 82 0
-2.420843 0.000000 30.878094 80 79 80 0
-2.316315 0.000000 30.497889 77 76 77 0
-2.158277 0.000000 35.237173 63 62 63 0
-2.123114 0.000000 36.107378 118 118 118 0
-2.034276 0.000000 36.100736 148 148 148 0
-1.944526 0.000000 36.076554 151 151 151 0
-1.853528 0.000000 36.025813 147 147 147 0
-1.763820 0.000000 35.996336 144 144 144 0
-1.674384 0.000000 35.969576 143 143 143 0
-1.583788 0.000000 35.913568 144 144 144 0
-1.493618 0.000000 35.861169 148 148 148 0
-1.403726 0.000000 35.809342 145 145 145 0
-1.313311 0.000000 35.736346 150 150 150 0
-1.223002 0.000000 35.656049 148 148 148 0
-1.133388 0.000000 35.585184 150 150 150 0
-1.046915 0.000000 35.609369 150 150 150 0
-0.956522 0.000000 35.492475 148 148 148 0
-0.867100 0.000000 35.391841 150 150 150 0
-0.780616 0.000000 35.402106 148 148 148 0
-0.693228 0.000000 35.368799 150 150 150 0
-0.604623 0.000000 35.254975 148 148 148 0
-0.518102 0.000000 35.245023 147 147 147 0
-0.431389 0.000000 35.215434 147 147 147 0
-0.344179 0.000000 35.120355 148 148 148 0
-0.257756 0.000000 35.068831 148 148 148 0
-0.171717 0.000000 35.044290 145 145 145 0
-0.085734 0.000000 34.993645 146 146 146 0
0.000000 0.000000 34.964078 146 146 146 0
0.085612 0.000000 34.943558 144 144 144 0
0.171044 0.000000 34.906935 144 144 144 0
0.256579 0.000000 34.908729 145 145 145 0
0.342014 0.000000 34.899393 144 144 144 0
0.427251 0.000000 34.877636 145 145 145 0
0.511912 0.000000 34.823936 145 145 145 0
0.597728 0.000000 34.852924 145 145 145 0
0.682809 0.000000 34.837207 145 145 145 0
0.768013 0.000000 34.830512 142 142 142 0
0.853026 0.000000 34.817391 139 139 139 0
0.939918 0.000000 34.876379 137 137 137 0
1.025215 0.000000 34.871261 132 132 132 0
1.110773 0.000000 34.875141 129 129 129 0
1.198181 0.000000 34.932379 126 126 126 0
1.285644 0.000000 34.983514 120 120 120 0
1.372552 0.000000 35.014088 116 116 116 0
1.462044 0.000000 35.103086 113 113 113 0
1.551795 0.000000 35.188090 110 110 110 0
1.641387 0.000000 35.260736 109 109 109 0
1.728842 0.000000 35.282495 110 110 110 0
1.822554 0.000000 35.423795 110 110 110 0
1.913155 0.000000 35.494523 114 114 114 0
2.002720 0.000000 35.540727 119 119 119 0
2.092533 0.000000 35.587288 124 124 124 0
2.184597 0.000000 35.666887 127 127 127 0
2.275695 0.000000 35.725196 128 128 128 0
2.361573 0.000000 35.700271 130 130 130 0
2.452167 0.000000 35.745881 132 132 132 0
2.542461 0.000000 35.784104 132 132 132 0
2.634191 0.000000 35.839340 130 130 130 0
2.720099 0.000000 35.814335 127 127 127 0
2.812229 0.000000 35.870268 124 124 124 0
2.907067 0.000000 35.956306 121 121 121 0
2.997898 0.000000 35.989175 118 118 118 0
3.092135 0.000000 36.059881 116 116 116 0
3.187649 0.000000 36.141149 113 113 113 0
3.280442 0.000000 36.187996 110 110 110 0
3.376274 0.000000 36.265030 107 107 107 0
