ply
format ascii 1.0
element vertex 1128
property float x
property float y
property float z
property uchar red
property uchar green
property uchar blue
property uchar alpha
end_header
1.721366 -0.137709 28.103941 100 100 100 0
1.842166 -0.141705 28.919410 102 102 102 0
1.818390 -0.134696 27.488892 108 108 108 0
1.977616 -0.141258 28.828226 95 95 95 0
1.979167 -0.136494 27.855971 85 85 85 0
2.034770 -0.135651 27.683950 73 73 73 0
2.243660 -0.144752 29.541272 95 95 95 0
2.728773 -0.170548 34.805776 138 138 138 0
2.820055 -0.170912 34.880084 156 156 156 0
2.906473 -0.170969 34.891628 157 157 157 0
2.986894 -0.170680 34.832578 158 158 158 0
3.071891 -0.170661 34.828692 152 152 152 0
3.151079 -0.170329 34.760939 151 151 151 0
3.236566 -0.170346 34.764400 152 152 152 0
3.320934 -0.170304 34.755986 160 160 160 0
3.422173 -0.171109 34.920135 161 161 161 0
3.518029 -0.171611 35.022692 162 162 162 0
3.600681 -0.171461 34.992045 159 159 159 0
3.680356 -0.171179 34.934561 158 158 158 0
3.774516 -0.171569 35.014060 150 150 150 0
3.837717 -0.170565 34.809221 146 146 146 0
3.874419 -0.168453 34.378165 142 142 142 0
3.918593 -0.166749 34.030338 143 143 143 0
3.993314 -0.166388 33.956755 141 141 141 0
4.050349 -0.165320 33.738848 143 143 143 0
4.109920 -0.164397 33.550364 136 136 136 0
4.192741 -0.164421 33.555352 141 141 141 0
4.253045 -0.163579 33.383399 140 140 140 0
4.330991 -0.163434 33.353797 143 143 143 0
4.407333 -0.163235 33.313173 141 141 141 0
4.565657 -0.166024 33.882430 137 137 137 0
4.535312 -0.161975 33.056212 142 142 142 0
4.849531 -0.170159 34.726325 140 140 140 0
4.686473 -0.161603 32.980105 141 140 140 0
4.891103 -0.165800 33.836754 142 142 142 0
5.356412 -0.178547 36.438180 142 142 142 0
5.443956 -0.178490 36.426605 144 144 144 0
5.663476 -0.182693 37.284242 144 144 144 0
5.755388 -0.182711 37.287906 145 145 145 0
5.710414 -0.178450 36.418459 148 148 148 0
5.938194 -0.182714 37.288504 151 151 151 0
6.170359 -0.186981 38.159299 151 151 151 0
6.120688 -0.182707 37.287166 153 153 153 0
6.066683 -0.178432 36.414665 155 155 155 0
6.451877 -0.187011 38.165496 157 157 157 0
6.395168 -0.182719 37.289610 159 159 159 0
4.502108 -0.126820 25.881621 158 158 158 0
6.734038 -0.187057 38.174818 161 161 161 0
7.066290 -0.193597 39.509590 161 161 161 0
7.180724 -0.194074 39.606859 158 158 158 0
7.180160 -0.191471 39.075699 151 151 151 0
7.402441 -0.194801 39.755322 151 151 151 0
7.370548 -0.191443 39.069959 148 148 148 0
7.610419 -0.195139 39.824273 148 148 148 0
7.392293 -0.187147 38.193198 143 143 143 0
-6.252815 -0.078160 31.902119 163 163 163 0
-6.169193 -0.078091 31.873897 165 165 165 0
-6.076020 -0.077898 31.794975 160 160 160 0
-5.997916 -0.077895 31.793883 163 163 163 0
-5.920814 -0.077905 31.798141 162 162 162 0
-5.833397 -0.077779 31.746380 166 166 166 0
-5.749229 -0.077692 31.711139 164 164 164 0
-5.672509 -0.077706 31.716570 169 169 169 0
-5.596554 -0.077730 31.726494 169 169 169 0
-5.512849 -0.077646 31.692146 166 166 166 0
-5.432238 -0.077603 31.674855 160 160 160 0
-5.354990 -0.077609 31.676960 160 160 160 0
-5.284813 -0.077718 31.721567 155 155 155 0
-5.207138 -0.077718 31.721828 158 158 158 0
-5.131660 -0.077752 31.735686 156 156 156 0
-5.056525 -0.077793 31.752120 153 153 153 0
-4.989997 -0.077969 31.823958 151 151 151 0
-4.916589 -0.078041 31.853510 148 148 148 0
-4.844858 -0.078143 31.895051 151 151 151 0
-4.775569 -0.078288 31.954291 149 149 149 0
-4.700796 -0.078347 31.978204 154 154 154 0
-4.622497 -0.078347 31.978531 144 144 144 0
-4.551847 -0.078480 32.032702 143 143 143 0
-4.473187 -0.078477 32.031411 142 142 142 0
-4.400320 -0.078577 32.072304 147 147 147 0
-4.324924 -0.078635 32.095913 151 151 151 0
-4.251690 -0.078735 32.136732 161 161 161 0
-4.165890 -0.078602 32.082324 164 164 164 0
-4.071859 -0.078305 31.961215 165 165 165 0
-3.982854 -0.078095 31.875584 162 162 162 0
-3.895228 -0.077905 31.797779 161 161 161 0
-3.811898 -0.077794 31.752584 160 160 160 0
-3.735815 -0.077829 31.767134 164 164 164 0
-3.648120 -0.077620 31.681457 160 160 160 0
-3.564501 -0.077489 31.628229 166 166 166 0
-3.487329 -0.077496 31.631101 158 158 158 0
-3.404049 -0.077365 31.577448 156 155 155 0
-3.314172 -0.077074 31.458684 154 154 154 0
-3.238312 -0.077103 31.470472 145 145 145 0
-3.163408 -0.077156 31.492367 138 138 138 0
-3.082400 -0.077060 31.453062 132 132 132 0
-3.000952 -0.076947 31.407138 122 122 122 0
-2.636716 -0.069387 28.321337 121 121 121 0
-2.579155 -0.069707 28.451787 116 116 116 0
-2.516387 -0.069900 28.530469 119 119 119 0
-2.451290 -0.070037 28.586470 113 113 113 0
-2.384698 -0.070138 28.627828 110 110 110 0
-2.317914 -0.070240 28.669315 110 110 110 0
-2.230381 -0.069699 28.448739 108 108 108 0
-2.382800 -0.076865 31.373275 101 101 101 0
-2.346738 -0.078225 31.928412 83 83 83 0
-2.275761 -0.078475 32.030412 70 70 70 0
-2.007322 -0.071690 29.261251 65 65 65 0
-2.176725 -0.080619 32.905888 96 96 96 0
-2.105414 -0.080977 33.052022 134 134 134 0
-2.015645 -0.080626 32.908490 133 133 133 0
-1.924683 -0.080195 32.732708 133 133 133 0
-1.822036 -0.079219 32.334261 137 137 137 0
-1.729870 -0.078630 32.094063 139 139 139 0
-1.640634 -0.078125 31.887936 136 136 136 0
-1.556180 -0.077809 31.758783 135 135 135 0
-1.469729 -0.077354 31.573134 136 136 136 0
-1.386886 -0.077049 31.448653 133 133 133 0
-1.307617 -0.076919 31.395375 133 133 133 0
-1.226910 -0.076682 31.298725 138 138 138 0
-1.144374 -0.076292 31.139422 139 139 139 0
-1.065936 -0.076138 31.076865 135 135 135 0
-0.987154 -0.075935 30.993855 138 138 138 0
-0.909363 -0.075780 30.930700 136 136 136 0
-0.831434 -0.075585 30.850974 139 139 139 0
-0.753574 -0.075357 30.758136 139 139 139 0
-0.678564 -0.075396 30.773879 137 137 137 0
-0.602185 -0.075273 30.723731 136 135 136 0
-0.525940 -0.075134 30.667074 137 137 137 0
-0.450399 -0.075067 30.639407 134 134 134 0
-0.375823 -0.075165 30.679430 132 132 132 0
-0.300860 -0.075215 30.700046 134 134 134 0
-0.225254 -0.075085 30.646808 127 127 127 0
-0.150174 -0.075087 30.647664 126 126 126 0
-0.075188 -0.075188 30.689000 127 127 127 0
0.000000 -0.075294 30.732245 128 128 128 0
0.075228 -0.075228 30.705458 125 125 125 0
0.150517 -0.075258 30.717668 121 121 121 0
0.226007 -0.075336 30.749241 124 124 124 0
0.301817 -0.075454 30.797638 121 121 121 0
0.377657 -0.075531 30.829154 123 123 123 0
0.453132 -0.075522 30.825305 123 123 123 0
0.529467 -0.075638 30.872688 120 120 120 0
0.606035 -0.075754 30.920139 119 119 119 0
0.682346 -0.075816 30.945410 116 116 116 0
0.759506 -0.075951 31.000242 114 114 114 0
0.838104 -0.076191 31.098470 112 112 112 0
0.915877 -0.076323 31.152266 110 110 110 0
0.993700 -0.076438 31.199374 112 112 112 0
1.072119 -0.076580 31.257104 107 107 107 0
1.152627 -0.076842 31.364001 102 102 102 0
1.068766 -0.066798 27.264445 99 99 99 0
1.137863 -0.066933 27.319635 100 100 100 0
1.206882 -0.067049 27.366947 102 102 102 0
1.281239 -0.067434 27.523936 98 98 98 0
1.354998 -0.067750 27.653014 97 97 97 0
1.431633 -0.068173 27.825722 95 95 95 0
1.488034 -0.067638 27.607311 96 96 96 0
1.584233 -0.068880 28.114160 97 97 97 0
1.661941 -0.069248 28.264306 94 94 94 0
1.736585 -0.069463 28.352416 95 95 95 0
1.806460 -0.069479 28.358876 99 99 99 0
1.873180 -0.069377 28.317159 104 104 104 0
2.137620 -0.076344 31.160639 95 95 95 0
2.247347 -0.077495 31.630498 75 75 75 0
2.376045 -0.079201 32.327139 77 77 77 0
2.261711 -0.072958 29.778951 112 112 112 0
2.733423 -0.085419 34.865095 154 154 154 0
2.817807 -0.085388 34.852281 153 153 153 0
2.905679 -0.085461 34.882100 153 153 153 0
2.989550 -0.085416 34.863557 150 150 150 0
3.070110 -0.085281 34.808498 151 151 151 0
3.154812 -0.085265 34.802113 150 150 150 0
3.238835 -0.085232 34.788771 155 155 155 0
3.322141 -0.085183 34.768617 154 154 154 0
3.409722 -0.085243 34.793084 159 159 159 0
3.506687 -0.085529 34.909773 164 164 164 0
3.594765 -0.085590 34.934545 161 161 161 0
3.676449 -0.085499 34.897479 156 156 156 0
3.769308 -0.085666 34.965753 159 159 159 0
3.853360 -0.085630 34.951107 147 147 147 0
3.901808 -0.084822 34.621187 145 145 145 0
3.933133 -0.083684 34.156603 145 145 145 0
3.996018 -0.083250 33.979745 144 144 144 0
4.052935 -0.082713 33.760388 138 138 138 0
4.134185 -0.082684 33.748453 142 142 142 0
4.196133 -0.082277 33.582495 143 143 143 0
4.263984 -0.082000 33.469265 143 143 143 0
4.340069 -0.081888 33.423713 141 141 141 0
4.486493 -0.083083 33.911514 141 141 141 0
4.497759 -0.081777 33.378547 142 142 142 0
4.649363 -0.083024 33.887488 137 137 137 0
4.849524 -0.085079 34.726275 140 140 140 0
4.811337 -0.082954 33.858807 138 138 138 0
4.892730 -0.082928 33.848013 138 138 138 0
5.103018 -0.085050 34.714410 140 140 140 0
5.185671 -0.085011 34.698364 143 143 143 0
5.268612 -0.084978 34.684742 141 141 141 0
5.487727 -0.087107 35.553785 145 145 145 0
5.712356 -0.089256 36.430843 149 149 149 0
5.799414 -0.089222 36.417043 153 153 153 0
6.030294 -0.091368 37.293101 154 154 154 0
5.332351 -0.079587 32.484625 154 154 154 0
6.214112 -0.091384 37.299590 155 155 155 0
5.465845 -0.079215 32.332712 158 158 158 0
5.541917 -0.079170 32.314383 156 156 156 0
6.795101 -0.095706 39.063528 158 158 158 0
6.891117 -0.095710 39.065288 156 156 156 0
6.828415 -0.093540 38.179563 151 151 151 0
7.187356 -0.097126 39.643444 150 150 150 0
7.017695 -0.093569 38.191538 151 151 151 0
7.387633 -0.097206 39.675796 148 148 148 0
7.486744 -0.097230 39.685892 147 147 147 0
7.573198 -0.097092 39.629503 142 142 142 0
7.692660 -0.097375 39.745081 143 143 143 0
-6.265532 0.000000 31.967001 165 165 165 0
-6.187171 0.000000 31.966783 168 168 168 0
-6.094719 0.000000 31.892826 163 163 163 0
-6.008377 0.000000 31.849337 165 165 165 0
-5.925022 0.000000 31.820743 167 167 167 0
-5.843694 0.000000 31.802417 168 168 168 0
-5.757062 0.000000 31.754341 171 171 171 0
-5.684861 0.000000 31.785635 170 170 170 0
-5.600754 0.000000 31.750304 165 165 165 0
-5.522340 0.000000 31.746709 165 165 165 0
-5.437884 0.000000 31.707779 166 166 166 0
-5.367674 0.000000 31.751989 169 169 169 0
-5.292489 0.000000 31.767643 171 171 171 0
-5.218924 0.000000 31.793629 160 160 160 0
-5.139899 0.000000 31.786635 156 156 156 0
-5.068407 0.000000 31.826734 159 159 159 0
-4.995399 0.000000 31.858413 156 156 156 0
-4.916292 0.000000 31.851581 149 149 149 0
-4.838942 0.000000 31.856100 146 146 146 0
-4.761431 0.000000 31.859693 150 150 150 0
-4.694081 0.000000 31.932526 145 145 145 0
-4.613901 0.000000 31.919066 138 138 138 0
-4.537083 0.000000 31.928804 134 134 134 0
-4.456505 0.000000 31.911956 138 138 138 0
-4.389000 0.000000 31.989792 134 134 134 0
-4.319236 0.000000 32.053700 141 141 141 0
-4.218488 0.000000 31.885778 144 144 144 0
-4.146884 0.000000 31.935958 162 162 162 0
-4.068859 0.000000 31.937670 166 166 166 0
-3.981833 0.000000 31.867415 166 166 166 0
-3.890264 0.000000 31.757256 160 160 160 0
-3.809405 0.000000 31.731823 151 151 151 0
-3.728589 0.000000 31.705688 156 156 156 0
-3.640964 0.000000 31.619315 153 153 153 0
-3.561664 0.000000 31.603057 156 156 156 0
-3.484318 0.000000 31.603789 153 153 153 0
-3.393676 0.000000 31.481228 153 153 153 0
-3.313967 0.000000 31.456734 147 147 147 0
-3.234173 0.000000 31.430256 139 139 139 0
-3.147667 0.000000 31.335664 135 134 135 0
-3.068261 0.000000 31.308788 129 128 128 0
-2.989063 0.000000 31.282711 124 124 124 0
-2.922071 0.000000 31.386372 116 116 116 0
-2.564968 0.000000 28.295287 107 107 107 0
-2.505716 0.000000 28.409481 112 112 112 0
-2.448394 0.000000 28.552702 111 111 111 0
-2.373339 0.000000 28.491459 106 105 106 0
-2.328499 0.000000 28.800235 110 110 110 0
-2.251213 0.000000 28.714452 105 105 105 0
-2.365169 0.000000 31.141128 101 101 101 0
-2.107950 0.000000 28.679586 91 91 91 0
-2.287054 0.000000 32.189355 74 74 74 0
-2.212261 0.000000 32.248699 72 72 72 0
-2.166896 0.000000 32.757304 68 68 68 0
-2.108819 0.000000 33.105473 126 126 126 0
-2.026296 0.000000 33.082388 137 137 137 0
-1.931492 0.000000 32.848503 127 127 127 0
-1.834106 0.000000 32.548464 126 126 126 0
-1.738600 0.000000 32.256032 131 131 131 0
-1.650879 0.000000 32.087046 133 133 133 0
-1.561997 0.000000 31.877488 132 132 132 0
-1.475695 0.000000 31.701281 137 137 137 0
-1.392195 0.000000 31.569046 132 132 132 0
-1.311678 0.000000 31.492859 132 132 132 0
-1.231090 0.000000 31.405361 134 134 134 0
-1.150625 0.000000 31.309526 137 137 137 0
-1.069529 0.000000 31.181606 133 133 133 0
-0.991121 0.000000 31.118384 133 133 133 0
-0.910712 0.000000 30.976592 140 140 140 0
-0.833417 0.000000 30.924552 136 136 136 0
-0.755944 0.000000 30.854855 139 139 139 0
-0.680322 0.000000 30.853604 135 135 135 0
-0.604053 0.000000 30.819029 136 136 136 0
-0.527320 0.000000 30.747518 134 134 134 0
-0.451999 0.000000 30.748241 133 133 133 0
-0.377012 0.000000 30.776453 129 129 129 0
-0.301768 0.000000 30.792617 126 126 126 0
-0.225824 0.000000 30.724352 126 126 126 0
-0.150598 0.000000 30.734261 128 128 128 0
-0.075319 0.000000 30.742278 124 124 124 0
0.000000 0.000000 30.817975 122 122 122 0
0.075378 0.000000 30.766379 122 122 122 0
0.150866 0.000000 30.789050 120 120 120 0
0.226611 0.000000 30.831445 121 121 121 0
0.302438 0.000000 30.861033 122 122 122 0
0.378519 0.000000 30.899524 121 121 121 0
0.453969 0.000000 30.882233 120 120 120 0
0.530699 0.000000 30.944542 121 121 121 0
0.607391 0.000000 30.989338 116 116 116 0
0.684219 0.000000 31.030322 114 114 114 0
0.761260 0.000000 31.071840 114 114 114 0
0.838956 0.000000 31.130109 111 111 111 0
0.917196 0.000000 31.197146 111 111 111 0
0.995264 0.000000 31.248486 111 111 111 0
1.073909 0.000000 31.309314 106 106 106 0
0.999208 0.000000 27.189320 104 104 104 0
1.066779 0.000000 27.213753 102 102 102 0
1.145184 0.000000 27.495406 100 100 100 0
1.209137 0.000000 27.418069 97 97 97 0
1.284203 0.000000 27.587611 96 96 96 0
1.357997 0.000000 27.714215 100 99 100 0
1.438212 0.000000 27.953584 106 106 106 0
1.513749 0.000000 28.084395 99 99 99 0
1.592522 0.000000 28.261261 96 96 96 0
1.671221 0.000000 28.422129 100 100 100 0
1.728140 0.000000 28.214524 101 101 101 0
1.832791 0.000000 28.772228 98 98 98 0
1.865239 0.000000 28.197117 103 103 103 0
1.978195 0.000000 28.836668 82 82 82 0
1.963575 0.000000 27.636519 80 80 80 0
2.244076 0.000000 30.531652 77 77 77 0
2.634797 0.000000 34.691209 131 131 131 0
2.730084 0.000000 34.822500 155 155 155 0
2.816709 0.000000 34.838703 157 157 157 0
2.902007 0.000000 34.838019 153 153 153 0
2.984814 0.000000 34.808323 154 154 154 0
3.064568 0.000000 34.745663 153 153 153 0
3.157937 0.000000 34.836595 151 151 151 0
3.235320 0.000000 34.751022 153 153 153 0
3.319624 0.000000 34.742275 156 156 156 0
3.403985 0.000000 34.734546 156 156 156 0
3.491741 0.000000 34.760987 161 161 161 0
3.590720 0.000000 34.895236 163 163 163 0
3.661004 0.000000 34.750868 168 168 168 0
3.768279 0.000000 34.956206 163 163 163 0
3.839108 0.000000 34.821840 154 154 154 0
3.931083 0.000000 34.880949 145 145 145 0
3.979420 0.000000 34.558575 146 146 146 0
4.036699 0.000000 34.325670 142 142 142 0
4.086136 0.000000 34.036951 145 145 145 0
4.134233 0.000000 33.748841 139 139 139 0
4.210212 0.000000 33.695171 141 141 141 0
4.269984 0.000000 33.516357 139 139 139 0
4.344868 0.000000 33.460673 140 140 140 0
4.486705 0.000000 33.913116 140 140 140 0
4.497759 0.000000 33.378547 144 144 144 0
4.558823 0.000000 33.227571 140 140 140 0
4.853113 0.000000 34.751972 137 137 137 0
4.813511 0.000000 33.874110 137 137 137 0
4.893028 0.000000 33.850073 140 140 140 0
5.103912 0.000000 34.720492 143 143 143 0
5.316583 0.000000 35.574328 142 142 142 0
5.534450 0.000000 36.434825 145 145 145 0
5.489131 0.000000 35.562881 145 145 145 0
5.575528 0.000000 35.558211 150 150 150 0
5.800703 0.000000 36.425139 152 152 152 0
6.171862 0.000000 38.168597 152 152 152 0
6.121449 0.000000 37.291798 154 154 154 0
6.214411 0.000000 37.301386 153 153 153 0
6.452594 0.000000 38.169737 158 158 158 0
5.545034 0.000000 32.332558 155 155 155 0
6.795064 0.000000 39.063316 153 153 153 0
6.892484 0.000000 39.073041 152 152 152 0
7.070827 0.000000 39.534955 149 149 149 0
7.182091 0.000000 39.614400 148 148 148 0
6.855970 0.000000 37.311401 145 145 145 0
7.401097 0.000000 39.748106 147 147 147 0
7.463744 0.000000 39.563974 145 145 145 0
7.568308 0.000000 39.603915 142 142 142 0
7.660032 0.000000 39.576503 142 142 142 0
-6.284936 0.078562 32.066001 166 166 166 0
-6.198968 0.078468 32.027732 168 168 168 0
-6.108476 0.078314 31.964814 170 170 170 0
-6.027168 0.078275 31.948945 172 172 172 0
-5.942771 0.078194 31.916062 169 169 169 0
-5.856594 0.078088 31.872620 173 173 173 0
-5.764585 0.077900 31.795835 173 173 173 0
-5.696801 0.078038 31.852393 169 169 169 0
-5.616318 0.078004 31.838540 168 168 168 0
-5.534570 0.077952 31.817018 173 173 173 0
-5.453254 0.077904 31.797402 172 172 172 0
-5.376780 0.077924 31.805854 168 168 168 0
-5.297175 0.077900 31.795768 156 156 156 0
-5.210407 0.077767 31.741740 152 152 152 0
-5.127812 0.077694 31.711887 145 145 145 0
-5.052039 0.077724 31.723948 139 139 139 0
-4.985510 0.077899 31.795347 141 141 141 0
-4.901258 0.077798 31.754185 140 139 140 0
-4.810408 0.077587 31.668252 137 137 137 0
-4.759872 0.078031 31.849260 130 130 130 0
-4.687898 0.078132 31.890466 123 123 123 0
-4.539828 0.076946 31.406627 113 112 112 0
-4.515608 0.077855 31.777680 111 111 111 0
-4.439351 0.077883 31.789120 114 113 113 0
-3.980976 0.071089 29.015862 121 120 121 0
-4.306651 0.078303 31.960304 119 119 119 0
-4.193633 0.077660 31.697908 118 118 118 0
-4.126085 0.077851 31.775784 132 132 132 0
-4.056211 0.078004 31.838390 137 136 137 0
-3.978883 0.078017 31.843798 148 148 148 0
-3.886386 0.077728 31.725596 145 145 145 0
-3.801316 0.077578 31.664444 141 141 141 0
-3.718838 0.077476 31.622773 147 147 147 0
-3.634466 0.077329 31.562881 147 147 147 0
-3.555022 0.077283 31.544114 144 144 144 0
-3.476687 0.077260 31.534578 143 143 143 0
-3.390150 0.077049 31.448515 142 142 142 0
-3.304348 0.076845 31.365432 139 139 139 0
-3.220210 0.076672 31.294557 131 131 131 0
-3.134924 0.076462 31.208802 127 127 127 0
-3.053006 0.076325 31.153121 123 123 123 0
-2.973005 0.076231 31.114652 121 121 121 0
-2.607841 0.068627 28.011177 114 114 114 0
-2.547868 0.068861 28.106647 101 101 101 0
-2.477098 0.068808 28.085006 101 101 102 0
-2.422004 0.069200 28.244946 105 105 105 0
-2.363228 0.069507 28.370081 105 104 104 0
-2.281234 0.069128 28.215633 107 107 107 0
-2.456549 0.076767 31.333536 105 105 105 0
-2.379796 0.076768 31.333725 101 100 101 0
-2.333247 0.077775 31.744857 86 86 86 0
-2.284588 0.078779 32.154646 66 66 66 0
-2.197934 0.078498 32.039851 70 70 70 0
-2.152284 0.079714 32.536414 54 54 54 0
-2.108202 0.081085 33.095800 94 94 94 0
-2.031370 0.081255 33.165230 129 129 129 0
-1.944429 0.081018 33.068517 131 131 131 0
-1.845998 0.080261 32.759502 132 132 132 0
-1.748642 0.079484 32.442337 132 132 132 0
-1.659494 0.079024 32.254507 132 132 132 0
-1.567372 0.078369 31.987184 134 134 134 0
-1.480144 0.077902 31.796874 133 133 133 0
-1.396921 0.077607 31.676216 134 134 134 0
-1.316908 0.077465 31.618438 138 137 138 0
-1.236793 0.077300 31.550848 135 135 135 0
-1.152869 0.076858 31.370598 131 131 131 0
-1.073416 0.076673 31.294921 132 132 132 0
-0.995279 0.076560 31.248933 135 135 135 0
-0.915069 0.076256 31.124799 136 136 136 0
-0.835729 0.075975 31.010337 134 134 134 0
-0.758422 0.075842 30.955985 132 132 132 0
-0.681353 0.075706 30.900371 132 132 132 0
-0.604910 0.075614 30.862778 133 133 133 0
-0.528896 0.075557 30.839416 130 130 130 0
-0.452860 0.075477 30.806795 131 131 131 0
-0.377883 0.075577 30.847572 127 127 127 0
-0.302537 0.075634 30.871137 125 125 125 0
-0.226616 0.075539 30.832058 126 126 126 0
-0.151063 0.075531 30.829140 125 125 125 0
-0.075570 0.075570 30.844723 124 124 124 0
0.000000 0.075629 30.868930 124 124 124 0
0.075678 0.075678 30.889156 123 123 123 0
0.151172 0.075586 30.851501 121 121 121 0
0.227329 0.075776 30.929067 121 121 121 0
0.303020 0.075755 30.920367 122 122 122 0
0.379202 0.075840 30.955304 117 117 117 0
0.455467 0.075911 30.984159 119 119 119 0
0.532092 0.076013 31.025767 116 116 116 0
0.609068 0.076133 31.074879 118 118 118 0
0.685858 0.076206 31.104677 116 116 116 0
0.762878 0.076288 31.137894 115 115 115 0
0.841638 0.076513 31.229596 111 111 111 0
0.918147 0.076512 31.229495 111 111 111 0
0.998129 0.076779 31.338425 108 108 108 0
1.077112 0.076937 31.402685 103 103 103 0
1.156668 0.077111 31.473963 98 98 98 0
1.073377 0.067086 27.382060 100 100 100 0
1.142907 0.067230 27.440751 98 98 98 0
1.213889 0.067438 27.525835 99 99 99 0
1.284579 0.067609 27.595687 100 100 100 0
1.356672 0.067834 27.687185 102 102 102 0
1.434298 0.068300 27.877505 96 96 96 0
1.525693 0.069350 28.306000 97 97 97 0
1.615125 0.070223 28.662381 96 96 96 0
1.668195 0.069508 28.370665 99 99 99 0
1.788914 0.071557 29.206764 99 99 99 0
1.791699 0.068912 28.127150 104 104 104 0
1.866266 0.069121 28.212634 104 104 104 0
1.965492 0.070196 28.651488 88 88 88 0
2.193944 0.075653 30.878868 77 77 77 0
2.179294 0.072643 29.650265 96 96 96 0
2.646763 0.085379 34.848761 148 148 148 0
2.726019 0.085188 34.770654 159 159 159 0
2.811481 0.085196 34.774038 154 154 154 0
2.900777 0.085317 34.823259 154 154 154 0
2.988832 0.085395 34.855178 157 157 157 0
3.068437 0.085234 34.789530 154 154 154 0
3.146774 0.085048 34.713452 155 155 155 0
3.237534 0.085198 34.774801 157 157 157 0
3.313409 0.084959 34.677222 154 154 154 0
3.398355 0.084959 34.677087 155 155 155 0
3.489574 0.085112 34.739411 161 161 161 0
3.581480 0.085273 34.805443 164 164 164 0
3.664432 0.085219 34.783412 165 165 165 0
3.746728 0.085153 34.756285 162 162 162 0
3.840277 0.085339 34.832448 158 158 158 0
3.928444 0.085401 34.857535 153 153 153 0
3.992799 0.084953 34.674765 146 146 146 0
4.037082 0.084106 34.328930 148 148 148 0
4.096477 0.083602 34.123094 141 141 141 0
4.152065 0.083041 33.894406 141 141 141 0
4.221313 0.082771 33.784014 140 140 140 0
4.282474 0.082355 33.614399 138 138 138 0
4.356328 0.082195 33.548926 139 139 139 0
4.430230 0.082041 33.486243 140 140 140 0
4.569056 0.083074 33.907651 141 141 141 0
4.561397 0.081454 33.246331 141 141 141 0
4.853472 0.085149 34.754546 137 137 137 0
4.817736 0.083064 33.903845 137 137 137 0
5.020082 0.085086 34.729035 140 140 140 0
5.361254 0.089354 36.471118 139 139 139 0
5.189463 0.085073 34.723739 145 145 145 0
5.271278 0.085021 34.702292 145 145 145 0
5.624200 0.089273 36.437966 148 148 148 0
5.575999 0.087125 35.561221 149 149 149 0
5.661415 0.087099 35.550487 152 152 152 0
6.029765 0.091360 37.289830 151 151 151 0
6.122441 0.091380 37.297841 150 150 150 0
6.214529 0.091390 37.302096 151 151 151 0
6.452152 0.093509 38.167123 151 151 151 0
5.542182 0.079174 32.315931 149 149 149 0
6.793386 0.095681 39.053672 149 149 149 0
6.984198 0.097003 39.592959 149 149 149 0
6.830038 0.093562 38.188637 146 146 146 0
7.184812 0.097092 39.629412 142 142 142 0
7.179466 0.095726 39.071922 146 146 146 0
7.355401 0.096782 39.502693 143 143 143 0
7.445604 0.096696 39.467817 145 145 145 0
7.293100 0.093501 38.163788 143 143 143 0
7.645504 0.096779 39.501441 142 142 142 0
-6.297402 0.157435 32.129603 169 169 169 0
-6.207850 0.157161 32.073622 168 168 168 0
-6.122946 0.156999 32.040533 177 177 177 0
-6.030511 0.156637 31.966661 167 167 167 0
-5.955416 0.156721 31.983976 168 168 168 0
-5.868627 0.156497 31.938104 173 173 173 0
-5.779267 0.156196 31.876819 168 168 168 0
-5.704804 0.156296 31.897143 172 172 172 0
-5.626288 0.156286 31.895056 169 169 169 0
-5.533841 0.155883 31.812825 166 166 166 0
-5.447911 0.155655 31.766247 157 157 157 0
-5.367368 0.155576 31.750182 154 154 154 0
-5.277468 0.155220 31.677481 147 147 147 0
-5.186115 0.154809 31.593754 145 145 145 0
-5.099921 0.154543 31.539399 138 138 138 0
-4.994710 0.153683 31.363954 132 132 132 0
-4.765825 0.148932 30.394291 129 129 129 0
-4.695622 0.149067 30.421909 120 120 120 0
-4.625364 0.149205 30.450061 119 119 119 0
-4.539644 0.148841 30.375673 114 113 114 0
-4.474287 0.149143 30.437329 106 106 106 0
-4.419284 0.149806 30.572698 106 106 106 0
-4.340593 0.149676 30.546048 112 112 112 0
-4.273620 0.149952 30.602363 115 114 114 0
-4.198539 0.149948 30.601597 114 114 114 0
-4.127179 0.150079 30.628418 114 114 114 0
-4.064077 0.150521 30.718646 115 114 114 0
-4.004084 0.151098 30.836228 115 114 114 0
-3.934210 0.151316 30.880769 110 110 110 0
-3.882634 0.152260 31.073504 116 115 116 0
-3.846954 0.153878 31.403705 112 112 112 0
-3.773565 0.154023 31.433274 118 118 118 0
-3.699223 0.154134 31.455978 127 126 127 0
-3.621474 0.154105 31.450053 128 128 128 0
-3.540925 0.153953 31.419033 129 129 129 0
-3.453630 0.153495 31.325440 133 133 133 0
-3.368121 0.153096 31.244162 129 129 129 0
-3.282500 0.152674 31.158043 128 128 128 0
-3.187821 0.151801 30.979792 126 126 126 0
-3.112565 0.151832 30.986210 121 120 121 0
-3.038752 0.151938 31.007672 116 116 116 0
-2.956789 0.151630 30.944942 107 107 107 0
-2.596556 0.136661 27.889969 106 106 106 0
-2.525436 0.136510 27.859191 98 98 98 0
-2.523299 0.140183 28.608835 91 91 91 0
-2.474996 0.141428 28.862927 98 98 98 0
-2.359482 0.138793 28.325117 104 103 104 0
-2.322393 0.140751 28.724717 102 102 102 0
-2.444390 0.152774 31.178444 110 110 110 0
-2.389535 0.154164 31.461950 100 100 100 0
-2.335702 0.155713 31.778261 85 85 85 0
-2.277338 0.157058 32.052618 74 74 74 0
-2.086406 0.160493 32.753632 63 63 63 0
-2.034953 0.162796 33.223722 109 109 109 0
-1.953324 0.162777 33.219800 128 128 128 0
-1.858728 0.161628 32.985406 128 128 128 0
-1.757887 0.159808 32.613868 132 132 132 0
-1.670059 0.159053 32.459837 136 136 136 0
-1.574742 0.157474 32.137587 132 132 132 0
-1.485927 0.156413 31.921103 130 130 130 0
-1.402746 0.155861 31.808296 134 134 134 0
-1.320123 0.155309 31.695642 132 132 132 0
-1.240384 0.155048 31.642445 133 133 133 0
-1.156920 0.154256 31.480814 132 132 132 0
-1.078225 0.154032 31.435126 135 135 135 0
-0.998612 0.153633 31.353604 132 132 132 0
-0.916978 0.152830 31.189741 132 132 132 0
-0.838974 0.152541 31.130752 135 135 135 0
-0.760034 0.152007 31.021789 137 137 137 0
-0.683879 0.151973 31.014909 131 131 131 0
-0.607275 0.151819 30.983420 131 131 131 0
-0.530906 0.151687 30.956589 128 128 128 0
-0.454645 0.151548 30.928256 131 131 131 0
-0.378454 0.151381 30.894169 131 131 131 0
-0.303126 0.151563 30.931223 129 129 129 0
-0.227202 0.151468 30.911835 129 129 129 0
-0.151459 0.151459 30.909954 126 126 126 0
-0.075808 0.151615 30.941900 126 126 126 0
0.000000 0.151621 30.943017 125 125 125 0
0.075865 0.151730 30.965311 121 121 121 0
0.151639 0.151639 30.946732 123 123 123 0
0.227853 0.151902 31.000433 122 122 122 0
0.304018 0.152009 31.022221 119 119 119 0
0.380120 0.152048 31.030200 118 118 118 0
0.456588 0.152196 31.060422 118 118 118 0
0.533228 0.152351 31.092017 118 118 118 0
0.610373 0.152593 31.141468 119 119 119 0
0.687399 0.152755 31.174556 117 117 117 0
0.764450 0.152890 31.202054 114 114 114 0
0.843610 0.153384 31.302781 110 110 110 0
0.921534 0.153589 31.344704 110 110 110 0
0.998460 0.153609 31.348820 108 108 108 0
0.935906 0.133701 27.285887 105 105 105 0
1.007030 0.134271 27.402174 99 99 99 0
1.077013 0.134627 27.474832 102 102 102 0
1.146649 0.134900 27.530579 99 99 99 0
1.220196 0.135577 27.668838 98 98 98 0
1.287939 0.135573 27.667860 96 96 96 0
1.362775 0.136278 27.811737 96 96 96 0
1.440438 0.137185 27.996845 93 93 93 0
1.523398 0.138491 28.263415 93 93 93 0
1.574011 0.136871 27.932767 99 99 99 0
1.680353 0.140029 28.577431 103 103 103 0
1.744102 0.139528 28.475130 99 99 99 0
1.736634 0.133587 27.262697 104 104 104 0
1.883162 0.139493 28.468056 102 102 102 0
2.022900 0.144493 29.488344 88 88 88 0
2.110069 0.145522 29.698364 81 81 81 0
2.545140 0.169676 34.627762 121 121 121 0
2.639414 0.170285 34.751991 149 149 149 0
2.719606 0.169975 34.688849 157 157 157 0
2.811689 0.170405 34.776614 152 152 152 0
2.901234 0.170661 34.828741 156 156 156 0
2.981399 0.170366 34.768505 155 155 155 0
3.064350 0.170242 34.743203 157 157 157 0
3.150833 0.170315 34.758219 149 149 149 0
3.237013 0.170369 34.769204 151 151 151 0
3.313129 0.169904 34.674295 154 154 154 0
3.397288 0.169864 34.666200 152 152 152 0
3.477853 0.169651 34.622726 153 153 153 0
3.574118 0.170196 34.733899 158 158 158 0
3.652845 0.169900 34.673425 161 161 161 0
3.744707 0.170214 34.737543 162 162 162 0
3.833291 0.170368 34.769081 162 162 162 0
3.921784 0.170512 34.798439 158 158 158 0
4.001077 0.170259 34.746653 159 159 159 0
4.079197 0.169967 34.687049 144 144 144 0
4.137023 0.168858 34.460829 143 143 143 0
4.172907 0.166916 34.064546 141 141 141 0
4.237745 0.166186 33.915527 145 145 145 0
4.303221 0.165509 33.777246 138 137 138 0
4.371391 0.164958 33.664927 139 139 139 0
4.490382 0.166310 33.940908 137 137 137 0
4.510741 0.164027 33.474885 141 141 141 0
4.651350 0.166120 33.901965 145 145 145 0
4.855653 0.170374 34.770164 141 141 141 0
4.818192 0.166145 33.907048 138 138 138 0
5.147205 0.174482 35.608476 140 140 140 0
5.360662 0.178689 36.467091 143 143 143 0
5.449189 0.178662 36.461620 143 143 143 0
5.536560 0.178599 36.448718 147 147 147 0
5.623138 0.178512 36.431086 143 143 143 0
5.576194 0.174256 35.562465 147 147 147 0
5.800703 0.178483 36.425139 151 151 151 0
5.888999 0.178455 36.419287 154 154 154 0
6.121749 0.182739 37.293630 151 151 151 0
6.359929 0.187057 38.174844 149 149 149 0
6.451790 0.187008 38.164979 148 148 148 0
6.394257 0.182693 37.284298 145 145 145 0
6.794558 0.191396 39.060408 147 147 147 0
6.890023 0.191390 39.059090 143 143 143 0
7.047895 0.193093 39.406737 143 143 143 0
7.079070 0.191326 39.046165 140 140 140 0
7.246229 0.193233 39.435261 144 144 144 0
7.331605 0.192937 39.374891 146 146 146 0
7.424569 0.192846 39.356315 147 147 147 0
7.541278 0.193366 39.462471 146 146 146 0
7.644030 0.193520 39.493826 144 144 144 0
-6.297719 0.236164 32.131220 176 176 176 0
-6.219208 0.236172 32.132309 178 178 178 0
-6.142151 0.236237 32.141033 176 176 176 0
-6.067488 0.236396 32.162673 177 177 177 0
-5.971632 0.235722 32.071062 173 173 173 0
-5.884918 0.235397 32.026763 176 176 176 0
-5.793403 0.234868 31.954787 172 172 172 0
-5.706152 0.234499 31.904680 169 169 169 0
-5.620353 0.234181 31.861414 165 165 165 0
-5.524689 0.233438 31.760214 160 160 160 0
-5.430297 0.232727 31.663538 156 156 156 0
-5.341777 0.232251 31.598798 151 151 151 0
-5.248025 0.231531 31.500750 152 152 152 0
-5.152547 0.230711 31.389261 142 142 142 0
-4.901512 0.222796 30.312381 132 132 132 0
-4.800202 0.221548 30.142556 128 128 128 0
-4.723250 0.221402 30.122767 121 121 121 0
-4.653033 0.221573 30.145989 116 115 116 0
-4.565556 0.220914 30.056324 114 113 114 0
-4.515571 0.222077 30.214590 107 107 107 0
-4.443584 0.222179 30.228465 103 103 103 0
-4.378468 0.222634 30.290335 110 110 110 0
-4.312674 0.223069 30.349574 111 111 111 0
-4.247761 0.223566 30.417192 116 116 116 0
-4.175733 0.223700 30.435373 113 113 113 0
-4.101848 0.223737 30.440433 112 112 112 0
-4.035294 0.224183 30.501090 114 114 114 0
-3.963585 0.224354 30.524332 114 113 113 0
-3.897812 0.224874 30.595072 117 117 117 0
-3.826383 0.225081 30.623309 114 114 114 0
-3.758425 0.225506 30.681024 120 120 120 0
-3.705626 0.226875 30.867354 115 115 115 0
-3.615468 0.225967 30.743773 114 114 114 0
-3.558720 0.227152 30.905083 122 122 122 0
-3.470540 0.226340 30.794496 120 120 120 0
-3.370515 0.224701 30.571566 120 119 120 0
-3.297637 0.224839 30.590329 120 120 120 0
-3.225105 0.225007 30.613245 117 117 117 0
-3.146242 0.224732 30.575726 117 117 117 0
-2.773765 0.202958 27.613393 114 114 114 0
-3.007597 0.225570 30.689765 112 112 112 0
-2.645913 0.203532 27.691397 105 105 105 0
-2.591747 0.204612 27.838310 99 99 99 0
-2.520903 0.204398 27.809192 94 94 94 0
-2.426015 0.202168 27.505837 94 93 94 0
-2.305797 0.197640 26.889758 87 87 87 0
-2.432593 0.214641 29.202793 91 90 91 0
-2.413972 0.219452 29.857416 93 92 93 0
-2.311116 0.216667 29.478526 102 101 102 0
-2.116672 0.204839 27.869286 95 95 95 0
-2.094974 0.209497 28.503042 81 81 81 0
-2.033380 0.244006 33.198037 81 81 81 0
-1.959907 0.244988 33.331748 119 119 119 0
-1.867178 0.243545 33.135370 128 128 128 0
-1.587053 0.216416 29.444393 133 133 133 0
-1.679601 0.239943 32.645303 130 130 130 0
-1.583878 0.237582 32.324043 134 134 134 0
-1.492201 0.235611 32.055870 132 132 132 0
-1.408607 0.234768 31.941196 133 133 133 0
-1.325936 0.233989 31.835186 134 133 134 0
-1.243539 0.233164 31.722946 131 131 131 0
-1.162553 0.232511 31.634104 134 134 134 0
-1.082338 0.231930 31.555050 132 132 132 0
-1.002600 0.231369 31.478799 131 131 131 0
-0.920921 0.230230 31.323839 131 131 131 0
-0.842165 0.229681 31.249147 132 132 132 0
-0.764339 0.229302 31.197504 133 133 133 0
-0.686650 0.228883 31.140611 134 134 134 0
-0.609087 0.228408 31.075892 134 134 134 0
-0.532531 0.228228 31.051364 132 132 132 0
-0.455784 0.227892 31.005694 129 129 129 0
-0.380432 0.228259 31.055655 131 131 131 0
-0.303751 0.227814 30.995049 129 129 129 0
-0.227894 0.227894 31.005978 127 127 127 0
-0.151780 0.227671 30.975607 127 127 127 0
-0.075959 0.227878 31.003821 126 126 126 0
0.000000 0.227879 31.003902 121 121 121 0
0.076021 0.228062 31.028795 121 121 121 0
0.152164 0.228247 31.053949 118 118 118 0
0.228282 0.228282 31.058743 119 119 119 0
0.304777 0.228583 31.099676 119 119 119 0
0.381209 0.228725 31.119091 118 118 118 0
0.457863 0.228932 31.147150 119 119 119 0
0.535250 0.229393 31.209895 119 119 119 0
0.611884 0.229457 31.218577 118 118 118 0
0.688524 0.229508 31.225585 117 117 117 0
0.766025 0.229808 31.266333 113 113 113 0
0.844646 0.230358 31.341238 110 110 110 0
0.923992 0.230998 31.428294 107 107 107 0
1.002598 0.231369 31.478742 107 107 107 0
0.935467 0.200457 27.273101 104 104 104 0
1.010103 0.202021 27.485798 100 100 100 0
1.079043 0.202321 27.526616 101 101 101 0
1.149217 0.202803 27.592237 101 101 101 0
1.220925 0.203487 27.685372 99 99 99 0
1.292635 0.204100 27.768738 96 96 96 0
1.365107 0.204766 27.859323 97 97 97 0
1.449442 0.207063 28.171858 98 98 98 0
1.523576 0.207760 28.266720 100 100 100 0
1.593338 0.207827 28.275742 97 97 97 0
1.674724 0.209340 28.481700 104 104 104 0
1.702047 0.204246 27.788530 97 97 97 0
1.792114 0.206782 28.133653 106 106 106 0
1.911385 0.212376 28.894711 95 95 95 0
2.000585 0.214348 29.163040 86 86 86 0
2.107534 0.218021 29.662688 89 89 89 0
2.555511 0.255551 34.768853 142 142 142 0
2.639849 0.255469 34.757727 159 159 159 0
2.722136 0.255200 34.721117 155 155 155 0
2.804223 0.254929 34.684272 151 151 151 0
2.895267 0.255465 34.757110 155 155 155 0
2.976254 0.255108 34.708505 156 156 156 0
3.057992 0.254833 34.671112 156 156 156 0
3.156227 0.255910 34.817724 152 152 152 0
3.236110 0.255482 34.759510 156 156 156 0
3.319389 0.255338 34.739814 151 151 151 0
3.390409 0.254281 34.596006 152 152 152 0
3.478597 0.254532 34.630139 154 154 154 0
3.560368 0.254312 34.600273 159 159 159 0
3.647138 0.254451 34.619251 158 158 158 0
3.734119 0.254599 34.639321 158 158 158 0
3.831165 0.255411 34.749792 164 164 164 0
3.914742 0.255309 34.735951 162 162 162 0
3.992278 0.254826 34.670242 154 154 154 0
4.086295 0.255393 34.747409 154 154 154 0
4.157369 0.254533 34.630315 149 149 149 0
4.204712 0.252283 34.324181 143 143 143 0
4.250860 0.250051 34.020488 139 139 139 0
4.307437 0.248506 33.810335 137 137 137 0
4.367653 0.247226 33.636145 141 141 141 0
4.441399 0.246744 33.570668 139 139 139 0
4.520983 0.246599 33.550897 141 141 141 0
4.584214 0.245583 33.412635 143 143 143 0
4.736425 0.249286 33.916395 140 140 140 0
4.818711 0.249244 33.910700 142 142 142 0
4.898240 0.249063 33.886129 140 140 140 0
5.106848 0.255342 34.740465 138 138 138 0
5.451380 0.268101 36.476279 141 141 141 0
5.406365 0.261598 35.591605 140 140 140 0
5.624111 0.267815 36.437387 142 142 142 0
5.576107 0.261380 35.561910 147 147 147 0
6.077699 0.280509 38.164515 149 149 149 0
6.171469 0.280521 38.166165 147 147 147 0
6.122201 0.274128 37.296379 145 145 145 0
6.066539 0.267641 36.413799 145 145 145 0
6.450832 0.280471 38.159316 143 143 143 0
6.695747 0.286961 39.042254 147 147 147 0
6.789747 0.286891 39.032749 141 141 141 0
6.728325 0.280347 38.142435 142 142 142 0
7.029880 0.288899 39.306013 141 141 141 0
7.121734 0.288719 39.281490 146 146 146 0
7.217811 0.288712 39.280603 147 147 147 0
7.313296 0.288683 39.276562 152 152 152 0
7.410115 0.288706 39.279700 155 155 155 0
7.122109 0.273927 37.269017 151 151 151 0
7.635177 0.289943 39.448083 145 145 145 0
-6.290813 0.314541 32.095983 167 167 167 0
-6.219243 0.314898 32.132486 177 177 177 0
-6.151009 0.315436 32.187384 176 176 176 0
-6.078753 0.315779 32.222386 183 183 183 0
-5.979204 0.314695 32.111731 175 175 175 0
-5.883715 0.313798 32.020220 169 169 169 0
-5.788382 0.312886 31.927094 165 165 165 0
-5.697543 0.312194 31.856547 167 167 167 0
-5.597952 0.310997 31.734424 156 156 156 0
-5.500818 0.309905 31.622981 153 153 153 0
-5.395087 0.308291 31.458234 150 150 150 0
-5.300398 0.307269 31.354024 146 146 146 0
-5.113138 0.300773 30.691106 139 139 139 0
-4.938554 0.294839 30.085620 134 134 134 0
-4.834730 0.293014 29.899385 131 131 131 0
-4.750137 0.292316 29.828177 121 121 121 0
-4.679633 0.292477 29.844596 112 112 112 0
-4.617111 0.293150 29.913253 108 108 108 0
-4.544703 0.293207 29.919046 109 109 109 0
-4.481754 0.293886 29.988317 109 108 109 0
-4.420411 0.294694 30.070820 111 111 111 0
-4.363751 0.295848 30.188526 105 105 105 0
-4.288001 0.295724 30.175941 108 108 108 0
-4.217468 0.295963 30.200270 107 107 107 0
-4.155114 0.296794 30.285089 111 111 111 0
-4.081648 0.296847 30.290520 110 110 110 0
-4.010763 0.297094 30.315673 115 114 114 0
-3.935901 0.297049 30.311135 111 111 111 0
-3.874734 0.298056 30.413928 113 112 113 0
-3.802583 0.298242 30.432840 115 115 115 0
-3.733777 0.298702 30.479816 120 119 120 0
-3.644826 0.297537 30.360899 122 122 122 0
-3.568192 0.297349 30.341770 124 124 124 0
-3.497683 0.297675 30.375013 120 120 120 0
-3.411857 0.296683 30.273799 126 126 126 0
-3.338557 0.296761 30.281698 121 121 121 0
-3.269061 0.297187 30.325245 122 122 122 0
-3.199754 0.297652 30.372610 119 119 119 0
-2.815709 0.268163 27.363547 119 119 119 0
-2.750881 0.268379 27.385572 112 112 112 0
-2.692543 0.269254 27.474924 111 111 111 0
-2.629564 0.269699 27.520296 105 105 105 0
-2.564011 0.269896 27.540399 102 102 102 0
-2.525503 0.273027 27.859939 92 92 92 0
-2.425747 0.269527 27.502799 88 88 88 0
-2.596655 0.296761 30.281693 91 91 91 0
-2.452613 0.288543 29.443131 87 87 87 0
-2.413972 0.292603 29.857416 94 93 93 0
-2.212435 0.276554 28.219830 93 93 93 0
-2.126206 0.274349 27.994811 97 97 97 0
-2.340638 0.312085 31.845415 76 76 76 0
-2.013036 0.322086 32.865888 53 53 53 0
-1.961805 0.326967 33.364027 91 91 91 0
-1.877061 0.326445 33.310758 125 125 125 0
-1.779288 0.323507 33.010908 127 127 127 0
-1.687662 0.321459 32.801982 134 134 134 0
-1.593767 0.318753 32.525859 128 128 128 0
-1.501582 0.316122 32.257391 133 133 133 0
-1.414594 0.314354 32.076967 133 133 133 0
-1.330247 0.312999 31.938699 130 130 130 0
-1.247919 0.311980 31.834673 137 137 137 0
-1.166642 0.311105 31.745362 133 133 133 0
-1.086406 0.310402 31.673641 134 134 134 0
-1.006526 0.309700 31.602077 134 134 134 0
-0.927181 0.309060 31.536765 133 133 133 0
-0.845116 0.307315 31.358670 129 129 129 0
-0.767187 0.306875 31.313759 131 131 131 0
-0.690235 0.306771 31.303157 129 129 129 0
-0.611962 0.305981 31.222576 130 130 130 0
-0.533742 0.304995 31.121967 133 133 133 0
-0.457578 0.305052 31.127740 132 132 132 0
-0.381410 0.305128 31.135524 128 128 128 0
-0.305002 0.305002 31.122631 124 124 124 0
-0.228588 0.304784 31.100459 122 122 122 0
-0.152380 0.304760 31.097918 123 123 123 0
-0.076266 0.305062 31.128789 120 120 120 0
0.000000 0.305069 31.129466 118 118 118 0
0.076264 0.305057 31.128255 119 119 119 0
0.152670 0.305341 31.157218 120 120 120 0
0.228992 0.305323 31.155367 123 123 123 0
0.306068 0.306068 31.231443 121 121 121 0
0.382176 0.305741 31.198055 118 118 118 0
0.459006 0.306004 31.224866 117 117 117 0
0.536617 0.306638 31.289614 118 118 118 0
0.613440 0.306720 31.297962 118 118 118 0
0.691192 0.307196 31.346566 113 113 113 0
0.767809 0.307124 31.339146 109 109 109 0
0.847733 0.308266 31.455762 106 106 106 0
0.927954 0.309318 31.563068 108 108 108 0
1.004747 0.309153 31.546232 104 104 104 0
0.941697 0.269056 27.454711 102 102 102 0
1.011467 0.269724 27.522906 102 102 102 0
1.084048 0.271012 27.654285 104 104 104 0
1.153580 0.271431 27.696993 102 102 102 0
1.222433 0.271652 27.719573 99 99 99 0
1.294456 0.272517 27.807868 96 96 96 0
1.375203 0.275041 28.065362 93 93 93 0
1.430118 0.272403 27.796262 97 97 97 0
1.527757 0.277774 28.344287 101 101 101 0
1.592056 0.276879 28.252993 101 101 101 0
1.695598 0.282600 28.836699 101 101 101 0
1.754756 0.280761 28.649080 104 104 104 0
1.848084 0.284321 29.012301 116 116 116 0
1.890372 0.280055 28.577055 92 92 92 0
2.001062 0.285866 29.169993 90 90 90 0
2.114532 0.291660 29.761185 104 104 104 0
2.553131 0.340417 34.736477 150 150 150 0
2.640548 0.340716 34.766928 156 156 156 0
2.719185 0.339898 34.683476 159 159 159 0
2.806501 0.340182 34.712440 153 153 153 0
2.896525 0.340768 34.772205 160 160 160 0
2.973391 0.339816 34.675118 155 155 155 0
3.053248 0.339250 34.617322 156 156 156 0
3.147197 0.340238 34.718115 155 155 155 0
3.230981 0.340103 34.704419 154 154 154 0
3.313934 0.339891 34.682721 152 152 152 0
3.389394 0.338939 34.585657 157 157 157 0
3.485644 0.340063 34.700288 156 156 156 0
3.555824 0.338650 34.556114 158 158 158 0
3.642863 0.338871 34.578669 156 156 156 0
3.729303 0.339028 34.594649 159 159 159 0
3.826176 0.340105 34.704548 162 162 162 0
3.908518 0.339871 34.680724 164 164 164 0
3.985387 0.339182 34.610394 162 162 162 0
4.071922 0.339327 34.625188 153 153 153 0
4.160119 0.339602 34.653217 150 150 150 0
4.226565 0.338125 34.502572 146 146 146 0
4.274702 0.335271 34.211302 146 146 146 0
4.326041 0.332772 33.956369 137 137 137 0
4.409744 0.332811 33.960293 138 138 138 0
4.461889 0.330510 33.725539 143 143 143 0
4.536514 0.329928 33.666150 140 140 140 0
4.590664 0.327905 33.459650 144 144 144 0
4.857760 0.340895 34.785249 145 145 145 0
4.820098 0.332421 33.920465 147 147 147 0
5.152109 0.349296 35.642399 141 141 141 0
5.108120 0.340541 34.749116 141 141 141 0
5.191712 0.340440 34.738786 143 143 143 0
5.407113 0.348846 35.596529 142 142 142 0
5.625322 0.357163 36.445232 141 141 141 0
5.576670 0.348542 35.565498 141 141 141 0
5.799032 0.356864 36.414644 145 145 145 0
6.030066 0.365459 37.291690 149 149 149 0
6.120153 0.365382 37.283905 147 147 147 0
6.357546 0.373973 38.160541 146 146 146 0
6.448961 0.373853 38.148248 146 146 146 0
6.392274 0.365273 37.272735 141 141 141 0
6.789698 0.382518 39.032468 143 143 143 0
6.883451 0.382414 39.021832 145 145 145 0
6.662183 0.365051 37.250114 147 147 147 0
7.113492 0.384513 39.236031 151 151 151 0
7.211051 0.384589 39.243812 151 151 151 0
7.308070 0.384635 39.248497 155 155 155 0
7.363200 0.382504 39.031009 157 157 157 0
4.773016 0.244770 24.976537 153 153 153 0
7.638584 0.386764 39.465690 148 148 148 0
-6.294171 0.393386 32.113117 173 173 173 0
-6.219893 0.393664 32.135844 180 180 180 0
-6.156558 0.394651 32.216419 183 183 183 0
-6.071085 0.394226 32.181740 172 172 172 0
-5.972137 0.392904 32.073777 163 163 163 0
-5.869448 0.391297 31.942573 163 163 163 0
-5.760785 0.389242 31.774876 156 156 156 0
-5.675614 0.388741 31.733931 156 156 156 0
-5.567747 0.386649 31.563193 153 153 153 0
-5.457953 0.384363 31.376562 148 148 148 0
-5.354726 0.382480 31.222891 146 146 146 0
-5.113988 0.370579 30.251333 142 142 142 0
-4.974077 0.365741 29.856402 135 135 135 0
-4.874281 0.363752 29.694067 131 131 131 0
-4.791329 0.362980 29.630980 121 121 121 0
-4.716593 0.362815 29.617539 107 107 107 0
-4.656377 0.363779 29.696284 108 108 108 0
-4.582497 0.363690 29.688997 108 108 108 0
-4.515005 0.364113 29.723533 109 109 109 0
-4.446795 0.364491 29.754397 113 112 112 0
-4.389677 0.365806 29.861749 105 105 105 0
-4.318571 0.365981 29.875964 104 103 104 0
-4.248262 0.366229 29.896281 107 106 107 0
-4.180962 0.366751 29.938861 111 111 111 0
-4.124336 0.368244 30.060755 109 109 109 0
-4.052256 0.368387 30.072400 110 109 109 0
-3.977354 0.368273 30.063142 112 112 112 0
-3.918436 0.369664 30.176635 114 114 114 0
-3.852238 0.370408 30.237348 116 116 116 0
-3.780138 0.370602 30.253202 114 114 114 0
-3.699075 0.369908 30.196532 116 116 116 0
-3.620448 0.369434 30.157838 120 120 120 0
-3.547599 0.369542 30.166656 118 118 118 0
-3.477560 0.369953 30.200258 121 121 121 0
-3.402829 0.369873 30.193688 123 123 123 0
-3.332321 0.370258 30.225133 126 126 126 0
-3.259082 0.370350 30.232668 120 120 120 0
-3.193542 0.371342 30.313642 115 115 115 0
-2.813897 0.334988 27.345934 118 118 118 0
-3.056622 0.372759 30.429292 113 113 113 0
-2.686075 0.335759 27.408925 106 105 105 0
-2.624434 0.336466 27.466603 104 104 104 0
-2.574176 0.338707 27.649584 101 101 101 0
-2.531042 0.342033 27.921041 95 95 95 0
-2.454669 0.340926 27.830710 92 92 92 0
-2.319561 0.331366 27.050277 87 87 87 0
-2.257154 0.331934 27.096687 92 92 92 0
-2.393872 0.362708 29.608806 90 90 90 0
-2.318411 0.362252 29.571566 85 85 85 0
-2.347115 0.378567 30.903423 92 92 92 0
-2.318449 0.386408 31.543529 77 77 77 0
-1.953270 0.406931 33.218873 72 72 72 0
-1.885291 0.409846 33.456810 119 119 119 0
-1.789738 0.406759 33.204791 129 129 129 0
-1.696167 0.403849 32.967294 129 129 129 0
-1.605526 0.401381 32.765832 132 132 132 0
-1.511857 0.397857 32.478136 130 130 130 0
-1.420983 0.394718 32.221841 132 132 132 0
-1.336497 0.393087 32.088752 132 132 132 0
-1.252534 0.391417 31.952403 133 133 133 0
-1.170546 0.390182 31.851604 129 129 129 0
-1.088888 0.388889 31.746013 134 134 134 0
-1.010525 0.388663 31.727627 134 134 134 0
-0.929554 0.387314 31.617476 131 131 131 0
-0.849576 0.386171 31.524156 132 132 132 0
-0.769757 0.384878 31.418650 131 131 131 0
-0.692830 0.384905 31.420852 132 132 132 0
-0.614670 0.384169 31.360738 128 128 128 0
-0.536438 0.383170 31.279159 131 131 131 0
-0.459458 0.382882 31.255667 128 128 128 0
-0.382880 0.382880 31.255534 126 126 126 0
-0.306230 0.382788 31.247987 128 128 128 0
-0.229199 0.381999 31.183567 124 124 124 0
-0.152881 0.382202 31.200155 121 121 121 0
-0.076453 0.382264 31.205195 123 123 123 0
0.000000 0.382677 31.238971 120 120 120 0
0.076471 0.382355 31.212635 121 121 121 0
0.153084 0.382710 31.241612 120 120 120 0
0.230008 0.383346 31.293542 121 121 121 0
0.306637 0.383297 31.289521 122 122 122 0
0.383017 0.383017 31.266729 119 119 119 0
0.460115 0.383429 31.300353 119 118 118 0
0.538726 0.384804 31.412586 118 118 118 0
0.614891 0.384307 31.372005 114 114 114 0
0.692053 0.384474 31.385612 110 110 110 0
0.770405 0.385203 31.445106 112 112 112 0
0.850076 0.386398 31.542715 108 108 108 0
0.930529 0.387720 31.650630 108 108 108 0
0.878416 0.337852 27.579790 105 105 105 0
0.945714 0.337755 27.571823 106 106 106 0
1.168909 0.389636 31.807039 101 101 101 0
1.083504 0.338595 27.640419 101 101 101 0
1.156513 0.340151 27.767429 99 99 99 0
1.228270 0.341186 27.851930 97 97 97 0
1.302748 0.342828 27.985988 103 103 103 0
1.370045 0.342511 27.960111 101 101 101 0
1.448345 0.344844 28.150538 99 99 99 0
1.528551 0.347398 28.359017 98 98 98 0
1.594728 0.346680 28.300401 98 98 98 0
1.646550 0.343031 28.002551 101 101 101 0
1.766080 0.353216 28.833966 97 97 97 0
1.846682 0.355131 28.990303 97 97 97 0
1.939883 0.359238 29.325520 89 89 89 0
2.039529 0.364202 29.730742 89 89 89 0
2.465899 0.425155 34.706534 134 134 134 0
2.551844 0.425307 34.718971 154 154 154 0
2.633656 0.424783 34.676180 154 154 154 0
2.720147 0.425023 34.695758 154 154 154 0
2.805655 0.425099 34.701979 154 154 154 0
2.895141 0.425756 34.755593 154 154 154 0
2.971618 0.424517 34.654435 154 154 154 0
3.056290 0.424485 34.651819 154 154 154 0
3.145372 0.425050 34.697984 156 156 156 0
3.230925 0.425122 34.703811 157 157 157 0
3.309609 0.424309 34.637459 161 161 161 0
3.391869 0.423984 34.610909 156 156 156 0
3.483098 0.424768 34.674946 156 156 156 0
3.568047 0.424768 34.674898 160 160 160 0
3.640373 0.423299 34.555035 157 157 157 0
3.724054 0.423188 34.545951 157 157 157 0
3.820778 0.424531 34.655582 160 160 160 0
3.902088 0.424140 34.623673 162 162 162 0
3.982944 0.423717 34.589177 164 164 164 0
