ply
format ascii 1.0
element vertex 1135
property float x
property float y
property float z
property uchar red
property uchar green
property uchar blue
property uchar alpha
end_header
2.527254 0.871467 35.570081 150 150 150 0
2.610130 0.870043 35.511968 149 149 149 0
2.686619 0.866651 35.373520 148 148 148 0
2.770796 0.865874 35.341791 149 149 149 0
2.849847 0.863590 35.248574 147 147 147 0
2.929476 0.861611 35.167781 150 150 150 0
3.008315 0.859519 35.082395 147 147 147 0
3.091433 0.858731 35.050256 148 148 148 0
3.171782 0.857238 34.989317 148 148 148 0
3.255130 0.856613 34.963800 149 149 149 0
3.338296 0.855973 34.937686 151 151 151 0
3.419940 0.854985 34.897344 150 150 150 0
3.502352 0.854232 34.866623 148 148 148 0
3.590852 0.854965 34.896522 145 145 145 0
3.669810 0.853444 34.834461 146 146 146 0
3.756840 0.853827 34.850092 143 143 143 0
3.844239 0.854275 34.868382 141 141 141 0
3.932112 0.854807 34.890081 140 140 140 0
4.010369 0.853270 34.827350 138 138 138 0
4.103708 0.854939 34.895478 135 135 135 0
4.187724 0.854638 34.883168 130 130 130 0
4.277830 0.855566 34.921057 130 130 130 0
4.370025 0.856868 34.974193 132 132 132 0
4.459652 0.857625 35.005115 132 132 132 0
4.546005 0.857737 35.009667 130 130 130 0
4.636221 0.858559 35.043241 132 132 132 0
4.726264 0.859321 35.074313 135 135 135 0
4.819767 0.860673 35.129495 140 140 140 0
4.908157 0.861080 35.146128 146 146 146 0
4.999534 0.861989 35.183212 144 144 144 0
5.188740 0.879447 35.895816 138 138 138 0
5.021120 0.836853 34.157282 126 126 126 0
5.235209 0.858231 35.029834 114 114 114 0
5.719195 0.922451 37.651051 104 104 104 0
5.453927 0.865703 35.334806 98 98 98 0
5.634594 0.880405 35.934908 89 89 89 0
5.584634 0.859175 35.068348 74 74 74 0
7.303876 0.987010 40.286131 97 97 97 0
7.849195 1.046559 42.716709 103 103 103 0
7.540512 0.992173 40.496845 102 102 102 0
8.228389 1.068622 43.617224 101 101 101 0
8.508519 1.090836 44.523908 104 104 104 0
8.792990 1.113037 45.430068 100 100 100 0
-6.951846 0.955879 35.468603 126 126 126 0
-6.869119 0.956460 35.490152 124 124 124 0
-6.787491 0.957210 35.518007 127 127 127 0
-6.691815 0.955974 35.472119 128 128 128 0
-6.606416 0.956192 35.480213 128 128 128 0
-6.520549 0.956347 35.485983 128 128 128 0
-6.425942 0.955208 35.443694 130 129 130 0
-6.329235 0.953720 35.388510 129 129 129 0
-6.242408 0.953701 35.387799 130 130 130 0
-6.149452 0.952732 35.351838 131 131 131 0
-6.051120 0.950890 35.283498 132 132 132 0
-5.960388 0.950207 35.258137 132 131 132 0
-5.870523 0.949643 35.237235 132 132 132 0
-5.774284 0.948017 35.176876 132 132 132 0
-5.683952 0.947325 35.151217 132 132 132 0
-5.602757 0.948159 35.182148 132 132 132 0
-5.517785 0.948369 35.189956 130 129 130 0
-5.432085 0.948459 35.193294 126 126 126 0
-5.357698 0.950559 35.271217 121 121 121 0
-4.827651 0.870560 32.302783 112 112 112 0
-4.769467 0.874402 32.445352 105 105 105 0
-4.700024 0.876276 32.514869 101 101 101 0
-4.638429 0.879702 32.642003 104 104 104 0
-4.569068 0.881750 32.717994 108 108 108 0
-4.506674 0.885240 32.847480 114 114 114 0
-4.439129 0.887826 32.943442 121 121 121 0
-4.364133 0.888990 32.986644 120 120 120 0
-4.709358 0.977414 36.267676 123 123 123 0
-4.623451 0.978038 36.290822 124 124 124 0
-4.539582 0.979125 36.331185 124 124 124 0
-4.453792 0.979834 36.357483 126 126 126 0
-4.368477 0.980678 36.388810 121 121 121 0
-4.289975 0.983119 36.479383 124 123 123 0
-4.203703 0.983845 36.506320 125 125 125 0
-4.131150 0.987884 36.656170 137 137 137 0
-4.059085 0.992221 36.817101 144 144 144 0
-3.981752 0.995438 36.936470 156 156 156 0
-3.864460 0.988583 36.682104 145 145 145 0
-3.729194 0.976694 36.240949 137 137 137 0
-3.637962 0.976039 36.216646 136 136 136 0
-3.546318 0.975237 36.186917 134 134 134 0
-3.458050 0.975348 36.191002 136 136 136 0
-3.371070 0.975836 36.209133 134 134 134 0
-3.276145 0.973989 36.140597 132 132 132 0
-3.188210 0.974175 36.147506 129 129 129 0
-3.098688 0.973873 36.136306 124 124 124 0
-3.007825 0.973120 36.108339 129 129 129 0
-2.910074 0.970025 35.993498 130 130 130 0
-2.801349 0.962964 35.731495 125 125 125 0
-2.704000 0.959484 35.602368 128 128 128 0
-2.610511 0.957187 35.517153 127 127 127 0
-2.517284 0.954832 35.429751 130 130 130 0
-2.429140 0.954305 35.410198 130 130 130 0
-2.339291 0.953045 35.363439 128 128 128 0
-2.247121 0.950705 35.276621 130 130 130 0
-2.154154 0.947828 35.169864 129 129 129 0
-2.061387 0.944802 35.057600 127 127 127 0
-1.968115 0.941272 34.926622 128 128 128 0
-1.875322 0.937661 34.792612 124 124 124 0
-1.785290 0.935152 34.699520 126 126 126 0
-1.700820 0.935451 34.710617 125 125 125 0
-1.614011 0.934427 34.672629 124 124 124 0
-1.527080 0.933215 34.627657 123 123 123 0
-1.442567 0.933426 34.635472 116 116 116 0
-1.214995 0.835309 30.994775 109 109 109 0
-1.141888 0.837384 31.071780 110 110 110 0
-1.066614 0.838054 31.096611 109 109 109 0
-0.994565 0.841555 31.226544 108 108 108 0
-0.920682 0.843959 31.315725 107 107 107 0
-0.848076 0.848076 31.468503 107 107 107 0
-0.769865 0.846851 31.423046 107 107 107 0
-0.698679 0.853941 31.686108 109 109 109 0
-0.612524 0.842221 31.251234 106 106 106 0
-0.539279 0.847439 31.444855 104 104 104 0
-0.471061 0.863612 32.044975 111 111 111 0
-0.398168 0.875970 32.503525 128 128 128 0
-0.359093 0.987507 36.642182 137 137 137 0
-0.269822 0.989347 36.710479 148 148 148 0
-0.180004 0.990021 36.735479 152 152 152 0
-0.089942 0.989363 36.711055 152 152 152 0
0.000000 0.987627 36.646624 153 153 153 0
0.089390 0.983290 36.485730 151 151 151 0
0.178796 0.983378 36.488978 153 153 153 0
0.267616 0.981260 36.410396 155 155 155 0
0.355746 0.978302 36.300631 153 153 153 0
0.443461 0.975614 36.200874 151 151 151 0
0.533104 0.977358 36.265599 148 148 148 0
0.620498 0.975069 36.180666 146 146 146 0
0.709550 0.975632 36.201545 150 150 150 0
0.798516 0.975964 36.213894 145 145 145 0
0.887587 0.976345 36.228027 144 144 144 0
0.974618 0.974618 36.163934 142 142 142 0
1.064803 0.976070 36.217793 137 137 137 0
1.156136 0.978269 36.299401 131 131 131 0
1.093028 0.858807 31.866696 115 115 115 0
1.174597 0.861371 31.961818 89 89 89 0
1.410996 0.970059 35.994785 75 75 75 0
1.493962 0.966681 35.869427 64 64 64 0
2.081515 1.040758 38.618096 106 106 106 0
2.022991 0.967518 35.900466 124 124 124 0
2.107572 0.965970 35.843055 140 140 140 0
2.193188 0.965003 35.807152 148 148 148 0
2.279224 0.964287 35.780599 150 150 150 0
2.357887 0.960620 35.644544 149 149 149 0
2.441196 0.959041 35.585948 151 151 151 0
2.526930 0.958491 35.565511 150 150 150 0
2.607952 0.956249 35.482338 150 150 150 0
2.684389 0.952525 35.344156 147 147 147 0
2.768410 0.951641 35.311353 146 146 146 0
2.849891 0.949964 35.249117 148 148 148 0
2.927257 0.947054 35.141136 148 148 148 0
3.005874 0.944703 35.053921 148 148 148 0
3.091180 0.944527 35.047389 149 149 149 0
3.172251 0.943102 34.994495 149 149 149 0
3.252560 0.941531 34.936202 149 149 149 0
3.334849 0.940598 34.901612 149 149 149 0
3.415569 0.939282 34.852748 148 148 148 0
3.502302 0.939642 34.866125 149 149 149 0
3.587846 0.939674 34.867308 145 145 145 0
3.668867 0.938547 34.825504 146 146 146 0
3.750341 0.937585 34.789806 144 144 144 0
3.838919 0.938402 34.820127 143 143 143 0
3.931688 0.940186 34.886320 142 142 142 0
4.011619 0.938889 34.838199 139 139 139 0
4.093037 0.937988 34.804736 133 133 133 0
4.187855 0.940131 34.884260 131 131 131 0
3.765976 0.828515 30.742661 131 131 131 0
4.366799 0.941859 34.948374 135 135 135 0
4.131809 0.874037 32.431784 134 134 134 0
4.543675 0.943027 34.991720 132 132 132 0
4.404206 0.897153 33.289538 131 131 131 0
4.721592 0.944318 35.039643 131 131 131 0
4.813499 0.945509 35.083815 136 136 136 0
4.901953 0.945991 35.101706 137 137 137 0
4.996035 0.947524 35.158589 134 134 134 0
4.690307 0.874464 32.447643 128 128 128 0
4.894876 0.897394 33.298480 114 114 114 0
5.236363 0.944262 35.037557 107 107 107 0
5.588824 0.991565 36.792782 99 99 99 0
5.547296 0.968576 35.939723 92 92 92 0
5.503569 0.945926 35.099289 83 83 83 0
7.318775 1.102829 40.921301 73 73 73 0
7.425824 1.103839 40.958766 92 92 92 0
7.690095 1.127881 41.850859 93 93 93 0
7.789333 1.127403 41.833151 93 93 93 0
8.065095 1.152156 42.751631 94 94 94 0
8.514987 1.200831 44.557753 89 89 89 0
8.797580 1.224980 45.453785 87 87 87 0
-6.936426 1.040464 35.389931 124 124 124 0
-6.854479 1.041187 35.414513 126 126 126 0
-6.765906 1.040909 35.405054 126 126 126 0
-6.673322 1.039998 35.374090 129 129 129 0
-6.586225 1.039930 35.371777 130 130 130 0
-6.501276 1.040204 35.381093 130 130 130 0
-6.407037 1.038979 35.339423 131 131 131 0
-6.314132 1.037940 35.304067 131 131 131 0
-6.227829 1.037972 35.305154 131 131 131 0
-6.130513 1.036143 35.242959 132 132 132 0
-6.035455 1.034649 35.192156 132 132 132 0
-5.944159 1.033767 35.162138 132 132 132 0
-5.855639 1.033348 35.147894 133 133 133 0
-5.759787 1.031604 35.088559 135 135 135 0
-5.673181 1.031487 35.084607 134 134 134 0
-5.587492 1.031537 35.086290 134 134 134 0
-5.505429 1.032268 35.111157 129 129 129 0
-5.423187 1.032988 35.135647 124 124 124 0
-4.886403 0.945755 32.168553 116 116 116 0
-4.825561 0.949291 32.288797 107 107 107 0
-4.749931 0.949986 32.312457 101 101 101 0
-4.697696 0.955464 32.498761 98 98 98 0
-4.636238 0.959222 32.626588 107 107 107 0
-4.580145 0.964241 32.797313 109 109 109 0
-4.935686 1.057647 35.974390 113 113 113 0
-4.439163 0.968545 32.943699 117 117 117 0
-4.361245 0.969166 32.964818 117 117 117 0
-4.289258 0.971153 33.032403 126 126 126 0
-4.627901 1.067977 36.325756 124 124 124 0
-4.546789 1.069833 36.388866 126 126 126 0
-4.458030 1.069927 36.392080 127 127 127 0
-4.376857 1.071883 36.458619 125 125 125 0
-4.292838 1.073210 36.503726 128 128 128 0
-4.206392 1.073972 36.529672 127 127 127 0
-4.122011 1.075307 36.575076 129 129 129 0
-4.054894 1.081305 36.779080 139 139 139 0
-3.978171 1.084956 36.903259 154 154 154 0
-3.896471 1.087387 36.985962 152 152 152 0
-3.739911 1.068546 36.345100 141 141 141 0
-3.647592 1.067588 36.312513 139 139 139 0
-3.552279 1.065684 36.247748 137 137 137 0
-3.464869 1.066114 36.262366 137 137 137 0
-3.378986 1.067048 36.294155 135 135 135 0
-3.286872 1.066013 36.258931 133 133 133 0
-3.193225 1.064408 36.204369 133 133 133 0
-3.103469 1.064046 36.192057 132 132 132 0
-3.022414 1.066734 36.283478 130 130 130 0
-2.933865 1.066860 36.287752 131 131 131 0
-2.830217 1.061331 36.099701 127 127 127 0
-2.724344 1.054585 35.870225 126 126 126 0
-2.626452 1.050581 35.734042 128 128 128 0
-2.530082 1.046931 35.609887 126 126 126 0
-2.439033 1.045300 35.554418 125 125 125 0
-2.349017 1.044007 35.510455 128 128 128 0
-2.258141 1.042219 35.449621 129 129 129 0
-2.162099 1.037807 35.299572 127 127 127 0
-2.070266 1.035133 35.208608 128 128 128 0
-1.978301 1.032157 35.107390 125 125 125 0
-1.884578 1.027952 34.964349 127 127 127 0
-1.794639 1.025508 34.881226 126 126 126 0
-1.705192 1.023115 34.799839 124 124 124 0
-1.618174 1.022005 34.762063 122 122 122 0
-1.531402 1.020934 34.725659 120 120 120 0
-1.447789 1.021968 34.760831 118 118 118 0
-1.365973 1.024480 34.846242 114 114 114 0
-1.142955 0.914364 31.100827 111 111 111 0
-1.071642 0.918550 31.243199 108 108 108 0
-0.996537 0.919880 31.288447 109 109 109 0
-0.921385 0.921385 31.339614 102 102 102 0
-0.848475 0.925610 31.483317 104 104 104 0
-0.774717 0.929661 31.621109 104 104 104 0
-0.703313 0.937751 31.896297 100 100 100 0
-0.624820 0.937229 31.878554 114 114 114 0
-0.550500 0.943715 32.099142 109 109 109 0
-0.533146 1.066291 36.268414 115 115 115 0
-0.448921 1.077410 36.646605 135 135 135 0
-0.359924 1.079772 36.726935 142 142 142 0
-0.270418 1.081674 36.791631 154 154 154 0
-0.180265 1.081592 36.788845 154 154 154 0
-0.090048 1.080578 36.754344 160 160 160 0
0.000000 1.077738 36.657749 153 153 153 0
0.089362 1.072339 36.474124 152 152 152 0
0.178815 1.072892 36.492940 154 154 154 0
0.267695 1.070780 36.421086 152 152 152 0
0.355684 1.067051 36.294248 149 149 149 0
0.444233 1.066159 36.263928 151 151 151 0
0.533375 1.066750 36.284019 153 153 153 0
0.620820 1.064263 36.199419 154 154 154 0
0.709602 1.064404 36.204208 152 152 152 0
0.798412 1.064549 36.209156 148 148 148 0
0.887804 1.065365 36.236913 146 146 146 0
0.975713 1.064415 36.204578 141 141 141 0
1.066129 1.066129 36.262884 137 137 137 0
1.157418 1.068386 36.339654 129 129 129 0
1.093892 0.937622 31.891907 114 114 114 0
1.179645 0.943716 32.099186 84 84 84 0
1.425967 1.069475 36.376701 81 81 81 0
1.540813 1.087633 36.994308 61 61 61 0
2.082968 1.136164 38.645046 110 110 110 0
2.207065 1.151512 39.167083 120 120 120 0
2.112688 1.056344 35.930061 128 128 128 0
2.192687 1.052490 35.798970 140 140 140 0
2.278362 1.051552 35.767059 149 149 149 0
2.355586 1.046927 35.609765 147 147 147 0
2.440747 1.046035 35.579409 152 152 152 0
2.526315 1.045372 35.556857 150 150 150 0
2.604592 1.041837 35.436629 149 149 149 0
2.683959 1.038952 35.338505 147 147 147 0
2.765572 1.037089 35.275151 149 149 149 0
2.847435 1.035431 35.218733 148 148 148 0
2.922910 1.031615 35.088950 149 149 149 0
3.006365 1.030754 35.059645 147 147 147 0
3.087134 1.029045 35.001521 145 145 145 0
3.167033 1.027146 34.936932 149 149 149 0
3.250880 1.026594 34.918156 149 149 149 0
3.331315 1.025020 34.864631 150 150 150 0
3.414417 1.024325 34.840986 148 148 148 0
3.497779 1.023740 34.821092 148 148 148 0
3.583645 1.023899 34.826486 147 147 147 0
3.665918 1.023047 34.797512 146 146 146 0
3.748416 1.022295 34.771946 143 143 143 0
3.836883 1.023169 34.801657 142 142 142 0
3.924795 1.023860 34.825158 140 140 140 0
4.006767 1.023004 34.796065 137 137 137 0
4.097670 1.024417 34.844129 131 131 131 0
4.187326 1.025467 34.879847 134 134 134 0
4.280352 1.027284 34.941649 134 134 134 0
4.052495 0.953528 32.432936 136 136 136 0
4.454020 1.027851 34.960913 133 133 133 0
4.536349 1.027098 34.935303 131 131 131 0
4.625153 1.027812 34.959583 128 128 128 0
4.723182 1.030512 35.051441 126 126 126 0
4.683869 1.003686 34.138988 130 130 130 0
4.902332 1.032070 35.104420 130 130 130 0
4.994783 1.033403 35.149774 125 125 125 0
5.190244 1.055643 35.906218 115 115 115 0
5.193282 1.038656 35.328448 108 108 108 0
5.282320 1.039145 35.345065 101 101 101 0
5.326394 1.030915 35.065134 96 96 96 0
5.504243 1.048427 35.660789 85 85 85 0
5.602462 1.050462 35.729987 75 75 75 0
7.122167 1.187028 40.375095 70 70 70 0
8.848060 1.454476 49.471957 76 76 76 0
7.429766 1.204827 40.980508 80 80 80 0
9.159545 1.465527 49.847866 73 73 73 0
9.072678 1.432528 48.725445 74 74 74 0
9.699501 1.511610 51.415323 72 72 72 0
8.588298 1.321277 44.941382 74 74 74 0
8.886642 1.349870 45.913936 71 71 71 0
-6.916295 1.123898 35.287218 123 123 123 0
-6.837291 1.125124 35.325709 127 127 127 0
-6.748041 1.124673 35.311567 129 129 129 0
-6.659025 1.124251 35.298305 128 128 128 0
-6.574523 1.124589 35.308931 130 130 130 0
-6.483359 1.123782 35.283588 131 131 131 0
-6.386747 1.121996 35.227507 131 131 131 0
-6.296515 1.121297 35.205564 132 132 132 0
-6.213577 1.121896 35.224358 131 131 131 0
-6.113782 1.119425 35.146775 132 131 132 0
-6.021001 1.118186 35.107879 131 131 131 0
-5.931770 1.117580 35.088852 134 134 134 0
-5.841838 1.116822 35.065052 136 136 136 0
-5.748366 1.115355 35.018985 136 136 136 0
-5.662953 1.115430 35.021354 135 135 135 0
-5.581699 1.116340 35.049913 133 133 133 0
-5.498371 1.116857 35.066144 128 127 128 0
-5.416212 1.117631 35.090454 120 120 120 0
-4.883288 1.023915 32.148044 109 109 109 0
-4.819510 1.027109 32.248310 104 104 104 0
-4.765842 1.032599 32.420696 99 99 99 0
-4.710856 1.037985 32.589800 101 101 101 0
-4.639381 1.039861 32.648704 105 105 105 0
-4.568100 1.041847 32.711066 111 111 111 0
-4.505911 1.046015 32.841917 116 116 116 0
-4.437540 1.048873 32.931654 121 121 121 0
-4.368873 1.051766 33.022475 127 127 127 0
-4.287667 1.051692 33.020152 124 124 124 0
-4.627858 1.156964 36.325414 124 124 124 0
-4.143932 1.056296 33.164718 129 129 129 0
-4.458030 1.159088 36.392080 126 126 126 0
-4.382347 1.162664 36.504349 123 123 123 0
-4.299184 1.164362 36.557691 123 123 123 0
-4.208152 1.163957 36.544957 125 125 125 0
-4.126739 1.166252 36.617029 129 129 129 0
-4.052318 1.170670 36.755721 139 139 139 0
-3.977452 1.175156 36.896585 149 149 149 0
-3.899838 1.179021 37.017917 166 166 166 0
-3.783814 1.171181 36.771761 149 149 149 0
-3.652774 1.158197 36.364106 137 137 137 0
-3.557488 1.156184 36.300900 136 136 136 0
-3.469356 1.156452 36.309329 138 138 138 0
-3.382229 1.157078 36.328991 138 138 138 0
-3.292510 1.156828 36.321125 135 135 135 0
-3.200068 1.155580 36.281946 132 132 132 0
-3.113158 1.156316 36.305047 131 131 131 0
-3.030124 1.158577 36.376042 128 128 128 0
-2.939863 1.158128 36.361938 132 132 132 0
-2.851555 1.158444 36.371880 134 134 134 0
-2.758887 1.156953 36.325040 130 130 130 0
-2.654696 1.150368 36.118318 128 128 128 0
-2.549816 1.143021 35.887624 130 130 130 0
-2.455907 1.140242 35.800390 127 127 127 0
-2.359219 1.135920 35.664686 124 124 124 0
-2.263759 1.131880 35.537825 127 127 127 0
-2.171815 1.129344 35.458205 129 129 129 0
-2.082493 1.128017 35.416549 125 125 125 0
-1.992325 1.126097 35.356263 127 127 127 0
-1.897963 1.121524 35.212671 130 130 130 0
-1.804429 1.117028 35.071509 124 124 124 0
-1.715045 1.114780 35.000926 122 122 122 0
-1.628873 1.114492 34.991892 119 119 119 0
-1.539060 1.111543 34.899312 120 120 120 0
-1.453457 1.111467 34.896934 118 118 118 0
-1.368050 1.111541 34.899241 117 117 117 0
-1.146691 0.993799 31.202473 114 114 114 0
-1.071269 0.994750 31.232328 108 108 108 0
-0.997424 0.997424 31.316289 104 104 104 0
-0.922823 0.999725 31.388533 104 104 104 0
-0.847949 1.002122 31.463797 102 102 102 0
-0.780291 1.014379 31.848621 103 103 103 0
-0.707179 1.021481 32.071617 109 109 109 0
-0.631923 1.026874 32.240946 117 117 117 0
-0.554613 1.029996 32.338957 118 118 118 0
-0.538353 1.166431 36.622631 125 125 125 0
-0.450463 1.171203 36.772459 140 140 140 0
-0.360830 1.172699 36.819437 149 149 149 0
-0.271156 1.175008 36.891929 161 161 161 0
-0.180582 1.173785 36.853526 158 158 158 0
-0.090250 1.173244 36.836554 157 157 157 0
0.000000 1.169929 36.732473 150 150 150 0
0.089644 1.165372 36.589382 151 151 151 0
0.178971 1.163308 36.524595 154 154 154 0
0.267872 1.160779 36.445174 151 151 151 0
0.355951 1.156840 36.321512 152 152 152 0
0.444926 1.156809 36.320523 153 153 153 0
0.534167 1.157362 36.337910 152 152 152 0
0.621292 1.153827 36.226920 156 156 156 0
0.709443 1.152845 36.196071 153 153 153 0
0.798854 1.153900 36.229201 151 151 151 0
0.888214 1.154678 36.253634 142 142 142 0
0.976435 1.153968 36.231338 139 139 139 0
1.066454 1.155326 36.273958 137 137 137 0
1.159132 1.159132 36.393458 123 123 123 0
1.094121 1.015970 31.898584 111 111 111 0
1.182510 1.024842 32.177137 81 81 81 0
1.441744 1.171417 36.779179 75 75 75 0
1.479196 1.131150 35.514900 62 62 62 0
2.084720 1.231880 38.677554 110 110 110 0
2.189521 1.237555 38.855737 120 120 120 0
2.089399 1.131758 35.534004 127 127 127 0
2.197399 1.142647 35.875902 134 134 134 0
2.278694 1.139347 35.772280 144 144 144 0
2.355845 1.134296 35.613686 150 150 150 0
2.439041 1.132412 35.554536 147 147 147 0
2.526257 1.132460 35.556050 147 147 147 0
2.601941 1.127508 35.400553 149 149 149 0
2.680771 1.124194 35.296520 147 147 147 0
2.765302 1.123404 35.271711 147 147 147 0
2.846113 1.121196 35.202385 150 150 150 0
2.923524 1.117818 35.096330 146 146 146 0
3.003803 1.115698 35.029775 149 149 149 0
3.087129 1.114797 35.001462 149 149 149 0
3.167462 1.112892 34.941668 148 148 148 0
3.250853 1.112134 34.917858 150 150 150 0
3.330582 1.110194 34.856956 150 150 150 0
3.408524 1.107770 34.780855 150 150 150 0
3.497261 1.108888 34.815935 149 149 149 0
3.581505 1.108561 34.805685 147 147 147 0
3.661795 1.107054 34.758376 145 145 145 0
3.746244 1.106845 34.751798 144 144 144 0
3.838121 1.108791 34.812893 141 141 141 0
3.923136 1.108712 34.810438 138 138 138 0
4.001399 1.106770 34.749449 137 137 137 0
4.097910 1.109851 34.846170 135 135 135 0
4.187653 1.111010 34.882571 130 130 130 0
4.277948 1.112267 34.922026 132 132 132 0
4.355966 1.110344 34.861674 139 139 139 0
4.449115 1.112279 34.922412 137 137 137 0
4.531806 1.111575 34.900318 127 127 127 0
4.402878 1.059952 33.279502 125 125 125 0
4.716790 1.114878 35.004008 124 124 124 0
4.809835 1.116569 35.057107 123 123 123 0
4.907549 1.119266 35.141779 121 121 121 0
4.998570 1.120369 35.176429 113 113 113 0
5.190803 1.143736 35.910089 109 109 109 0
5.199638 1.126588 35.371686 103 103 103 0
5.299871 1.129481 35.462504 98 98 98 0
5.065769 1.062177 33.349366 90 90 90 0
5.537870 1.142735 35.878650 75 75 75 0
9.295842 1.751390 54.988711 71 71 71 0
9.426309 1.750600 54.963903 70 70 70 0
9.689993 1.749582 54.931933 70 70 70 0
9.690834 1.725765 54.184142 73 73 73 0
8.898707 1.563286 49.082774 73 73 73 0
8.941483 1.549857 48.661134 71 71 71 0
8.037318 1.374804 43.164974 70 70 70 0
8.189074 1.382571 43.408818 68 68 68 0
9.288143 1.548024 48.603573 72 72 72 0
9.797242 1.612204 50.618663 69 69 69 0
-6.895888 1.206780 35.183101 119 119 119 0
-6.818442 1.208331 35.228323 121 121 121 0
-6.725970 1.207225 35.196078 126 126 126 0
-6.639625 1.207205 35.195469 128 128 128 0
-6.556956 1.207860 35.214587 127 127 127 0
-6.464722 1.206748 35.182160 128 127 128 0
-6.373312 1.205762 35.153402 129 129 129 0
-6.283345 1.205025 35.131924 131 131 131 0
-6.193183 1.204230 35.108750 132 132 132 0
-6.097824 1.202388 35.055041 131 131 131 0
-6.007410 1.201482 35.028629 133 133 133 0
-5.916133 1.200375 34.996350 135 135 135 0
-5.826554 1.199585 34.973311 135 135 135 0
-5.740370 1.199480 34.970270 136 136 136 0
-5.651822 1.198871 34.952519 136 136 136 0
-5.572482 1.200227 34.992037 133 133 133 0
-5.491088 1.201175 35.019694 122 122 122 0
-4.952099 1.100466 32.083568 114 114 114 0
-4.887884 1.103716 32.178301 103 103 103 0
-4.814335 1.104929 32.213686 100 100 100 0
-4.776176 1.114441 32.490995 101 101 101 0
-4.701211 1.115542 32.523082 101 101 101 0
-4.646899 1.121665 32.701612 105 105 105 0
-4.573094 1.123216 32.746823 112 112 112 0
-4.505338 1.126335 32.837741 115 115 115 0
-4.435971 1.129156 32.920010 119 119 119 0
-4.362134 1.130924 32.971533 122 122 122 0
-4.285563 1.132035 33.003950 121 121 121 0
-4.223152 1.137003 33.148762 127 127 127 0
-4.549375 1.248848 36.409560 125 125 125 0
-4.468253 1.251111 36.475539 127 127 127 0
-4.385127 1.252894 36.527508 125 125 125 0
-4.304207 1.255394 36.600400 125 125 125 0
-4.212725 1.254854 36.584672 126 126 126 0
-4.130847 1.257214 36.653480 128 128 128 0
-4.053241 1.261008 36.764093 131 131 131 0
-3.975386 1.264895 36.877418 146 146 146 0
-3.898305 1.269215 37.003367 161 161 161 0
-3.814164 1.271388 37.066703 160 160 160 0
-3.667929 1.252464 36.514977 141 141 141 0
-3.566162 1.248157 36.389411 140 140 140 0
-3.477733 1.248417 36.397001 140 140 140 0
-3.390592 1.249166 36.418822 136 136 136 0
-3.301602 1.249255 36.421423 132 132 132 0
-3.207340 1.247299 36.364398 133 133 133 0
-3.124663 1.249865 36.439215 128 128 128 0
-3.031949 1.248449 36.397944 133 133 133 0
-2.946846 1.250177 36.448307 130 130 130 0
-2.858475 1.250583 36.460145 131 131 131 0
-2.771445 1.251620 36.490385 135 135 135 0
-2.684317 1.252681 36.521315 127 127 127 0
-2.581990 1.246478 36.340462 126 126 126 0
-2.473892 1.236946 36.062563 128 128 128 0
-2.376492 1.232255 35.925803 128 128 128 0
-2.280230 1.227816 35.796387 125 125 125 0
-2.185468 1.223862 35.681108 127 127 127 0
-2.097547 1.223569 35.672565 122 122 122 0
-2.004964 1.220413 35.580551 125 125 125 0
-1.908127 1.214263 35.401241 126 126 126 0
-1.819564 1.213043 35.365682 128 128 128 0
-1.731266 1.211886 35.331950 123 123 123 0
-1.637981 1.206933 35.187555 124 124 124 0
-1.546335 1.202705 35.064275 128 128 128 0
-1.458704 1.201286 35.022904 120 120 120 0
-1.375469 1.203536 35.088505 118 118 118 0
-1.149459 1.072829 31.277802 116 116 116 0
-1.076300 1.076300 31.378997 109 109 109 0
-0.997784 1.074537 31.327609 103 103 103 0
-0.930559 1.085652 31.651664 99 99 99 0
-0.855830 1.089238 31.756211 101 101 101 0
-0.878525 1.229936 35.858179 104 104 104 0
-0.703731 1.094692 31.915230 113 113 113 0
-0.638797 1.117895 32.591689 114 114 114 0
-0.629038 1.258077 36.678622 138 138 138 0
-0.480071 1.120165 32.657874 153 153 153 0
-0.450721 1.262018 36.793534 151 151 151 0
-0.360849 1.262970 36.821276 162 162 162 0
-0.270950 1.264434 36.863967 163 163 163 0
-0.180964 1.266747 36.931395 161 161 161 0
-0.090323 1.264528 36.866715 155 155 155 0
0.000000 1.260192 36.740293 156 156 156 0
0.089658 1.255206 36.594939 151 151 151 0
0.178900 1.252298 36.510149 153 153 153 0
0.267877 1.250093 36.445862 151 151 151 0
0.356362 1.247266 36.363433 150 150 150 0
0.444624 1.244948 36.295872 150 150 150 0
0.534218 1.246509 36.341359 149 149 149 0
0.621798 1.243597 36.256459 152 152 152 0
0.709991 1.242485 36.224050 149 149 149 0
0.799768 1.244084 36.270665 147 147 147 0
0.889189 1.244864 36.293420 143 143 143 0
0.977185 1.243690 36.259181 138 138 138 0
1.067471 1.245383 36.308545 130 130 130 0
1.160619 1.249898 36.440169 119 119 119 0
1.255040 1.255040 36.590085 100 100 100 0
1.192003 1.112536 32.435449 89 89 89 0
1.442937 1.262570 36.809615 81 81 81 0
1.966621 1.311081 38.223934 64 64 64 0
2.087290 1.328275 38.725229 112 112 112 0
2.188507 1.332135 38.837755 121 121 121 0
2.297349 1.340120 39.070564 117 117 117 0
2.193327 1.228263 35.809419 129 129 129 0
2.282220 1.228888 35.827628 135 135 135 0
2.357764 1.222544 35.642684 146 146 146 0
2.439541 1.219770 35.561821 147 147 147 0
2.527130 1.219994 35.568335 146 146 146 0
2.602431 1.214468 35.407219 148 148 148 0
2.681323 1.210920 35.303787 148 148 148 0
2.765244 1.209794 35.270975 147 147 147 0
2.846161 1.207462 35.202979 146 146 146 0
2.921337 1.202903 35.070071 146 146 146 0
3.003291 1.201316 35.023801 150 150 150 0
3.083354 1.199082 34.958662 150 150 150 0
3.165095 1.197603 34.915549 148 148 148 0
3.247470 1.196436 34.881524 150 150 150 0
3.327436 1.194464 34.824030 151 151 151 0
3.407841 1.192744 34.773883 151 151 151 0
3.494494 1.193242 34.788393 148 148 148 0
3.581287 1.193762 34.803562 146 146 146 0
3.658372 1.191098 34.725884 145 145 145 0
3.745821 1.191852 34.747875 143 143 143 0
3.834551 1.192971 34.780504 141 141 141 0
3.922504 1.193805 34.804823 140 140 140 0
4.000778 1.191721 34.744052 139 139 139 0
4.091720 1.193418 34.793541 134 134 134 0
4.181093 1.194598 34.827931 130 130 130 0
4.272696 1.196355 34.879148 134 134 134 0
4.356192 1.195817 34.863484 141 141 141 0
4.443867 1.196426 34.881213 137 137 137 0
4.533584 1.197550 34.914008 124 124 124 0
4.288918 1.111942 32.418123 125 125 125 0
4.713255 1.199738 34.977777 120 120 120 0
4.566430 1.141608 33.283020 116 116 116 0
4.905130 1.204769 35.124456 113 113 113 0
4.733173 1.142490 33.308748 107 107 107 0
4.816317 1.142855 33.319381 102 102 102 0
5.025775 1.172681 34.188948 97 97 97 0
5.113800 1.173659 34.217462 87 87 87 0
5.199660 1.174117 34.230813 81 81 81 0
6.762867 1.434548 41.823544 72 72 72 0
7.612585 1.590689 46.375783 72 72 72 0
7.156301 1.473356 42.954986 73 73 73 0
8.810714 1.787681 52.118984 72 72 72 0
9.563575 1.885775 54.978875 70 70 70 0
9.671788 1.880625 54.828730 69 69 69 0
8.645282 1.657999 48.338170 72 72 72 0
7.904221 1.495393 43.597467 68 68 68 0
9.155517 1.709030 49.825945 72 72 72 0
9.749568 1.795973 52.360730 69 69 69 0
9.700407 1.763710 51.420128 70 70 70 0
9.290033 1.667442 48.613467 72 72 72 0
9.334326 1.654184 48.226950 71 71 71 0
-6.879350 1.289878 35.098726 118 117 118 0
-6.792574 1.289729 35.094675 117 117 117 0
-6.710369 1.290456 35.114436 120 120 120 0
-6.621224 1.289849 35.097926 123 123 123 0
-6.537319 1.290260 35.109125 125 125 125 0
-6.445765 1.289153 35.078992 126 126 126 0
-6.356290 1.288437 35.059516 127 127 127 0
-6.263857 1.287094 35.022961 129 129 129 0
-6.174946 1.286447 35.005365 131 131 131 0
-6.083818 1.285314 34.974524 132 132 132 0
-5.993601 1.284343 34.948111 134 134 134 0
-5.903975 1.283473 34.924433 135 135 135 0
-5.817237 1.283214 34.917389 135 134 135 0
-5.731507 1.283173 34.916276 136 136 136 0
-5.647006 1.283410 34.922733 135 135 135 0
-5.564538 1.284124 34.942156 130 130 130 0
-5.491636 1.287102 35.023186 119 119 119 0
-4.945912 1.177598 32.043484 110 110 110 0
-4.894709 1.184204 32.223233 104 104 104 0
-4.815055 1.184030 32.218500 103 103 103 0
-4.771963 1.192991 32.462332 97 97 97 0
-4.698569 1.194551 32.504799 100 100 100 0
-4.651922 1.203083 32.736960 106 106 106 0
-4.578029 1.204745 32.782165 113 113 113 0
-4.511881 1.208540 32.885433 118 118 118 0
-4.441850 1.211414 32.963639 122 122 122 0
-4.364331 1.212314 32.988143 121 121 121 0
-4.298799 1.216641 33.105883 124 124 124 0
-4.631069 1.335885 36.350620 123 123 123 0
-4.549342 1.338042 36.409298 128 128 128 0
-4.469040 1.340712 36.481961 124 124 124 0
-4.391014 1.344188 36.576540 124 124 124 0
-4.307292 1.346029 36.626629 124 124 124 0
-4.214711 1.345120 36.601915 122 122 122 0
-4.126943 1.345742 36.618841 126 126 126 0
-4.054611 1.351537 36.776521 124 124 124 0
-3.979386 1.356609 36.914530 137 137 137 0
-3.902243 1.361248 37.040749 149 149 149 0
-3.819092 1.363962 37.114599 150 150 150 0
-3.694172 1.351526 36.776225 139 139 139 0
-3.573597 1.340099 36.465279 136 136 136 0
-3.480674 1.338721 36.427778 136 136 136 0
-3.394398 1.339894 36.459704 136 136 136 0
-3.305749 1.340168 36.467170 135 135 135 0
-3.211873 1.338281 36.415797 131 131 131 0
-3.128213 1.340663 36.480617 131 131 131 0
-3.046487 1.344038 36.572472 130 130 130 0
-2.953006 1.342275 36.524502 130 130 130 0
-2.864242 1.342614 36.533704 129 129 129 0
-2.784113 1.347152 36.657186 129 129 129 0
-2.695275 1.347638 36.670412 132 132 132 0
-2.609026 1.349496 36.720979 133 133 133 0
-2.515169 1.347412 36.664276 128 128 128 0
-2.408849 1.338250 36.414954 129 129 129 0
-2.318218 1.337433 36.392745 132 132 132 0
-2.214567 1.328740 36.156201 130 130 130 0
-2.112854 1.320533 35.932884 130 130 130 0
-2.025977 1.321289 35.953453 127 127 127 0
-1.931322 1.316811 35.831579 126 126 126 0
-1.833499 1.309642 35.636521 128 128 128 0
-1.746454 1.309841 35.641919 127 127 127 0
-1.652183 1.304355 35.492661 126 126 126 0
-1.557879 1.298233 35.326057 125 125 125 0
-1.466740 1.294182 35.215838 124 124 124 0
-1.385504 1.298910 35.344481 124 124 124 0
-1.297095 1.297095 35.295096 119 119 119 0
-1.078627 1.155672 31.446846 108 108 108 0
-1.006526 1.161377 31.602087 105 105 105 0
-0.933274 1.166592 31.744001 103 103 103 0
-0.863300 1.177227 32.033386 105 105 105 0
-0.791564 1.187346 32.308731 102 102 102 0
-0.806202 1.343670 36.562439 104 104 104 0
-0.720910 1.351707 36.781148 139 139 139 0
-0.630667 1.351429 36.773578 157 157 157 0
-0.480504 1.201259 32.687326 156 156 156 0
-0.450400 1.351200 36.767348 151 151 151 0
-0.360875 1.353280 36.823950 159 159 159 0
-0.270314 1.351568 36.777362 161 161 161 0
-0.180687 1.355155 36.874956 164 164 164 0
-0.090394 1.355903 36.895313 154 154 154 0
0.000000 1.352816 36.811321 157 157 157 0
0.090093 1.351389 36.772503 155 155 155 0
0.179690 1.347676 36.671453 150 150 150 0
0.268724 1.343622 36.561155 148 148 148 0
0.356962 1.338606 36.424653 146 146 146 0
0.445586 1.336758 36.374378 149 149 149 0
0.535099 1.337747 36.401265 149 149 149 0
0.622258 1.333411 36.283288 148 148 148 0
0.710795 1.332741 36.265074 148 148 148 0
0.800033 1.333388 36.282665 142 142 142 0
0.889579 1.334369 36.309355 141 141 141 0
0.977235 1.332593 36.261043 132 132 132 0
1.068333 1.335417 36.337866 121 121 121 0
1.160966 1.339576 36.451056 111 111 111 0
1.100289 1.178881 32.078405 95 95 95 0
1.184570 1.184570 32.233194 85 85 85 0
1.271059 1.191618 32.424985 76 76 76 0
1.967785 1.405561 38.246554 61 61 61 0
2.088448 1.423942 38.746722 115 115 115 0
2.189428 1.427888 38.854082 120 120 120 0
2.291752 1.432345 38.975375 116 116 116 0
2.118350 1.271010 34.585305 121 121 121 0
2.285469 1.318540 35.878635 126 126 126 0
2.360108 1.311171 35.678124 140 140 140 0
2.439480 1.306864 35.560936 148 148 148 0
2.523553 1.305286 35.517993 146 146 146 0
2.602064 1.301032 35.402238 146 146 146 0
2.681445 1.297473 35.305399 146 146 146 0
2.763139 1.295222 35.244123 147 147 147 0
2.847435 1.294288 35.218733 148 148 148 0
2.920962 1.288660 35.065571 145 145 145 0
3.000599 1.285971 34.992403 148 148 148 0
3.083644 1.284852 34.961954 147 147 147 0
3.161918 1.281859 34.880506 149 149 149 0
3.246050 1.281335 34.866268 152 152 152 0
3.326508 1.279426 34.814314 154 154 154 0
3.404881 1.276830 34.743679 152 152 152 0
3.493463 1.278096 34.778128 148 148 148 0
3.577307 1.277610 34.764885 147 147 147 0
3.657263 1.275789 34.715355 144 144 144 0
3.739446 1.274811 34.688742 143 143 143 0
3.830636 1.276879 34.744997 139 139 139 0
3.918014 1.277613 34.764983 139 139 139 0
3.997289 1.275731 34.713758 139 139 139 0
4.086392 1.276998 34.748233 134 134 134 0
4.179596 1.279468 34.815459 130 130 130 0
4.268633 1.280590 34.845981 136 136 136 0
4.351791 1.279938 34.828256 141 141 141 0
4.441109 1.281089 34.859569 134 134 134 0
4.098690 1.160007 31.564803 123 123 123 0
4.621425 1.283729 34.931405 118 118 118 0
4.714904 1.285883 34.990014 115 115 115 0
4.449916 1.191942 32.433793 111 111 111 0
4.770649 1.255434 34.161468 104 104 104 0
5.011082 1.295969 35.264472 101 101 101 0
4.817874 1.224883 33.330153 95 95 95 0
5.028930 1.257233 34.210410 90 90 90 0
5.114804 1.257739 34.224184 82 82 82 0
5.334090 1.290506 35.115798 71 71 71 0
8.272287 1.938817 52.756934 74 74 74 0
7.500646 1.730918 47.099820 73 73 73 0
6.650945 1.511579 41.131388 74 74 74 0
7.953133 1.780552 48.450399 69 69 69 0
7.028694 1.527977 41.577604 72 72 72 0
6.992734 1.477338 40.199675 73 73 73 0
8.795303 1.832355 49.859995 71 71 71 0
8.848060 1.818094 49.471957 70 70 70 0
9.967195 2.020377 54.976255 76 76 76 0
9.155472 1.831094 49.825699 74 74 74 0
8.990140 1.774370 48.282170 70 70 70 0
10.361617 2.018497 54.925083 75 75 75 0
8.588346 1.651605 44.941635 75 75 75 0
10.649723 2.022099 55.023109 76 76 76 0
-6.852809 1.370562 34.963311 118 118 118 0
-6.775631 1.372280 35.007137 119 119 119 0
-6.687996 1.371897 34.997360 120 120 120 0
-6.600134 1.371456 34.986135 123 123 123 0
-6.514468 1.371467 34.986402 126 126 126 0
-6.429289 1.371582 34.989327 127 127 127 0
-6.339726 1.370752 34.968153 131 131 131 0
-6.246877 1.369179 34.928025 130 130 130 0
-6.158640 1.368587 34.912927 133 133 133 0
-6.071235 1.368166 34.902187 135 135 135 0
-5.980146 1.366890 34.869655 137 137 137 0
-5.891104 1.366053 34.848290 138 138 138 0
-5.806322 1.366193 34.851871 139 139 139 0
-5.724683 1.367088 34.874706 138 138 138 0
-5.640253 1.367334 34.880969 135 135 135 0
-5.560630 1.368771 34.917615 129 129 129 0
-5.022766 1.255692 32.032947 114 114 114 0
-4.951525 1.257530 32.079852 103 103 103 0
-4.891201 1.262245 32.200136 98 98 98 0
-4.837610 1.268881 32.369423 97 97 97 0
-4.763040 1.270144 32.401635 97 97 97 0
-4.706116 1.276235 32.557014 100 100 100 0
-4.637840 1.279404 32.637862 108 108 108 0
-4.589886 1.288389 32.867066 112 112 112 0
-4.510317 1.288662 32.874028 116 116 116 0
-4.445368 1.293198 32.989743 119 119 119 0
-4.375609 1.296477 33.073385 122 122 122 0
-4.716025 1.423706 36.319019 125 125 125 0
-4.222906 1.299356 33.146829 126 126 126 0
-4.556509 1.429493 36.466661 124 124 124 0
-4.472457 1.431186 36.509851 123 123 123 0
-4.387319 1.432594 36.545763 124 124 124 0
-4.306694 1.435565 36.621545 125 125 125 0
-4.226381 1.438768 36.703269 123 123 123 0
-4.140946 1.440329 36.743084 121 121 121 0
-4.062551 1.444462 36.848531 122 122 122 0
-3.981251 1.447728 36.931824 133 133 133 0
-3.903558 1.452487 37.053227 134 134 134 0
-3.820015 1.455244 37.123568 132 132 132 0
-3.731110 1.456043 37.143952 126 126 126 0
-3.586350 1.434540 36.595413 130 130 130 0
-3.487900 1.430933 36.503397 132 132 132 0
-3.401433 1.432183 36.535268 136 136 136 0
-3.315054 1.433537 36.569817 135 135 135 0
-3.224244 1.432998 36.556060 135 135 135 0
-3.133108 1.432278 36.537706 136 136 136 0
-3.047251 1.434001 36.581647 134 134 134 0
-2.965601 1.437867 36.680287 132 132 132 0
-2.871159 1.435580 36.621927 134 134 134 0
-2.784521 1.437172 36.662549 129 129 129 0
-2.704021 1.442145 36.789402 130 130 130 0
-2.618440 1.444657 36.853490 129 129 129 0
-2.527361 1.444206 36.842000 131 131 131 0
-2.447446 1.450339 36.998431 140 140 140 0
-2.362946 1.454120 37.094911 139 139 139 0
-2.270254 1.452963 37.065375 141 141 141 0
-2.190758 1.460505 37.257788 150 150 150 0
-2.075358 1.443727 36.829773 140 140 140 0
-1.965940 1.429774 36.473835 130 130 130 0
-1.860356 1.417414 36.158532 131 131 131 0
-1.765975 1.412780 36.040313 131 131 131 0
-1.676278 1.411602 36.010261 133 133 133 0
-1.580588 1.404968 35.841008 129 129 129 0
-1.485365 1.397990 35.663014 130 130 130 0
-1.390450 1.390450 35.470669 125 125 125 0
-1.308242 1.395458 35.598415 119 119 119 0
-1.226722 1.401968 35.764499 110 110 110 0
-1.146622 1.411227 36.000700 109 109 109 0
-1.067741 1.423655 36.317737 105 105 105 0
-0.877295 1.276065 32.552675 111 111 111 0
-0.898907 1.438251 36.690083 122 122 122 0
-0.810178 1.440316 36.742745 143 143 143 0
-0.642629 1.285259 32.787216 156 156 156 0
-0.630292 1.440669 36.751749 162 162 162 0
-0.540774 1.442063 36.787315 156 156 156 0
-0.449790 1.439329 36.717580 151 151 151 0
-0.360368 1.441474 36.772284 153 153 153 0
-0.269958 1.439774 36.728929 159 159 159 0
-0.180233 1.441862 36.782202 154 154 154 0
-0.090364 1.445822 36.883225 157 157 157 0
0.000000 1.446767 36.907334 153 153 153 0
0.090034 1.440547 36.748653 151 151 151 0
0.180044 1.440350 36.743621 151 151 151 0
0.269583 1.437776 36.677963 151 151 151 0
0.358195 1.432780 36.550509 153 153 153 0
0.447106 1.430738 36.498421 151 151 151 0
0.535963 1.429234 36.460060 147 147 147 0
0.623695 1.425589 36.367067 147 147 147 0
0.710594 1.421188 36.254807 147 147 147 0
0.800994 1.423989 36.326242 142 142 142 0
0.890553 1.424885 36.349100 134 134 134 0
0.979772 1.425123 36.355186 125 125 125 0
1.070031 1.426708 36.395624 116 116 116 0
1.163810 1.432382 36.540360 107 107 107 0
1.100371 1.257566 32.080778 104 104 104 0
1.183999 1.262932 32.217648 92 92 92 0
1.273782 1.273782 32.494428 81 81 81 0
1.358545 1.278631 32.618132 62 62 62 0
2.089429 1.519585 38.764917 110 110 110 0
2.192765 1.525402 38.913307 119 119 119 0
2.291316 1.527544 38.967967 118 118 118 0
2.396304 1.533635 39.123334 119 119 119 0
2.253168 1.386565 35.371562 120 120 120 0
2.363209 1.400420 35.725011 127 127 127 0
2.444684 1.396962 35.636792 141 141 141 0
2.524153 1.392636 35.526434 145 145 145 0
2.604468 1.389050 35.434942 146 146 146 0
2.681182 1.383836 35.301929 146 146 146 0
2.765186 1.382593 35.270227 145 145 145 0
2.843651 1.378740 35.171930 145 145 145 0
2.922052 1.375083 35.078654 145 145 145 0
3.003655 1.373099 35.028044 144 144 144 0
3.083460 1.370427 34.959864 150 150 150 0
3.163431 1.367970 34.897202 149 149 149 0
3.245663 1.366595 34.862114 149 149 149 0
3.327859 1.365276 34.828461 153 153 153 0
3.401396 1.360558 34.708120 151 151 151 0
3.491480 1.362529 34.758385 149 149 149 0
3.576380 1.362430 34.755877 147 147 147 0
3.653386 1.359399 34.678558 145 145 145 0
3.737596 1.359126 34.671576 142 142 142 0
3.829026 1.361432 34.730395 140 140 140 0
3.916945 1.362416 34.755505 138 138 138 0
3.995175 1.360060 34.695399 136 136 136 0
4.086630 1.362210 34.750255 132 132 132 0
4.179926 1.364874 34.818211 137 137 137 0
3.660919 1.171494 29.885051 140 140 140 0
4.347497 1.363921 34.793893 138 138 138 0
4.440541 1.366320 34.855113 127 127 127 0
4.319465 1.303989 33.265037 120 120 120 0
4.289538 1.270974 32.422808 115 115 115 0
4.486037 1.305029 33.291553 110 110 110 0
4.451041 1.271726 32.441992 101 101 101 0
4.651409 1.305659 33.307620 99 99 99 0
5.020891 1.385073 35.333504 94 94 94 0
5.068293 1.374452 35.062562 89 89 89 0
5.030770 1.341539 34.222928 83 83 83 0
5.387628 1.413148 36.049704 72 72 72 0
5.635453 1.454310 37.099756 74 74 74 0
7.635522 1.939180 49.468883 70 70 70 0
8.100856 2.025214 51.663624 72 72 72 0
8.413696 2.071064 52.833256 71 71 71 0
8.888776 2.154855 54.970788 76 76 76 0
7.952365 1.899072 48.445718 74 74 74 0
8.934354 2.102201 53.627573 74 74 74 0
7.886896 1.828845 46.654221 73 73 73 0
7.825038 1.788580 45.627046 70 70 70 0
9.555434 2.153337 54.932071 69 69 69 0
7.220475 1.604550 40.932398 72 72 72 0
9.479050 2.077600 53.000000 73 73 73 0
9.538870 2.062458 52.613732 78 78 78 0
9.371250 1.999200 51.000000 73 73 73 0
9.424272 1.984057 50.613708 74 74 74 0
9.704761 2.016574 51.443209 75 75 75 0
10.517118 2.157357 55.034630 71 71 71 0
10.634267 2.153776 54.943257 77 77 77 0
-6.833491 1.452117 34.864751 121 120 121 0
-6.752458 1.453061 34.887411 122 121 122 0
-6.665695 1.452780 34.880664 122 122 122 0
-6.579553 1.452629 34.877037 121 121 121 0
-6.499184 1.453765 34.904317 125 125 125 0
-6.409875 1.452905 34.883672 127 127 127 0
-6.320981 1.452117 34.864761 130 130 130 0
-6.231725 1.451224 34.843302 133 133 133 0
-6.148169 1.451651 34.853564 135 135 135 0
-6.059988 1.450983 34.837526 137 137 137 0
-5.969444 1.449722 34.807254 140 140 140 0
-5.877928 1.448185 34.770350 142 142 142 0
-5.799712 1.449928 34.812197 142 142 142 0
-5.719781 1.451288 34.844846 137 137 137 0
-5.637590 1.452107 34.864502 131 131 131 0
-5.562216 1.454734 34.927576 120 120 120 0
-5.019858 1.333400 32.014398 109 109 109 0
-4.955139 1.337101 32.103264 103 103 103 0
-4.893185 1.341680 32.213199 100 100 100 0
-4.811876 1.341015 32.197233 96 96 96 0
-4.771799 1.352010 32.461221 96 96 96 0
-4.712170 1.357744 32.598892 100 100 100 0
-4.643341 1.360979 32.676575 106 106 106 0
-4.581854 1.366518 32.809553 108 108 108 0
-4.511813 1.369658 32.884934 111 111 111 0
-4.449730 1.375371 33.022118 123 123 123 0
-4.368797 1.375362 33.021900 122 122 122 0
-4.295586 1.377829 33.081137 125 125 125 0
-4.642194 1.517640 36.437947 122 122 122 0
-4.553776 1.517925 36.444790 123 123 123 0
-4.471698 1.520377 36.503653 123 123 123 0
-4.398760 1.526100 36.641067 125 125 125 0
-4.312040 1.527181 36.667010 124 124 124 0
-3.854252 1.394091 33.471575 124 124 124 0
-4.145870 1.532169 36.786779 119 119 119 0
-4.067910 1.536766 36.897140 118 118 118 0
-3.984674 1.539533 36.963583 123 123 123 0
-3.910794 1.546128 37.121919 124 124 124 0
-3.827110 1.549068 37.192515 119 119 119 0
-3.748669 1.554326 37.318758 110 110 110 0
-3.607796 1.533313 36.814248 108 108 108 0
-3.496735 1.524218 36.595868 127 127 127 0
-3.407916 1.524594 36.604893 133 133 133 0
-3.322577 1.526589 36.652804 138 138 138 0
-3.227754 1.524217 36.595855 139 139 139 0
-3.136020 1.523210 36.571663 136 136 136 0
-3.050582 1.525291 36.621634 135 135 135 0
-2.966347 1.528118 36.689507 129 129 129 0
-2.876365 1.528069 36.688331 129 129 129 0
-2.792787 1.531529 36.771394 126 126 126 0
-2.701014 1.530575 36.748494 129 129 129 0
-2.619029 1.535293 36.861770 135 135 135 0
-2.541376 1.542978 37.046294 137 137 137 0
-2.453999 1.545110 37.097491 147 147 147 0
-2.370480 1.549929 37.213181 157 157 157 0
-2.284539 1.553487 37.298603 165 165 165 0
-2.199812 1.558200 37.411765 172 172 172 0
-2.105270 1.556069 37.360603 160 160 160 0
-2.007274 1.551076 37.240712 160 160 160 0
-1.908585 1.545045 37.095910 154 154 154 0
-1.813934 1.541843 37.019051 152 152 152 0
-1.716112 1.535469 36.865999 150 150 150 0
-1.621895 1.531789 36.777657 139 139 139 0
-1.517539 1.517539 36.435507 139 139 139 0
-1.428265 1.517532 36.435334 137 137 137 0
-1.341984 1.520915 36.516573 135 135 135 0
-1.255789 1.524887 36.611928 133 133 133 0
-1.169673 1.529572 36.724420 128 128 128 0
-1.080280 1.530397 36.744233 145 145 145 0
-0.990946 1.531462 36.769786 151 151 151 0
-0.901218 1.532071 36.784421 152 152 152 0
-0.810174 1.530328 36.742567 155 155 155 0
-0.721596 1.533392 36.816126 157 157 157 0
-0.631009 1.532449 36.793502 155 155 155 0
-0.540962 1.532727 36.800158 158 158 158 0
-0.449707 1.529005 36.710799 154 154 154 0
-0.360272 1.531155 36.762436 154 154 154 0
-0.269634 1.527928 36.684952 150 150 150 0
-0.179760 1.527963 36.685781 149 149 149 0
-0.090208 1.533542 36.819743 156 156 156 0
0.000000 1.535349 36.863131 156 156 156 0
0.090307 1.535217 36.859945 160 160 160 0
0.180197 1.531673 36.774856 156 156 156 0
0.270349 1.531976 36.782132 155 155 155 0
0.359104 1.526190 36.643214 151 151 151 0
0.447593 1.521815 36.538167 148 148 148 0
0.537281 1.522296 36.549735 149 149 149 0
0.624196 1.515904 36.396266 148 148 148 0
0.712709 1.514506 36.362688 144 144 144 0
0.802852 1.516498 36.410514 141 141 141 0
0.892640 1.517487 36.434270 131 131 131 0
0.980318 1.515037 36.375446 125 125 125 0
1.071670 1.518199 36.451367 118 118 118 0
1.165076 1.523561 36.580084 113 113 113 0
1.102671 1.338958 32.147846 105 105 105 0
1.356357 1.537205 36.907683 94 94 94 0
1.272951 1.352511 32.473243 81 81 81 0
2.095098 1.618940 38.870102 108 108 108 0
2.194583 1.622083 38.945573 119 119 119 0
2.292436 1.623809 38.987002 115 115 115 0
2.396268 1.629462 39.122744 118 118 118 0
2.503743 1.637063 39.305223 119 119 119 0
2.359670 1.485718 35.671502 122 122 122 0
2.450049 1.487530 35.715005 126 126 126 0
2.528947 1.482486 35.593906 140 140 140 0
2.604513 1.475890 35.435544 145 145 145 0
2.676782 1.467913 35.244006 146 146 146 0
2.766050 1.469464 35.281251 144 144 144 0
2.843758 1.464966 35.173262 144 144 144 0
2.922007 1.461004 35.078121 144 144 144 0
3.001800 1.458017 35.006414 147 147 147 0
3.079739 1.454321 34.917679 148 148 148 0
3.161698 1.452672 34.878078 147 147 147 0
3.243773 1.451162 34.841816 149 149 149 0
3.323211 1.448579 34.779811 149 149 149 0
3.400635 1.445270 34.700359 151 151 151 0
3.489539 1.446882 34.739064 151 151 151 0
3.571735 1.445702 34.710734 149 149 149 0
3.649552 1.442846 34.642165 147 147 147 0
3.734204 1.442761 34.640113 143 143 143 0
3.826866 1.445705 34.710802 141 141 141 0
3.913361 1.446242 34.723701 136 136 136 0
3.993781 1.444559 34.683292 136 136 136 0
4.082738 1.445970 34.717160 136 136 136 0
4.175105 1.448506 34.778048 136 136 136 0
4.265437 1.450249 34.819898 137 137 137 0
4.342925 1.447642 34.757302 133 133 133 0
4.437609 1.450757 34.832099 121 121 121 0
4.528080 1.452403 34.871623 115 115 115 0
4.621714 1.454984 34.933594 109 109 109 0
4.254826 1.315128 31.575701 102 102 102 0
4.826266 1.465117 35.176867 95 95 95 0
4.772477 1.423370 34.174555 94 94 94 0
4.738361 1.388830 33.345260 88 88 88 0
5.071931 1.461404 35.087725 80 80 80 0
5.035984 1.426862 34.258396 71 71 71 0
6.533828 1.820903 43.719154 72 72 72 0
7.256722 1.989746 47.773019 73 73 73 0
7.543793 2.035627 48.874587 76 76 76 0
8.106335 2.153245 51.698566 74 74 74 0
7.500597 1.961695 47.099509 73 73 73 0
8.422385 2.169402 52.086485 68 68 68 0
8.306788 2.107693 50.604864 76 76 76 0
8.008992 2.002248 48.073179 73 73 73 0
7.961200 1.961455 47.093762 70 70 70 0
8.111241 1.969873 47.295866 76 76 76 0
6.954510 1.665164 39.979939 73 73 73 0
8.403207 1.984091 47.637230 73 73 73 0
8.920458 2.077367 49.876756 74 74 74 0
9.954739 2.286899 54.907550 71 71 71 0
8.732533 1.979374 47.523987 75 75 75 0
10.224553 2.287071 54.911669 73 73 73 0
9.254583 2.043220 49.056892 71 71 71 0
8.847157 1.928227 46.295957 71 71 71 0
9.447442 2.032994 48.811377 82 82 82 0
-6.815598 1.533510 34.773459 123 123 123 0
-6.732507 1.533989 34.784329 125 125 125 0
-6.650461 1.534722 34.800949 126 125 125 0
-6.559262 1.533334 34.769477 127 127 127 0
-6.478880 1.534471 34.795272 129 128 129 0
-6.395713 1.534971 34.806601 130 130 130 0
-6.307162 1.534174 34.788536 132 131 131 0
-6.215978 1.532707 34.755257 134 134 134 0
-6.138400 1.534600 34.798184 138 138 138 0
-6.048729 1.533481 34.772805 141 141 141 0
-5.960577 1.532720 34.755554 143 143 143 0
-5.873882 1.532317 34.746418 144 144 144 0
-5.796960 1.534490 34.795680 141 141 141 0
-5.718373 1.536279 34.836268 132 132 132 0
-5.639993 1.538180 34.879364 128 128 128 0
-5.562021 1.540252 34.926350 119 119 119 0
-5.023353 1.412818 32.036692 108 108 108 0
-4.947721 1.413634 32.055204 100 100 100 0
-4.899434 1.422416 32.254337 104 104 104 0
-4.819904 1.422267 32.250950 95 94 95 0
-4.772355 1.431707 32.465002 94 94 94 0
-4.694434 1.432200 32.476195 98 98 98 0
-4.653173 1.444088 32.745767 106 106 106 0
-4.587020 1.448532 32.846542 111 111 111 0
-4.520920 1.453153 32.951313 114 114 114 0
-4.448470 1.455863 33.012767 117 117 117 0
-4.380585 1.460195 33.110997 126 126 126 0
-4.302250 1.461142 33.132463 120 120 120 0
-4.229605 1.464094 33.199412 122 122 122 0
