ply
format ascii 1.0
element vertex 1125
property float x
property float y
property float z
property uchar red
property uchar green
property uchar blue
property uchar alpha
end_header
-5.910119 4.643665 34.461335 153 153 153 0
-5.831310 4.648145 34.494586 155 155 155 0
-5.743260 4.645284 34.473348 153 153 153 0
-5.656644 4.643514 34.460215 158 158 158 0
-5.569795 4.641495 34.445235 156 156 156 0
-5.491822 4.646926 34.485540 154 154 154 0
-5.399911 4.640549 34.438210 153 153 153 0
-5.309392 4.635184 34.398394 151 151 151 0
-5.232462 4.641700 34.446752 152 152 152 0
-5.146249 4.640061 34.434589 155 155 155 0
-5.056975 4.635561 34.401192 154 154 154 0
-4.970124 4.633166 34.383422 157 157 157 0
-4.891457 4.638450 34.422638 155 155 155 0
-4.802010 4.633518 34.386035 155 155 155 0
-4.711672 4.627535 34.341634 157 157 157 0
-4.628370 4.628370 34.347831 159 159 159 0
-4.551431 4.635716 34.402348 160 160 160 0
-4.457815 4.626035 34.330500 156 156 156 0
-4.371945 4.624173 34.316682 156 156 156 0
-4.291169 4.627732 34.343092 151 151 151 0
-4.208355 4.629190 34.353917 141 141 141 0
-4.120012 4.624504 34.319136 138 138 138 0
-4.034673 4.623063 34.308442 132 132 132 0
-3.943120 4.614289 34.243333 125 125 125 0
-3.851459 4.605005 34.174433 126 126 126 0
-3.759495 4.594938 34.099724 125 125 125 0
-3.672292 4.590366 34.065792 122 122 122 0
-3.579829 4.578851 33.980344 119 119 119 0
-3.494513 4.576147 33.960278 116 116 116 0
-3.408491 4.572366 33.932213 114 114 114 0
-3.329525 4.578096 33.974741 112 112 112 0
-3.251275 4.585132 34.026951 117 117 117 0
-3.168409 4.585855 34.032319 111 111 111 0
-3.091904 4.596073 34.108148 107 107 107 0
-3.017089 4.609441 34.207358 110 110 110 0
-2.934317 4.611070 34.219446 106 106 106 0
-2.857022 4.621653 34.297985 104 104 104 0
-2.781606 4.636011 34.404531 107 107 107 0
-2.703310 4.646314 34.480996 103 103 103 0
-2.630297 4.666656 34.631955 107 107 107 0
-2.549725 4.674496 34.690134 109 109 109 0
-2.464370 4.673805 34.685007 108 108 108 0
-2.387587 4.689902 34.804468 111 111 111 0
-2.310279 4.706123 34.924850 120 120 120 0
-2.231818 4.721154 35.036391 130 130 130 0
-2.151091 4.732400 35.119855 144 144 144 0
-2.070396 4.744657 35.210812 149 149 149 0
-1.982864 4.741631 35.188355 152 152 152 0
-1.898380 4.745950 35.220409 162 162 162 0
-1.809766 4.739864 35.175241 158 158 158 0
-1.725190 4.744272 35.207959 157 157 157 0
-1.636762 4.737995 35.161374 154 154 154 0
-1.550388 4.737297 35.156196 158 158 158 0
-1.466236 4.743704 35.203741 153 153 153 0
-1.380377 4.745046 35.213700 155 155 155 0
-1.292234 4.738193 35.162841 158 158 158 0
-1.205429 4.735612 35.143689 155 155 155 0
-1.121119 4.743195 35.199961 150 150 150 0
-1.035788 4.747362 35.230888 154 154 154 0
-0.947788 4.738942 35.168399 149 149 149 0
-0.862591 4.744248 35.207780 149 149 149 0
-0.776751 4.746811 35.226795 150 150 150 0
-0.690644 4.748175 35.236917 152 152 152 0
-0.603400 4.740997 35.183650 146 146 146 0
-0.517759 4.746124 35.221697 143 143 143 0
-0.431919 4.751111 35.258706 139 139 139 0
-0.345838 4.755272 35.289587 137 136 137 0
-0.259224 4.752433 35.268518 133 133 133 0
-0.173093 4.760047 35.325025 129 129 129 0
-0.086776 4.772685 35.418811 126 126 126 0
0.000000 4.771625 35.410950 128 128 128 0
0.086777 4.772758 35.419352 128 128 128 0
0.173867 4.781330 35.482972 129 129 129 0
0.261524 4.794604 35.581476 128 128 128 0
0.348457 4.791286 35.556855 126 126 126 0
0.435490 4.790395 35.550241 125 125 125 0
0.524055 4.803835 35.649980 120 120 120 0
0.612678 4.813899 35.724668 116 116 116 0
0.701350 4.821784 35.783187 115 115 115 0
0.789293 4.823456 35.795595 115 115 115 0
0.879227 4.835748 35.886815 114 114 114 0
0.968212 4.841058 35.926216 116 116 116 0
1.058460 4.851276 36.002047 117 117 117 0
1.149883 4.864888 36.103066 116 116 116 0
1.240264 4.872466 36.159306 117 117 117 0
1.329564 4.875067 36.178608 119 119 119 0
1.420742 4.883802 36.243427 118 118 118 0
1.513692 4.897240 36.343154 121 121 121 0
1.605500 4.905695 36.405898 123 123 123 0
1.693121 4.901140 36.372095 126 126 126 0
1.786356 4.912478 36.456239 128 128 128 0
1.880193 4.924315 36.544081 130 130 130 0
1.967997 4.919993 36.512005 133 133 133 0
2.056822 4.918489 36.500843 133 133 133 0
2.150928 4.929209 36.580401 134 134 134 0
2.245503 4.940107 36.661275 136 136 136 0
2.332270 4.933649 36.613351 134 134 134 0
2.422784 4.935301 36.625613 134 134 134 0
2.517388 4.944870 36.696624 135 135 135 0
2.609924 4.949855 36.733621 135 135 135 0
2.693592 4.938252 36.647513 135 135 135 0
2.787538 4.945633 36.702282 136 136 136 0
2.882011 4.953457 36.760350 136 136 136 0
2.971725 4.952876 36.756034 137 137 137 0
3.060570 4.950922 36.741537 137 137 137 0
3.153311 4.955203 36.773307 135 135 135 0
3.245973 4.959125 36.802410 136 136 136 0
3.332127 4.953161 36.758156 136 136 136 0
3.419707 4.949576 36.731548 134 134 134 0
3.518365 4.961797 36.822241 135 135 135 0
3.606947 4.959553 36.805586 134 134 134 0
3.697326 4.959827 36.807624 133 133 133 0
3.784422 4.955790 36.777664 133 133 133 0
3.879449 4.962085 36.824381 132 132 132 0
3.969853 4.962316 36.826095 131 131 131 0
4.059122 4.961149 36.817429 131 131 131 0
4.148902 4.960644 36.813684 132 132 132 0
4.243430 4.965716 36.851326 130 130 130 0
4.332174 4.963949 36.838213 132 132 132 0
4.424982 4.966816 36.859488 130 130 130 0
4.517051 4.968756 36.873882 128 128 128 0
4.607616 4.968998 36.875679 125 125 125 0
4.697950 4.968985 36.875585 125 125 125 0
4.790101 4.970859 36.889495 126 126 126 0
4.884917 4.975378 36.923030 124 124 124 0
4.972125 4.972125 36.898885 123 123 123 0
5.062751 4.972345 36.900518 121 121 121 0
5.165520 4.984274 36.989047 121 121 121 0
5.255498 4.983662 36.984502 121 121 121 0
5.345976 4.983537 36.983579 120 120 120 0
5.445596 4.991797 37.044873 119 119 119 0
5.539378 4.994521 37.065091 117 117 117 0
5.635423 4.999166 37.099559 118 118 118 0
5.731189 5.003419 37.131126 118 118 118 0
5.825338 5.006150 37.151392 117 117 117 0
5.919858 5.009111 37.173363 116 116 116 0
6.010093 5.008411 37.168169 116 116 116 0
6.223310 5.108687 37.912336 117 117 117 0
6.170385 4.990753 37.037128 117 117 117 0
6.299270 5.021157 37.262763 115 115 115 0
6.351979 4.990841 37.037780 116 116 116 0
6.903323 5.347645 39.685676 116 116 116 0
7.159287 5.468900 40.585529 115 115 115 0
7.417835 5.588780 41.475174 115 115 115 0
7.360531 5.470665 40.598627 116 116 116 0
7.625678 5.592164 41.500287 116 116 116 0
7.894450 5.713089 42.397689 118 118 118 0
8.168310 5.834507 43.298753 117 117 117 0
8.447598 5.956639 44.205116 120 120 120 0
8.558457 5.958419 44.218326 121 121 121 0
-6.760963 4.732674 34.494710 146 146 146 0
-6.674997 4.731644 34.487199 148 148 148 0
-6.584663 4.727451 34.456637 154 154 154 0
-6.506911 4.732299 34.491975 153 153 153 0
-6.428968 4.737134 34.527219 154 154 154 0
-6.339804 4.733720 34.502332 152 152 152 0
-6.252201 4.731395 34.485388 153 153 153 0
-6.174245 4.736407 34.521917 155 155 155 0
-6.092735 4.738794 34.539312 151 151 151 0
-6.004570 4.735999 34.518942 151 151 151 0
-5.913561 4.730849 34.481404 155 155 155 0
-5.837269 4.737493 34.529835 151 151 151 0
-5.746978 4.732805 34.495666 156 156 156 0
-5.656109 4.727494 34.456952 156 156 156 0
-5.571870 4.727647 34.458069 154 154 154 0
-5.497203 4.736052 34.519331 156 156 156 0
-5.402245 4.726964 34.453090 155 155 155 0
-5.311789 4.721590 34.413920 154 154 154 0
-5.234358 4.727807 34.459238 152 152 152 0
-5.149405 4.727323 34.455705 155 155 155 0
-5.057444 4.720281 34.404383 155 155 155 0
-4.973148 4.720276 34.404345 155 155 155 0
-4.893493 4.724752 34.436968 155 155 155 0
-4.803792 4.719514 34.398794 155 155 155 0
-4.714552 4.714552 34.362625 156 156 156 0
-4.630762 4.714958 34.365582 158 158 158 0
-4.552761 4.721381 34.412400 158 158 158 0
-4.461539 4.714079 34.359175 155 155 155 0
-4.373519 4.709943 34.329034 158 158 158 0
-4.292550 4.713388 34.354142 151 151 151 0
-4.212482 4.717980 34.387606 147 147 147 0
-4.124936 4.714213 34.360153 142 142 142 0
-4.044446 4.718520 34.391544 136 136 136 0
-3.962291 4.721028 34.409823 133 133 133 0
-3.878204 4.721292 34.411749 128 128 128 0
-3.786020 4.711492 34.340318 126 126 126 0
-3.697793 4.706282 34.302344 120 120 120 0
-3.610966 4.702653 34.275895 117 117 117 0
-3.532017 4.709356 34.324755 119 119 119 0
-3.440635 4.699404 34.252214 116 116 116 0
-3.357803 4.700925 34.263298 111 111 111 0
-3.274985 4.702543 34.275096 112 112 112 0
-3.189281 4.699993 34.256512 110 110 110 0
-3.107807 4.703707 34.283581 109 109 109 0
-3.032579 4.717346 34.382987 109 109 109 0
-2.955330 4.728528 34.464487 108 108 108 0
-2.876915 4.738449 34.536800 112 112 112 0
-2.795524 4.743920 34.576674 110 110 110 0
-2.719234 4.758659 34.684104 109 109 109 0
-2.640133 4.769273 34.761463 116 116 116 0
-2.564766 4.787564 34.894780 118 118 118 0
-2.482847 4.794463 34.945068 123 123 123 0
-2.404535 4.809070 35.051528 130 130 130 0
-2.322918 4.817905 35.115922 141 141 141 0
-2.239853 4.824298 35.162524 153 153 153 0
-2.153311 4.823418 35.156105 158 158 158 0
-2.069527 4.828896 35.196034 157 157 157 0
-1.980906 4.823076 35.153616 155 155 155 0
-1.895472 4.824838 35.166456 155 155 155 0
-1.808146 4.821722 35.143744 154 154 154 0
-1.724165 4.827661 35.187032 154 154 154 0
-1.636724 4.824029 35.160559 155 155 155 0
-1.549298 4.820037 35.131465 155 155 155 0
-1.464767 4.825113 35.168464 152 152 152 0
-1.380046 4.830162 35.205262 157 157 157 0
-1.291298 4.820845 35.137358 162 162 162 0
-1.206415 4.825662 35.172461 150 150 150 0
-1.120659 4.827456 35.185540 148 148 148 0
-1.035204 4.830952 35.211023 152 152 152 0
-0.948068 4.826527 35.178770 151 151 151 0
-0.862370 4.829275 35.198795 151 151 151 0
-0.776262 4.830076 35.204636 151 151 151 0
-0.689952 4.829661 35.201612 148 148 148 0
-0.603301 4.826404 35.177872 143 143 143 0
-0.517872 4.833473 35.229392 139 139 139 0
-0.432058 4.839055 35.270079 136 136 136 0
-0.345815 4.841407 35.287226 131 131 131 0
-0.259344 4.841088 35.284901 129 129 129 0
-0.173171 4.848795 35.341071 125 125 125 0
-0.086833 4.862675 35.442234 125 125 125 0
0.000000 4.862642 35.441996 127 127 127 0
0.086891 4.865896 35.465712 129 129 129 0
0.174024 4.872676 35.515130 128 128 128 0
0.261619 4.883562 35.594476 127 127 127 0
0.349034 4.886470 35.615670 124 124 124 0
0.436338 4.886986 35.619430 122 122 122 0
0.524867 4.898763 35.705268 118 118 118 0
0.613489 4.907908 35.771926 117 117 117 0
0.701935 4.913542 35.812990 115 115 115 0
0.790211 4.916869 35.837236 115 115 115 0
0.880371 4.930078 35.933512 116 116 116 0
0.969971 4.938033 35.991494 115 115 115 0
1.059417 4.943944 36.034575 116 116 116 0
1.151392 4.959844 36.150470 116 116 116 0
1.242263 4.969051 36.217571 119 119 119 0
1.331296 4.970172 36.225744 117 117 117 0
1.422817 4.979859 36.296351 120 120 120 0
1.514859 4.990123 36.371155 122 122 122 0
1.607143 5.000000 36.443148 125 125 125 0
1.694988 4.995755 36.412209 129 129 129 0
1.789405 5.010333 36.518465 130 130 130 0
1.881616 5.017642 36.571735 131 131 131 0
1.969807 5.014054 36.545585 133 133 133 0
2.059316 5.013987 36.545097 132 132 132 0
2.153164 5.024050 36.618440 135 135 135 0
2.246756 5.032732 36.681723 135 135 135 0
2.332925 5.024761 36.623625 134 134 134 0
2.424766 5.029145 36.655576 135 135 135 0
2.516734 5.033468 36.687081 136 136 136 0
2.610860 5.041660 36.746796 135 135 135 0
2.695743 5.032053 36.676771 136 136 136 0
2.787428 5.035353 36.700825 137 137 137 0
2.883613 5.046323 36.780777 137 137 137 0
2.973380 5.045735 36.776494 136 136 136 0
3.060419 5.040691 36.739730 138 138 138 0
3.155164 5.048262 36.794916 137 137 137 0
3.247044 5.050957 36.814558 135 135 135 0
3.337439 5.051259 36.816756 136 136 136 0
3.425291 5.047798 36.791529 136 136 136 0
3.522476 5.057914 36.865260 134 134 134 0
3.613436 5.058811 36.871801 133 133 133 0
3.697821 5.050683 36.812558 135 135 135 0
3.788252 5.051002 36.814886 133 133 133 0
3.885154 5.059736 36.878541 133 133 133 0
3.971211 5.054269 36.838696 132 132 132 0
4.063499 5.056799 36.857135 130 130 130 0
4.152233 5.054892 36.843239 129 129 129 0
4.249941 5.063760 36.907868 129 129 129 0
4.339551 5.062810 36.900945 131 131 131 0
4.429636 5.062442 36.898262 129 129 129 0
4.522683 5.065405 36.919863 125 125 125 0
4.615844 5.068378 36.941529 124 124 124 0
4.703915 5.065755 36.922410 124 124 124 0
4.795826 5.067288 36.933583 125 125 125 0
4.891407 5.072570 36.972086 123 123 123 0
4.983987 5.074605 36.986916 124 124 124 0
5.078225 5.078225 37.013299 121 121 121 0
5.173187 5.082429 37.043943 122 122 122 0
5.266481 5.084878 37.061796 120 120 120 0
5.361007 5.088414 37.087563 119 119 119 0
5.459642 5.095666 37.140422 117 117 117 0
5.553209 5.098028 37.157638 118 118 118 0
5.643181 5.097067 37.150631 118 118 118 0
5.743645 5.105462 37.211822 118 118 118 0
5.805904 5.080166 37.027448 117 117 117 0
5.934068 5.112427 37.262591 118 118 118 0
6.272068 5.321755 38.788302 117 117 117 0
6.224504 5.202571 37.919611 115 115 115 0
6.317876 5.202957 37.922424 117 117 117 0
6.558974 5.323225 38.799017 116 116 116 0
6.807657 5.446126 39.694792 116 116 116 0
6.906834 5.447644 39.705860 118 118 118 0
6.615000 5.145000 37.500000 118 118 118 0
7.419837 5.691929 41.486367 118 118 118 0
7.361858 5.571136 40.605947 118 118 118 0
7.626319 5.694318 41.503776 121 121 121 0
7.563363 5.573004 40.619563 120 120 120 0
8.001124 5.818999 42.412532 118 118 118 0
6.916257 4.965518 36.191824 119 119 119 0
8.735625 6.192342 45.133686 119 119 119 0
-6.760459 4.816827 34.492137 145 145 145 0
-6.673734 4.815226 34.480674 151 151 151 0
-6.590861 4.816398 34.489067 149 149 149 0
-6.511518 4.820214 34.516393 149 149 149 0
-6.428770 4.821578 34.526155 150 150 150 0
-6.345575 4.822637 34.533744 148 148 148 0
-6.256225 4.818984 34.507581 149 149 149 0
-6.178471 4.824286 34.545549 149 149 149 0
-6.094425 4.824753 34.548893 152 152 152 0
-6.010118 4.825024 34.550835 151 151 151 0
-5.921119 4.821483 34.525476 155 155 155 0
-5.842233 4.826192 34.559201 152 152 152 0
-5.752540 4.821982 34.529050 153 153 153 0
-5.657680 4.813250 34.466524 155 155 155 0
-5.573331 4.813332 34.467108 155 155 155 0
-5.495511 4.819140 34.508701 153 153 153 0
-5.404588 4.813461 34.468037 154 154 154 0
-5.317091 4.810701 34.448273 151 151 151 0
-5.234368 4.812242 34.459304 154 154 154 0
-5.153659 4.815714 34.484171 153 153 153 0
-5.061769 4.808680 34.433801 151 151 151 0
-4.975179 4.806529 34.418395 154 154 154 0
-4.894411 4.810025 34.443429 155 155 155 0
-4.810598 4.810598 34.447532 152 152 152 0
-4.716482 4.800705 34.376691 156 156 156 0
-4.630704 4.799093 34.365147 156 156 156 0
-4.553358 4.806322 34.416913 157 157 157 0
-4.464222 4.801145 34.379841 158 158 158 0
-4.374920 4.795586 34.340034 156 156 156 0
-4.292641 4.797657 34.354868 152 152 152 0
-4.213654 4.803566 34.397177 149 149 149 0
-4.125403 4.798938 34.364036 143 143 143 0
-4.044306 4.802614 34.390360 144 144 144 0
-3.969749 4.814376 34.474589 134 134 134 0
-3.888561 4.818435 34.503650 125 125 125 0
-3.806251 4.821251 34.523816 132 132 132 0
-3.728894 4.830612 34.590852 135 135 135 0
-3.640755 4.826117 34.558660 124 124 124 0
-3.561431 4.833371 34.610605 126 126 126 0
-3.469620 4.823617 34.540762 120 119 120 0
-3.381899 4.819206 34.509172 120 120 120 0
-3.300774 4.824208 34.544989 115 115 115 0
-3.222502 4.833754 34.613346 116 116 116 0
-3.136538 4.831963 34.600524 118 118 118 0
-3.054654 4.836535 34.633262 117 117 117 0
-2.979145 4.851751 34.742220 114 114 114 0
-2.901027 4.863486 34.826251 116 116 116 0
-2.821744 4.873922 34.900981 127 127 127 0
-2.745661 4.890708 35.021183 137 137 137 0
-2.661702 4.894098 35.045454 136 136 136 0
-2.574258 4.891090 35.023918 134 134 134 0
-2.490623 4.895363 35.054515 141 141 141 0
-2.410752 4.907602 35.142157 146 146 146 0
-2.323672 4.905529 35.127315 152 152 152 0
-2.238929 4.908421 35.148019 154 154 154 0
-2.152757 4.908286 35.147056 154 154 154 0
-2.067402 4.910080 35.159902 155 155 155 0
-1.981043 4.909540 35.156036 156 156 156 0
-1.894943 4.909625 35.156639 156 156 156 0
-1.807358 4.905687 35.128440 151 151 151 0
-1.723674 4.912470 35.177014 153 153 153 0
-1.635302 4.905907 35.130021 151 151 151 0
-1.549298 4.906109 35.131465 152 152 152 0
-1.463801 4.908040 35.145293 153 153 153 0
-1.379655 4.915023 35.195292 153 153 153 0
-1.290867 4.905295 35.125638 159 159 159 0
-1.206189 4.910914 35.165870 148 148 148 0
-1.120291 4.912044 35.173965 147 147 147 0
-1.034853 4.915553 35.199089 149 149 149 0
-0.947464 4.909586 35.156365 150 150 150 0
-0.861757 4.912018 35.173775 151 151 151 0
-0.776378 4.917062 35.209900 144 144 144 0
-0.690218 4.917804 35.215207 142 142 142 0
-0.603485 4.914094 35.188646 137 137 137 0
-0.517835 4.919431 35.226857 133 133 133 0
-0.432348 4.928766 35.293706 132 132 132 0
-0.346298 4.934745 35.336522 132 132 132 0
-0.259628 4.932934 35.323550 127 127 127 0
-0.173451 4.943366 35.398249 126 126 126 0
-0.086906 4.953630 35.471751 124 124 124 0
0.000000 4.953389 35.470028 126 126 126 0
0.086939 4.955516 35.485256 127 127 127 0
0.174308 4.967783 35.573098 128 128 128 0
0.261926 4.976590 35.636160 124 124 124 0
0.349234 4.976578 35.636076 122 122 122 0
0.436562 4.976812 35.637753 119 119 119 0
0.525635 4.993534 35.757495 117 117 117 0
0.614120 5.000689 35.808726 115 115 115 0
0.703248 5.010644 35.880013 115 115 115 0
0.792320 5.018026 35.932873 116 116 116 0
0.882431 5.029859 36.017611 114 114 114 0
0.971812 5.035753 36.059813 115 115 115 0
1.062758 5.048102 36.148244 117 117 117 0
1.152120 5.051605 36.173324 116 116 116 0
1.243901 5.064453 36.265330 118 118 118 0
1.332644 5.064048 36.262427 119 119 119 0
1.424774 5.075758 36.346280 123 123 123 0
1.517081 5.086685 36.424524 122 122 122 0
1.608294 5.092932 36.469257 128 128 128 0
1.696817 5.090452 36.451501 131 131 131 0
1.787903 5.095524 36.487822 133 133 133 0
1.883588 5.112595 36.610062 132 132 132 0
1.970769 5.106084 36.563440 135 135 135 0
2.060497 5.106450 36.566060 134 134 134 0
2.153741 5.115135 36.628247 136 136 136 0
2.248080 5.125622 36.703346 132 132 132 0
2.331788 5.111996 36.605773 134 134 134 0
2.424959 5.119358 36.658489 135 135 135 0
2.518495 5.126936 36.712752 137 137 137 0
2.612240 5.134402 36.766216 134 134 134 0
2.698776 5.127675 36.718046 136 136 136 0
2.789518 5.129115 36.728353 138 138 138 0
2.883100 5.135521 36.774231 137 137 137 0
2.975911 5.140211 36.807811 138 138 138 0
3.062107 5.133533 36.759991 136 136 136 0
3.157437 5.142112 36.821423 136 136 136 0
3.249144 5.144478 36.838370 135 135 135 0
3.338338 5.142845 36.826671 136 136 136 0
3.426575 5.139863 36.805317 135 135 135 0
3.521853 5.147324 36.858744 133 133 133 0
3.612915 5.148404 36.866478 135 135 135 0
3.706616 5.153100 36.900106 132 132 132 0
3.795493 5.151026 36.885256 132 132 132 0
3.889588 5.155966 36.920629 130 130 130 0
3.981014 5.157222 36.929627 128 128 128 0
4.070901 5.156475 36.924275 129 129 129 0
4.160330 5.155191 36.915082 129 129 129 0
4.254124 5.159256 36.944190 128 128 128 0
4.343436 5.157830 36.933977 127 127 127 0
4.438870 5.163584 36.975178 128 128 128 0
4.528745 5.162769 36.969344 126 125 126 0
4.622578 5.166410 36.995420 125 125 125 0
4.716114 5.169587 37.018163 125 125 125 0
4.807356 5.170175 37.022380 126 126 126 0
4.900116 5.172345 37.037917 124 124 124 0
4.986238 5.167556 37.003620 123 123 123 0
5.088015 5.178872 37.084658 122 122 122 0
5.182668 5.182668 37.111836 120 120 120 0
5.273305 5.182386 37.109818 119 119 119 0
5.365059 5.183193 37.115593 119 119 119 0
5.468563 5.195134 37.201106 121 121 121 0
5.565025 5.200105 37.236700 118 118 118 0
5.657890 5.201609 37.247469 119 119 119 0
5.582695 5.051009 36.169061 119 119 119 0
5.855964 5.215468 37.346706 118 118 118 0
5.934975 5.204517 37.268291 120 120 120 0
6.039968 5.216336 37.352926 117 117 117 0
6.226401 5.297088 37.931169 117 117 117 0
6.612977 5.543231 39.693742 116 116 116 0
6.560960 5.419924 38.810769 118 117 118 0
6.809843 5.545158 39.707540 117 117 117 0
6.907396 5.545374 39.709086 117 117 117 0
6.850971 5.423685 38.837702 117 117 117 0
6.628483 5.175665 37.061688 120 120 120 0
7.363820 5.672131 40.616766 120 120 120 0
7.629032 5.798064 41.518540 120 120 120 0
7.730787 5.798090 41.518728 122 122 122 0
8.170723 6.048457 43.311547 120 120 120 0
6.917452 5.055061 36.198076 120 120 120 0
5.855064 4.224540 30.250913 123 123 123 0
-6.766893 4.905997 34.524962 150 150 150 0
-6.681895 4.905695 34.522834 152 152 152 0
-6.590051 4.900295 34.484832 150 150 150 0
-6.512522 4.905536 34.521717 151 151 151 0
-6.433872 4.910061 34.553558 148 148 148 0
-6.350440 4.911007 34.560216 148 148 148 0
-6.258641 4.905421 34.520908 150 150 150 0
-6.178649 4.909064 34.546542 151 151 151 0
-6.096992 4.911466 34.563446 150 150 150 0
-6.010385 4.909892 34.552373 150 150 150 0
-5.920153 4.905270 34.519844 152 152 152 0
-5.841854 4.910544 34.556959 154 154 154 0
-5.755004 4.908680 34.543841 154 154 154 0
-5.661716 4.901187 34.491114 152 152 152 0
-5.577830 4.901729 34.494926 151 151 151 0
-5.493430 4.901830 34.495637 153 153 153 0
-5.410346 4.903126 34.504759 150 150 150 0
-5.320062 4.897835 34.467520 152 151 152 0
-5.239259 4.901243 34.491504 151 151 151 0
-5.154865 4.901347 34.492239 151 151 151 0
-5.063814 4.895020 34.447713 151 151 151 0
-4.979172 4.894779 34.446018 152 152 152 0
-4.897118 4.897118 34.462479 153 153 153 0
-4.812468 4.896897 34.460925 153 153 153 0
-4.720174 4.888752 34.403600 151 151 151 0
-4.638719 4.891740 34.424631 153 153 153 0
-4.556057 4.893542 34.437315 154 154 154 0
-4.463031 4.884072 34.370667 157 157 157 0
-4.376984 4.882021 34.356236 155 155 155 0
-4.296536 4.886256 34.386039 155 155 155 0
-4.213029 4.887113 34.392072 153 153 153 0
-4.124388 4.881929 34.355589 151 151 151 0
-4.042086 4.884187 34.371480 146 146 146 0
-3.964335 4.892159 34.427577 138 138 138 0
-3.887559 4.901705 34.494758 131 131 131 0
-3.804794 4.903957 34.510607 126 126 126 0
-3.732944 4.920699 34.628427 143 143 143 0
-3.652674 4.926863 34.671801 143 143 143 0
-3.576210 4.938576 34.754228 143 143 143 0
-3.488986 4.935639 34.733563 140 140 140 0
-3.407371 4.940688 34.769089 142 142 142 0
-3.325460 4.945556 34.803352 134 134 134 0
-3.243716 4.950934 34.841198 129 129 129 0
-3.157369 4.949389 34.830321 128 128 128 0
-3.075616 4.955159 34.870930 129 129 129 0
-2.996322 4.965334 34.942530 133 133 133 0
-2.914757 4.972232 34.991078 138 138 138 0
-2.830912 4.975543 35.014375 144 144 144 0
-2.751931 4.987875 35.101161 153 153 153 0
-2.665916 4.987843 35.100935 157 157 157 0
-2.576058 4.980379 35.048408 149 149 149 0
-2.491391 4.982782 35.065321 150 150 150 0
-2.407965 4.987927 35.101524 147 146 147 0
-2.321424 4.986762 35.093328 150 150 150 0
-2.237446 4.991227 35.124748 153 153 153 0
-2.149643 4.987172 35.096212 151 151 151 0
-2.064837 4.990024 35.116281 154 154 154 0
-1.978006 4.988016 35.102153 157 157 157 0
-1.892873 4.990301 35.118235 156 156 156 0
-1.805414 4.986383 35.090658 152 152 152 0
-1.722385 4.994917 35.150717 151 151 151 0
-1.634726 4.990216 35.117638 151 151 151 0
-1.549010 4.991255 35.124946 149 149 149 0
-1.464319 4.995910 35.157709 154 154 154 0
-1.378472 4.996961 35.165099 152 152 152 0
-1.290731 4.990825 35.121920 150 150 150 0
-1.205916 4.995939 35.157913 146 146 146 0
-1.120131 4.997507 35.168946 145 145 145 0
-1.035144 5.003197 35.208989 145 145 145 0
-0.947627 4.996577 35.162396 145 145 145 0
-0.862536 5.002710 35.205557 142 142 142 0
-0.776854 5.006390 35.231454 140 140 140 0
-0.690872 5.008818 35.248547 136 136 136 0
-0.603841 5.003254 35.209390 135 135 135 0
-0.518548 5.012629 35.275364 130 130 130 0
-0.432827 5.020790 35.332792 130 130 130 0
-0.346485 5.024035 35.355632 127 127 127 0
-0.259867 5.024090 35.356017 123 123 123 0
-0.173569 5.033515 35.422347 123 123 123 0
-0.086994 5.045632 35.507617 124 124 124 0
0.000000 5.044821 35.501909 124 124 124 0
0.087011 5.046639 35.514699 125 125 125 0
0.174460 5.059339 35.604072 124 124 124 0
0.262199 5.069176 35.673301 121 121 121 0
0.350040 5.075575 35.718335 117 117 117 0
0.437253 5.072140 35.694159 116 116 116 0
0.526454 5.089053 35.813177 117 117 117 0
0.615668 5.101248 35.898998 116 116 116 0
0.703825 5.102734 35.909457 117 117 117 0
0.793108 5.111140 35.968612 114 114 114 0
0.883493 5.124258 36.060932 117 117 117 0
0.973644 5.133760 36.127800 116 116 116 0
0.934175 4.515180 31.774667 115 115 115 0
1.153591 5.146790 36.219494 116 116 116 0
1.244680 5.156532 36.288048 118 118 118 0
1.334800 5.161225 36.321077 119 119 119 0
1.424954 5.165458 36.350868 121 121 121 0
1.518993 5.182448 36.470427 124 124 124 0
1.609547 5.186319 36.497670 129 129 129 0
1.697737 5.182566 36.471260 131 131 131 0
1.789939 5.190822 36.529363 131 131 131 0
1.883690 5.202573 36.612053 131 131 131 0
1.972079 5.199117 36.587737 135 135 135 0
2.061322 5.198117 36.580694 132 132 132 0
2.154464 5.206622 36.640546 132 132 132 0
2.249300 5.218375 36.723262 133 133 133 0
2.336904 5.213095 36.686099 135 135 135 0
2.425509 5.210352 36.666795 135 135 135 0
2.521277 5.222645 36.753310 137 137 137 0
2.613073 5.226145 36.777939 136 136 136 0
2.699860 5.219730 36.732794 135 135 135 0
2.792944 5.225508 36.773458 137 137 137 0
2.886837 5.232392 36.821897 136 136 136 0
2.977419 5.233039 36.826456 137 137 137 0
3.065750 5.229808 36.803719 135 135 135 0
3.159446 5.235653 36.844849 136 136 136 0
3.252332 5.239868 36.874513 134 134 134 0
3.342799 5.240064 36.875891 132 132 132 0
3.430108 5.235428 36.843266 133 133 133 0
3.527810 5.246486 36.921087 132 132 132 0
3.618064 5.246193 36.919020 132 132 132 0
3.711891 5.250968 36.952626 134 134 134 0
3.802138 5.250571 36.949832 131 131 131 0
3.893504 5.251704 36.957802 131 131 131 0
3.987645 5.256441 36.991141 130 130 130 0
4.074861 5.252043 36.960192 127 127 127 0
4.170077 5.257923 37.001570 127 127 127 0
4.258527 5.255204 36.982435 126 126 126 0
4.354336 5.261489 37.026663 128 128 128 0
4.445888 5.262479 37.033633 126 126 126 0
4.539117 5.265376 37.054019 125 125 125 0
4.627439 5.262578 37.034329 124 124 124 0
4.722005 5.266852 37.064403 126 126 126 0
4.814871 5.269105 37.080258 124 124 124 0
4.910290 5.274016 37.114819 122 122 122 0
4.999837 5.272555 37.104540 124 124 124 0
5.098585 5.280677 37.161695 123 123 123 0
5.193973 5.285095 37.192789 122 122 122 0
5.284355 5.284355 37.187579 118 118 118 0
5.383898 5.292646 37.245923 120 120 120 0
5.478216 5.295609 37.266778 119 119 119 0
5.574817 5.300646 37.302225 117 116 117 0
5.667654 5.301999 37.311744 117 117 117 0
5.758597 5.301566 37.308696 118 118 118 0
5.862300 5.312709 37.387117 117 117 117 0
5.955425 5.314072 37.396705 118 118 118 0
6.275337 5.514690 38.808517 117 117 117 0
6.227725 5.391165 37.939232 120 120 120 0
6.321440 5.391817 37.943819 119 119 119 0
6.338581 5.328083 37.495306 118 118 118 0
6.811224 5.643585 39.715590 117 117 117 0
6.909754 5.644588 39.722645 117 117 117 0
7.007433 5.644876 39.724674 119 119 119 0
7.582125 6.024154 42.393763 118 118 118 0
7.204000 5.646378 39.735243 120 120 120 0
7.629587 5.900214 41.521563 119 119 119 0
8.065315 6.155109 43.315332 120 120 120 0
8.172868 6.156187 43.322918 119 119 119 0
8.451573 6.284503 44.225918 121 121 121 0
8.564096 6.287564 44.247460 123 123 123 0
-6.767792 4.991246 34.529549 155 155 155 0
-6.684758 4.992414 34.537626 149 149 149 0
-6.593738 4.987571 34.504124 148 148 148 0
-6.517307 4.993781 34.547081 148 148 148 0
-6.436934 4.997093 34.570000 148 148 148 0
-6.351349 4.996394 34.565164 149 149 149 0
-6.262532 4.993100 34.542373 146 146 146 0
-6.182560 4.996863 34.568408 147 147 147 0
-6.102799 5.000905 34.596366 146 146 146 0
-6.017138 5.000157 34.591191 148 148 148 0
-5.924144 4.993207 34.543115 144 144 144 0
-5.847115 4.999707 34.588083 147 147 147 0
-5.760206 4.997826 34.575068 145 145 145 0
-5.666762 4.990133 34.521849 147 147 147 0
-5.579507 4.987741 34.505298 147 147 147 0
-5.500291 4.992571 34.538716 149 149 149 0
-5.412159 4.989335 34.516323 150 150 150 0
-5.323879 4.985855 34.492250 149 149 149 0
-5.241375 4.987760 34.505433 148 148 148 0
-5.159725 4.990553 34.524756 150 150 150 0
-5.070021 4.985521 34.489938 151 151 151 0
-4.979527 4.979527 34.448472 151 151 151 0
-4.899122 4.983590 34.476581 152 152 152 0
-4.815233 4.984188 34.480721 152 152 152 0
-4.723854 4.976917 34.430419 154 154 154 0
-4.639401 4.976812 34.429693 149 149 149 0
-4.563279 4.985805 34.491908 148 148 148 0
-4.470457 4.976546 34.427852 150 150 150 0
-4.380805 4.970529 34.386223 153 153 153 0
-4.297993 4.972188 34.397701 152 152 152 0
-4.217476 4.976621 34.428372 153 153 153 0
-4.127443 4.969778 34.381031 152 152 152 0
-4.040502 4.966451 34.358014 146 146 146 0
-3.962777 4.974550 34.414043 141 141 141 0
-3.884340 4.982088 34.466191 135 135 135 0
-3.800867 4.983359 34.474984 129 129 129 0
-3.719833 4.987958 34.506803 132 132 132 0
-3.646463 5.003287 34.612848 133 133 133 0
-3.569753 5.014653 34.691480 134 134 134 0
-3.485502 5.015723 34.698878 132 132 132 0
-3.406009 5.023863 34.755195 139 139 139 0
-3.324241 5.028981 34.790595 135 135 135 0
-3.244099 5.036891 34.845317 133 133 133 0
-3.159362 5.037902 34.852314 136 136 136 0
-3.074638 5.038990 34.859842 135 135 135 0
-2.993790 5.046674 34.912998 135 135 135 0
-2.911949 5.053088 34.957373 133 133 133 0
-2.827111 5.054531 34.967356 139 139 139 0
-2.746809 5.064430 35.035835 144 144 144 0
-2.657613 5.058037 34.991611 148 148 148 0
-2.573643 5.061497 35.015545 145 145 145 0
-2.489699 5.065250 35.041507 148 148 148 0
-2.405704 5.069161 35.068565 148 148 148 0
-2.319102 5.067667 35.058229 150 150 150 0
-2.233250 5.067759 35.058864 150 150 150 0
-2.148768 5.071092 35.081926 150 150 150 0
-2.063006 5.071556 35.085132 152 152 152 0
-1.978111 5.074285 35.104012 152 152 152 0
-1.892666 5.075786 35.114395 152 152 152 0
-1.806050 5.074141 35.103014 147 147 147 0
-1.721405 5.078144 35.130706 145 145 145 0
-1.634806 5.076503 35.119355 145 145 145 0
-1.548915 5.077000 35.122794 147 147 147 0
-1.464148 5.081456 35.153619 153 153 153 0
-1.378415 5.082906 35.163649 151 151 151 0
-1.291511 5.079942 35.143150 144 144 144 0
-1.205511 5.080369 35.146103 142 142 142 0
-1.120929 5.087293 35.194005 142 142 142 0
-1.035049 5.088993 35.205760 142 142 142 0
-0.948441 5.087092 35.192612 141 141 141 0
-0.862648 5.089624 35.210125 139 139 139 0
-0.777130 5.094519 35.243990 134 134 134 0
-0.691608 5.100606 35.286105 132 132 132 0
-0.604865 5.098146 35.269084 131 131 131 0
-0.518928 5.102790 35.301210 128 128 128 0
-0.433492 5.115204 35.387091 126 126 126 0
-0.346903 5.116816 35.398245 125 125 125 0
-0.260013 5.113584 35.375884 123 123 123 0
-0.173753 5.125722 35.459854 124 124 124 0
-0.087088 5.138179 35.546036 123 123 123 0
0.000000 5.141930 35.571982 122 122 122 0
0.087111 5.139572 35.555666 121 121 121 0
0.174822 5.157250 35.677964 120 120 120 0
0.262593 5.164333 35.726964 118 118 118 0
0.350543 5.170516 35.769740 118 118 118 0
0.438104 5.169629 35.763607 115 115 115 0
0.526969 5.181865 35.848251 116 116 116 0
0.616342 5.194883 35.938310 113 113 113 0
0.705131 5.200340 35.976061 116 116 116 0
0.795508 5.214997 36.077460 116 115 115 0
0.885222 5.222808 36.131500 114 114 114 0
0.974228 5.225404 36.149456 114 114 114 0
1.064244 5.232533 36.198776 117 117 117 0
1.154981 5.241837 36.263141 118 118 118 0
1.247026 5.255325 36.356448 118 118 118 0
1.335984 5.254869 36.353296 121 121 121 0
1.427697 5.264634 36.420849 122 122 122 0
1.521715 5.281246 36.535771 126 126 126 0
1.610899 5.280169 36.528320 130 130 130 0
1.700065 5.279151 36.521277 129 129 129 0
1.790700 5.282564 36.544894 131 131 131 0
1.885280 5.296738 36.642948 130 130 130 0
1.972838 5.290792 36.601811 130 130 130 0
2.063804 5.294105 36.624731 132 132 132 0
2.157026 5.302689 36.684119 133 133 133 0
2.248711 5.306958 36.713652 133 133 133 0
2.337708 5.304798 36.698709 134 133 133 0
2.427982 5.305590 36.704184 135 135 135 0
2.521277 5.312691 36.753310 134 134 134 0
2.614932 5.320035 36.804117 135 135 135 0
2.702050 5.314031 36.762581 136 136 136 0
2.795165 5.319831 36.802704 135 135 135 0
2.886756 5.322456 36.820866 136 136 136 0
2.978282 5.324807 36.837131 134 134 134 0
3.068350 5.324489 36.834932 132 132 132 0
3.162884 5.331719 36.884944 134 134 134 0
3.253482 5.332096 36.887552 132 132 132 0
3.344772 5.333555 36.897647 132 132 132 0
3.435739 5.334438 36.903753 131 131 131 0
3.531241 5.342134 36.956997 133 133 133 0
3.622499 5.343186 36.964277 130 130 130 0
3.713482 5.343791 36.968463 129 129 129 0
3.804379 5.344247 36.971615 130 130 130 0
3.896974 5.347011 36.990734 130 130 130 0
3.988020 5.347572 36.994620 130 130 130 0
4.083638 5.354104 37.039804 129 129 129 0
4.173412 5.352855 37.031164 126 126 126 0
4.263541 5.352105 37.025974 127 127 127 0
4.357858 5.356534 37.056614 126 126 126 0
4.453325 5.362167 37.095587 124 124 124 0
4.545284 5.363435 37.104361 123 123 123 0
4.635894 5.363093 37.101993 122 122 122 0
4.734005 5.371275 37.158596 125 125 125 0
4.825760 5.372072 37.164112 123 123 123 0
4.918498 5.373915 37.176857 121 121 121 0
5.011939 5.376444 37.194352 120 120 120 0
5.110325 5.384093 37.247268 121 121 121 0
5.204197 5.386800 37.265999 119 119 119 0
5.293699 5.384969 37.253333 118 118 118 0
5.388053 5.388053 37.274668 119 119 119 0
5.497752 5.406123 37.399672 120 120 120 0
5.588647 5.405413 37.394762 118 118 118 0
5.683647 5.408631 37.417028 117 117 117 0
5.781325 5.414256 37.455941 119 119 119 0
5.882235 5.422685 37.514254 119 119 119 0
5.966004 5.415296 37.463132 122 122 122 0
6.067459 5.423940 37.522936 121 121 121 0
6.084632 5.358109 37.067513 119 119 119 0
6.177063 5.359511 37.077211 120 120 120 0
6.564876 5.613445 38.833932 122 122 122 0
6.812557 5.742012 39.723362 119 119 119 0
7.064502 5.870502 40.612258 120 120 120 0
7.008982 5.743471 39.733458 121 121 121 0
7.106282 5.743433 39.733196 119 119 119 0
7.366144 5.873007 40.629585 121 121 121 0
7.795320 6.132319 42.423511 120 120 120 0
7.037101 5.463013 37.793240 122 122 122 0
6.996988 5.361328 37.089784 121 121 121 0
8.453041 6.393967 44.233600 122 122 122 0
7.008994 5.234565 36.212833 124 124 124 0
-6.772374 5.079281 34.552929 143 143 143 0
-6.691013 5.081782 34.569946 143 143 143 0
-6.597936 5.075335 34.526090 145 145 145 0
-6.519349 5.080012 34.557905 144 144 144 0
-6.442018 5.085804 34.597305 141 141 141 0
-6.355946 5.084757 34.590184 142 142 142 0
-6.270228 5.083969 34.584821 144 144 144 0
-6.186956 5.085170 34.592990 143 143 143 0
-6.109037 5.090864 34.631728 145 145 145 0
-6.024072 5.090765 34.631052 140 140 140 0
-5.934810 5.086980 34.605307 142 142 142 0
-5.853928 5.090372 34.628380 141 141 141 0
-5.768635 5.089972 34.625657 141 141 141 0
-5.678775 5.085470 34.595033 142 142 142 0
-5.590354 5.082140 34.572383 142 142 142 0
-5.506172 5.082620 34.575647 146 146 146 0
-5.415736 5.077252 34.539131 148 148 148 0
-5.325664 5.072061 34.503813 148 148 148 0
-5.245274 5.076071 34.531098 150 150 150 0
-5.162228 5.077602 34.541507 149 149 149 0
-5.072233 5.072233 34.504987 150 150 150 0
-4.984539 5.069022 34.483146 151 151 151 0
-4.904477 5.073597 34.514266 152 152 152 0
-4.818448 5.072051 34.503747 152 152 152 0
-4.726439 5.064042 34.449266 150 150 150 0
-4.641424 5.063371 34.444704 152 152 152 0
-4.562028 5.068920 34.482451 150 150 150 0
-4.475210 5.066275 34.464456 149 149 149 0
-4.382391 5.056606 34.398677 148 148 148 0
-4.300522 5.059438 34.417943 147 147 147 0
-4.219933 5.063920 34.448434 147 147 147 0
-4.129888 5.057006 34.401402 150 150 150 0
-4.042948 5.053686 34.378814 151 151 151 0
-3.965047 5.061762 34.433753 150 150 150 0
-3.883734 5.065740 34.460818 142 142 142 0
-3.797708 5.063611 34.446331 137 137 137 0
-3.716455 5.067894 34.475468 134 134 134 0
-3.637250 5.075232 34.525387 135 135 135 0
-3.563125 5.090179 34.627067 136 136 136 0
-3.477559 5.089111 34.619802 132 132 132 0
-3.395592 5.093388 34.648898 136 136 136 0
-3.313565 5.097793 34.678861 136 136 136 0
-3.236503 5.110268 34.763725 131 131 131 0
-3.154146 5.114831 34.794769 134 134 134 0
-3.070636 5.117727 34.814471 138 138 138 0
-2.989179 5.124307 34.859231 139 139 139 0
-2.908992 5.133516 34.921875 142 142 142 0
-2.824712 5.135840 34.937687 139 139 139 0
-2.739252 5.136098 34.939440 145 145 145 0
-2.656446 5.141508 34.976242 144 144 144 0
-2.571254 5.142508 34.983045 143 143 143 0
-2.486241 5.143947 34.992836 146 146 146 0
-2.403043 5.149377 35.029775 150 150 150 0
-2.316909 5.148686 35.025075 149 149 149 0
-2.232430 5.151761 35.045992 148 148 148 0
-2.147050 5.152921 35.053883 146 146 146 0
-2.063113 5.157782 35.086950 148 148 148 0
-1.975869 5.154440 35.064220 148 148 148 0
-1.890513 5.155944 35.074450 145 145 145 0
-1.806264 5.160754 35.107172 142 142 142 0
-1.722863 5.168590 35.160477 142 142 142 0
-1.634577 5.161823 35.114444 146 146 146 0
-1.549271 5.164238 35.130873 149 149 149 0
-1.464502 5.168830 35.162109 148 148 148 0
-1.379101 5.171630 35.181154 144 144 144 0
-1.291596 5.166384 35.145472 142 142 142 0
-1.206478 5.170619 35.174281 140 140 140 0
-1.122057 5.178724 35.229418 139 139 139 0
-1.036008 5.180040 35.238368 138 138 138 0
-0.948577 5.174056 35.197661 137 137 137 0
-0.863577 5.181459 35.248023 135 135 135 0
-0.777980 5.186535 35.282552 134 134 134 0
-0.692185 5.191384 35.315536 130 130 130 0
-0.605522 5.190185 35.307382 127 127 127 0
-0.519424 5.194242 35.334981 125 125 125 0
-0.434125 5.209500 35.438778 127 127 127 0
-0.347305 5.209569 35.439246 123 123 123 0
-0.260471 5.209426 35.438270 124 124 124 0
-0.173966 5.218976 35.503237 121 121 121 0
-0.087169 5.230141 35.579188 120 120 120 0
0.000000 5.235114 35.613017 120 120 120 0
0.087282 5.236927 35.625353 119 119 119 0
0.174997 5.249898 35.713592 117 117 117 0
0.262715 5.254303 35.743556 116 116 116 0
0.351178 5.267676 35.834529 116 116 116 0
0.439346 5.272155 35.864997 115 115 115 0
0.527890 5.278897 35.910865 114 114 114 0
0.617324 5.291351 35.995587 113 113 113 0
0.706522 5.298913 36.047030 113 113 113 0
0.795900 5.305997 36.095218 115 115 115 0
0.886651 5.319905 36.189830 113 113 113 0
0.975058 5.318500 36.180271 118 118 118 0
1.065851 5.329256 36.253444 120 120 120 0
1.158389 5.346412 36.370150 120 120 120 0
1.249260 5.353971 36.421574 120 120 120 0
1.337924 5.351696 36.406096 123 123 123 0
1.429349 5.360059 36.462985 123 123 123 0
1.522188 5.372428 36.547126 124 124 124 0
1.611539 5.371797 36.542836 129 129 129 0
1.701249 5.372364 36.546694 129 129 129 0
1.792526 5.377579 36.582170 130 130 130 0
1.888823 5.396636 36.711811 130 130 130 0
1.975577 5.387937 36.652635 129 129 129 0
2.065376 5.387937 36.652632 131 131 131 0
2.157469 5.393671 36.691642 130 130 130 0
2.251726 5.404143 36.762879 132 132 132 0
2.339691 5.399287 36.729845 131 131 131 0
2.430998 5.402217 36.749777 132 132 132 0
2.525241 5.411230 36.811091 134 134 134 0
2.615841 5.412084 36.816897 133 133 133 0
2.704615 5.409229 36.797479 130 130 130 0
2.797941 5.415370 36.839255 132 132 132 0
2.892226 5.422924 36.890636 132 132 132 0
2.982224 5.422226 36.885889 130 130 130 0
3.072180 5.421494 36.880912 131 131 131 0
3.164272 5.424466 36.901131 130 130 130 0
3.257303 5.428839 36.930878 130 130 130 0
3.348201 5.429515 36.935476 128 128 128 0
3.440704 5.432691 36.957083 128 128 128 0
3.536402 5.440619 37.011014 131 131 131 0
3.625762 5.438643 36.997573 127 127 127 0
3.717822 5.440715 37.011667 126 126 126 0
3.811894 5.445563 37.044644 128 128 128 0
3.901961 5.444596 37.038069 128 128 128 0
3.996117 5.449250 37.069729 126 126 126 0
4.089426 5.452567 37.092295 128 128 128 0
4.184382 5.457890 37.128503 126 126 126 0
4.273554 5.455601 37.112931 124 124 124 0
4.368401 5.460502 37.146269 124 124 124 0
4.460649 5.462019 37.156589 126 126 126 0
4.555301 5.466361 37.186132 124 124 124 0
4.642951 5.462295 37.158471 123 123 123 0
4.746778 5.477051 37.258852 123 123 123 0
4.834213 5.472694 37.229208 124 124 124 0
4.930418 5.478242 37.266955 122 122 122 0
5.020953 5.477403 37.261246 120 120 120 0
5.124308 5.490330 37.349182 120 120 120 0
5.214314 5.488751 37.338443 120 120 120 0
5.306379 5.489357 37.342565 118 118 118 0
5.402525 5.494093 37.374785 119 119 119 0
5.504505 5.504505 37.445612 118 118 118 0
5.592398 5.500720 37.419861 119 119 119 0
5.690547 5.506981 37.462458 119 119 119 0
5.788391 5.512753 37.501723 119 119 119 0
5.896062 5.527558 37.602437 120 120 120 0
5.982766 5.522553 37.568388 122 122 122 0
6.074031 5.521847 37.563582 120 120 120 0
6.231052 5.580046 37.959497 120 120 120 0
6.323585 5.579634 37.956694 121 121 121 0
6.566890 5.710339 38.845845 121 121 121 0
6.510995 5.580853 37.964988 120 120 120 0
7.066061 5.971319 40.621216 120 120 120 0
7.167296 5.972746 40.630928 120 120 120 0
7.266850 5.972754 40.630978 120 120 120 0
7.528814 6.104444 41.526828 120 120 120 0
7.633027 6.106421 41.540281 123 123 123 0
7.053310 5.568403 37.880292 122 122 122 0
6.997994 5.452982 37.095118 120 120 120 0
7.245086 5.573143 37.912536 122 122 122 0
7.345336 5.578736 37.950584 122 122 122 0
-6.773986 5.165165 34.561155 141 141 141 0
-6.697004 5.171104 34.600898 140 140 140 0
-6.606324 5.166484 34.569986 142 142 142 0
-6.525943 5.169903 34.592860 139 139 139 0
-6.450347 5.177253 34.642038 139 139 139 0
-6.364934 5.176813 34.639096 139 139 139 0
-6.277954 5.175070 34.627437 142 142 142 0
-6.191164 5.173439 34.616519 143 143 143 0
-6.117371 5.182773 34.678975 142 142 142 0
-6.027601 5.178643 34.651340 140 140 140 0
-5.944823 5.180489 34.663691 141 141 141 0
-5.860365 5.180903 34.666462 140 140 140 0
-5.779597 5.184639 34.691460 143 143 143 0
-5.688798 5.179354 34.656098 144 144 144 0
-5.596751 5.172755 34.611943 142 142 142 0
-5.515420 5.176010 34.633722 144 144 144 0
-5.425269 5.170960 34.599930 144 144 144 0
-5.333433 5.164117 34.554147 144 144 144 0
-5.250576 5.165889 34.566005 149 149 149 0
-5.167892 5.167892 34.579407 146 146 146 0
-5.078974 5.163624 34.550844 149 149 149 0
-4.988130 5.157219 34.507990 151 151 151 0
-4.906577 5.160366 34.529044 149 149 149 0
-4.823078 5.161540 34.536902 149 149 149 0
-4.730126 5.152459 34.476140 149 149 149 0
-4.645223 5.151975 34.472898 146 146 146 0
-4.566080 5.157979 34.513073 144 144 144 0
-4.480473 5.156771 34.504992 148 148 148 0
-4.390697 5.150626 34.463873 147 147 147 0
-4.305457 5.149664 34.457435 144 144 144 0
-4.223950 5.153219 34.481227 143 143 143 0
-4.135601 5.148401 34.448989 143 143 143 0
-4.047785 5.144060 34.419937 144 144 144 0
-3.968633 5.150779 34.464895 140 140 140 0
-3.886641 5.154024 34.486609 138 138 138 0
-3.799927 5.151012 34.466455 139 139 139 0
-3.715350 5.150827 34.465216 137 137 137 0
-3.638538 5.161648 34.537621 133 133 133 0
-3.562002 5.173383 34.616147 135 135 135 0
-3.477833 5.174337 34.622527 134 134 134 0
-3.394204 5.176161 34.634732 132 132 132 0
-3.313276 5.182304 34.675839 133 133 133 0
-3.236750 5.195836 34.766385 134 134 134 0
-3.152518 5.197394 34.776808 137 137 137 0
-3.071793 5.204982 34.827581 140 140 140 0
-2.988692 5.208864 34.853555 142 142 142 0
-2.906693 5.214949 34.894272 145 145 145 0
-2.822081 5.216574 34.905147 146 146 146 0
-2.736765 5.216958 34.907714 145 145 145 0
-2.654558 5.223485 34.951386 144 144 144 0
-2.570165 5.226003 34.968236 146 146 146 0
-2.485044 5.227161 34.975986 146 146 146 0
-2.399727 5.227976 34.981442 146 146 146 0
-2.317262 5.235295 35.030411 145 145 145 0
-2.232482 5.237747 35.046817 146 146 146 0
-2.146041 5.236339 35.037397 144 144 144 0
-2.063766 5.245404 35.098053 145 145 145 0
-1.976942 5.243195 35.083274 143 143 143 0
-1.891620 5.244947 35.094994 140 140 140 0
-1.805634 5.244937 35.094928 139 139 139 0
-1.722462 5.253508 35.152279 140 140 140 0
-1.635534 5.250923 35.134984 142 142 142 0
-1.549645 5.251575 35.139346 141 141 141 0
-1.464779 5.255971 35.168758 143 143 143 0
-1.380464 5.263019 35.215918 139 139 139 0
-1.292616 5.256640 35.173238 137 137 137 0
-1.207125 5.259617 35.193158 135 135 135 0
-1.122196 5.265690 35.233792 135 135 135 0
-1.036663 5.269705 35.260653 135 135 135 0
-0.949714 5.266598 35.239866 133 133 133 0
-0.863986 5.270315 35.264737 133 133 133 0
-0.779202 5.281260 35.337975 129 129 129 0
-0.692802 5.282613 35.347026 126 126 126 0
-0.606361 5.284002 35.356322 125 125 125 0
-0.520235 5.289057 35.390146 123 123 123 0
-0.434591 5.302008 35.476803 124 124 124 0
-0.348000 5.306998 35.510192 123 123 123 0
-0.260716 5.301232 35.471606 119 119 119 0
-0.174262 5.314981 35.563608 119 119 119 0
-0.087333 5.327306 35.646075 119 119 119 0
0.000000 5.334185 35.692102 116 116 116 0
0.087389 5.330753 35.669137 116 116 116 0
0.175245 5.344977 35.764318 116 116 116 0
0.263288 5.353515 35.821443 113 113 113 0
0.351660 5.362812 35.883655 114 114 114 0
0.439925 5.367091 35.912286 115 115 115 0
0.528906 5.377208 35.979980 113 113 113 0
0.618278 5.387851 36.051198 115 115 115 0
0.707414 5.394033 36.092556 113 113 113 0
0.797948 5.408312 36.188103 114 114 114 0
0.889019 5.423018 36.286503 114 114 114 0
0.977667 5.421605 36.277052 119 119 119 0
1.068116 5.429591 36.330486 119 119 119 0
1.159568 5.441051 36.407167 118 118 118 0
1.250675 5.449369 36.462827 121 121 121 0
1.340197 5.450135 36.467948 124 124 124 0
1.430673 5.454441 36.496762 125 125 125 0
1.524314 5.469598 36.598179 126 126 126 0
1.614545 5.471512 36.610987 130 130 130 0
1.702951 5.467368 36.583257 129 129 129 0
1.794492 5.473200 36.622279 128 128 128 0
1.888616 5.485979 36.707788 128 128 128 0
1.976640 5.480683 36.672349 130 130 130 0
2.067852 5.484304 36.696579 128 128 128 0
2.159847 5.489611 36.732088 131 131 131 0
2.254498 5.500976 36.808136 130 130 130 0
2.342711 5.496361 36.777259 130 130 130 0
2.433644 5.498233 36.789781 131 131 131 0
2.527510 5.506362 36.844175 133 133 133 0
2.619689 5.510381 36.871065 131 131 131 0
2.707125 5.504488 36.831636 131 131 131 0
2.799616 5.508922 36.861302 130 130 130 0
2.894554 5.517743 36.920329 132 132 132 0
2.985715 5.519048 36.929060 131 131 131 0
3.076557 5.519706 36.933462 128 128 128 0
3.169491 5.523969 36.961989 129 129 129 0
3.260176 5.524187 36.963447 126 126 126 0
3.354976 5.531177 37.010219 126 126 126 0
3.446196 5.532051 37.016067 129 129 129 0
3.538197 5.534102 37.029792 128 128 128 0
3.631778 5.538461 37.058956 127 127 127 0
3.721984 5.537586 37.053103 129 129 129 0
3.819385 5.547201 37.117440 126 126 126 0
3.906657 5.542002 37.082651 127 127 127 0
3.998929 5.543970 37.095820 127 127 127 0
4.095035 5.551048 37.143179 126 126 126 0
4.191012 5.557647 37.187333 125 125 125 0
4.279798 5.554631 37.167153 124 124 124 0
4.374033 5.558667 37.194159 124 124 124 0
4.470362 5.565144 37.237498 126 126 126 0
4.561216 5.564683 37.234412 127 127 127 0
4.654009 5.566560 37.246973 122 122 122 0
4.752083 5.574559 37.300493 122 122 122 0
4.845189 5.576539 37.313742 121 121 121 0
4.938376 5.578536 37.327105 123 123 123 0
5.026438 5.574777 37.301952 121 121 121 0
5.131699 5.589886 37.403053 120 120 120 0
5.227011 5.593819 37.429368 118 118 118 0
5.310863 5.585563 37.374124 119 119 119 0
5.409540 5.592914 37.423312 118 118 118 0
5.520177 5.612180 37.552227 118 118 118 0
5.608072 5.608072 37.524736 120 120 120 0
5.696150 5.604276 37.499339 120 120 120 0
5.857674 5.671716 37.950595 121 121 121 0
5.902242 5.625574 37.641849 123 123 123 0
5.989926 5.621315 37.613350 122 122 122 0
6.088479 5.627230 37.652931 122 122 122 0
6.196490 5.641581 37.748950 119 119 119 0
6.325011 5.673907 37.965254 120 120 120 0
6.374787 5.635681 37.709477 119 119 119 0
6.512496 5.675175 37.973740 121 120 121 0
6.914165 5.940339 39.748003 122 122 122 0
6.671818 5.652512 37.822096 119 119 119 0
7.427608 6.206631 41.529819 120 120 120 0
7.530467 6.207547 41.535943 120 120 120 0
7.633797 6.208821 41.544472 120 120 120 0
7.059569 5.666233 37.913907 121 121 121 0
7.839793 6.210745 41.557347 122 122 122 0
8.456125 6.613123 44.249737 124 124 124 0
8.567271 6.615235 44.263864 125 125 125 0
-6.780471 5.254865 34.594241 140 140 140 0
-6.701054 5.259055 34.621825 139 139 139 0
-6.615239 5.258267 34.616634 140 140 140 0
-6.535086 5.262017 34.641325 137 137 137 0
-6.454880 5.265823 34.666380 139 139 139 0
-6.373582 5.268828 34.686161 137 137 137 0
-6.286327 5.266923 34.673618 140 140 140 0
-6.200131 5.265864 34.666652 140 140 140 0
-6.122617 5.272254 34.708714 139 139 139 0
-6.038047 5.272660 34.711392 136 136 136 0
-5.950779 5.270690 34.698419 139 139 139 0
-5.866077 5.270968 34.700248 144 144 144 0
-5.781759 5.271604 34.704436 147 147 147 0
-5.696368 5.271266 34.702213 144 144 144 0
-5.608303 5.268406 34.683383 140 140 140 0
