ply
format ascii 1.0
element vertex 1104
property float x
property float y
property float z
property uchar red
property uchar green
property uchar blue
property uchar alpha
end_header
5.038127 -1.706462 33.167394 131 131 131 0
5.516815 -1.838938 35.742243 130 130 130 0
5.600018 -1.837506 35.714399 130 130 130 0
5.372087 -1.735597 33.733671 136 136 136 0
6.053532 -1.926124 37.436807 131 131 131 0
6.142149 -1.925151 37.417904 136 136 136 0
6.231390 -1.924400 37.403302 131 131 131 0
6.621794 -2.015329 39.170625 131 131 131 0
6.415366 -1.924610 37.407380 131 131 131 0
6.350233 -1.878238 36.506083 134 134 134 0
6.747902 -1.968138 38.253412 135 135 135 0
7.158702 -2.059353 40.026290 140 140 140 0
7.286045 -2.067661 40.187783 139 139 139 0
7.381337 -2.066774 40.170542 137 137 137 0
7.478282 -2.066367 40.162634 139 139 139 0
7.550236 -2.059155 40.022456 141 141 141 0
7.676139 -2.066653 40.168180 139 139 139 0
7.768099 -2.064938 40.134842 141 141 141 0
-6.080157 -1.579262 32.229830 72 72 72 0
-5.977370 -1.572992 32.101881 134 134 134 0
-5.874779 -1.566608 31.971588 151 151 151 0
-5.778878 -1.561859 31.874670 162 162 162 0
-5.704890 -1.562984 31.897625 163 163 163 0
-5.627802 -1.563278 31.903640 165 165 165 0
-5.554452 -1.564634 31.931316 162 162 162 0
-5.469163 -1.562618 31.890164 161 161 161 0
-5.388289 -1.561823 31.873934 162 162 162 0
-5.312445 -1.562484 31.887427 164 164 164 0
-5.228210 -1.560660 31.850201 160 160 160 0
-5.144501 -1.558940 31.815099 157 157 157 0
-5.061350 -1.557338 31.782417 158 158 158 0
-4.976701 -1.555219 31.739167 161 161 161 0
-4.888623 -1.551944 31.672325 158 158 158 0
-4.800371 -1.548507 31.602181 159 159 159 0
-4.720624 -1.547746 31.586647 159 159 159 0
-4.637433 -1.545811 31.547160 158 158 158 0
-4.547894 -1.541659 31.462431 158 158 158 0
-4.474678 -1.542992 31.489640 157 157 157 0
-4.389814 -1.540286 31.434401 158 158 158 0
-4.307206 -1.538288 31.393630 158 158 158 0
-4.228472 -1.537626 31.380122 158 158 158 0
-4.151726 -1.537676 31.381151 160 160 160 0
-4.070452 -1.536020 31.347342 157 157 157 0
-3.986335 -1.533206 31.289913 159 159 159 0
-3.909458 -1.533121 31.288181 157 157 157 0
-3.835413 -1.534165 31.309494 155 155 155 0
-3.754171 -1.532315 31.271729 157 157 157 0
-3.671997 -1.529999 31.224463 161 161 161 0
-3.594618 -1.529625 31.216829 157 157 157 0
-3.517558 -1.529373 31.211692 158 158 158 0
-3.431910 -1.525294 31.128439 155 155 155 0
-3.355100 -1.525045 31.123374 155 155 155 0
-3.277739 -1.524530 31.112850 149 149 149 0
-3.206032 -1.526682 31.156774 134 134 134 0
-3.131293 -1.527460 31.172657 133 133 133 0
-2.754549 -1.377275 28.107645 131 131 131 0
-2.692122 -1.380575 28.175009 124 124 124 0
-2.623865 -1.380982 28.183296 122 122 122 0
-2.565007 -1.386490 28.295724 120 120 120 0
-2.501497 -1.389721 28.361647 126 126 126 0
-2.434236 -1.390992 28.387593 125 125 125 0
-2.367087 -1.392404 28.416412 128 127 127 0
-2.306655 -1.397973 28.530054 125 125 125 0
-2.236817 -1.398011 28.530830 122 122 122 0
-2.168417 -1.398979 28.550583 131 131 131 0
-2.103598 -1.402399 28.620384 131 131 131 0
-2.034833 -1.403333 28.639453 139 139 139 0
-2.200211 -1.571579 32.073040 143 143 143 0
-2.126480 -1.575170 32.146336 153 153 153 0
-2.051431 -1.578024 32.204566 158 158 158 0
-1.971412 -1.577130 32.186316 157 157 157 0
-1.890054 -1.575045 32.143771 158 158 158 0
-1.805402 -1.569915 32.039072 158 157 158 0
-1.726124 -1.569203 32.024556 161 161 161 0
-1.644193 -1.565899 31.957113 163 163 163 0
-1.566082 -1.566082 31.960864 163 163 163 0
-1.486879 -1.565136 31.941549 164 164 164 0
-1.408775 -1.565306 31.945012 158 158 158 0
-1.330689 -1.565516 31.949309 154 154 154 0
-1.252918 -1.566147 31.962189 151 150 150 0
-1.044037 -1.392050 28.409181 150 150 150 0
-1.096437 -1.566339 31.966099 147 147 147 0
-1.019348 -1.568228 32.004644 141 141 141 0
-0.941284 -1.568807 32.016463 139 139 139 0
-0.864113 -1.571114 32.063559 130 130 130 0
-0.696885 -1.393770 28.444279 119 119 119 0
-0.618647 -1.374772 28.056572 114 114 114 0
-0.624863 -1.562157 31.880747 99 99 99 0
-0.555389 -1.586825 32.384185 93 93 93 0
-0.481498 -1.604995 32.754996 152 152 152 0
-0.402001 -1.608005 32.816433 152 152 152 0
-0.321276 -1.606380 32.783273 142 142 142 0
-0.240021 -1.600139 32.655889 145 145 145 0
-0.158691 -1.586909 32.385896 146 146 146 0
-0.078702 -1.574036 32.123185 145 145 145 0
0.000000 -1.563241 31.902878 146 146 146 0
0.077882 -1.557632 31.788409 145 145 145 0
0.154856 -1.548559 31.603241 143 143 143 0
0.232236 -1.548240 31.596740 144 144 144 0
0.307893 -1.539465 31.417654 141 141 141 0
0.382983 -1.531930 31.263886 144 144 144 0
0.458296 -1.527654 31.176611 144 144 144 0
0.532469 -1.521341 31.047783 146 146 146 0
0.606084 -1.515209 30.922640 145 145 145 0
0.679724 -1.510498 30.826484 145 145 145 0
0.752216 -1.504433 30.702709 148 148 148 0
0.824141 -1.498439 30.580388 145 145 145 0
0.898062 -1.496769 30.546316 148 148 148 0
0.968894 -1.490607 30.420542 149 149 149 0
1.040173 -1.485962 30.325756 151 151 151 0
1.113344 -1.484458 30.295063 152 152 152 0
1.187699 -1.484623 30.298435 155 155 155 0
1.257243 -1.479110 30.185909 156 156 156 0
1.329930 -1.477700 30.157146 158 158 158 0
1.403035 -1.476879 30.140389 158 158 158 0
1.476178 -1.476178 30.126082 162 161 162 0
1.548109 -1.474389 30.089577 155 155 155 0
1.620945 -1.473586 30.073192 150 150 150 0
1.695912 -1.474706 30.096048 147 147 147 0
1.771008 -1.475840 30.119191 140 140 140 0
1.846278 -1.477022 30.143309 135 135 135 0
1.920113 -1.477010 30.143060 133 133 133 0
1.996031 -1.478541 30.174314 132 132 132 0
2.074095 -1.481497 30.234624 130 130 130 0
2.150473 -1.483085 30.267033 127 127 127 0
2.227088 -1.484725 30.300520 123 123 123 0
2.302836 -1.485700 30.320415 119 119 119 0
2.386336 -1.491460 30.437964 119 119 119 0
2.466605 -1.494912 30.508412 116 116 116 0
2.163597 -1.272704 25.973551 115 115 115 0
2.620487 -1.497421 30.559618 114 114 114 0
2.437220 -1.354011 27.632885 114 114 114 0
2.505133 -1.354126 27.635221 110 110 110 0
2.497402 -1.314422 26.824941 109 109 109 0
2.801666 -1.436752 29.321466 110 110 110 0
2.711485 -1.355743 27.668217 110 110 110 0
2.863577 -1.396867 28.507491 109 109 109 0
2.934874 -1.397559 28.521614 112 111 112 0
3.005752 -1.398024 28.531104 114 114 114 0
3.166787 -1.439448 29.376500 115 115 115 0
3.239824 -1.439922 29.386156 112 112 112 0
3.312838 -1.440364 29.395188 107 107 107 0
3.580310 -1.523536 31.092575 104 104 104 0
3.558966 -1.482903 30.263317 103 103 103 0
3.633495 -1.483059 30.266515 98 98 98 0
3.588410 -1.435364 29.293144 94 94 94 0
3.785366 -1.484457 30.295047 92 92 92 0
4.109635 -1.580629 32.257730 99 99 99 0
4.345012 -1.609264 32.842114 57 57 57 0
4.525744 -1.616337 32.986475 56 55 55 0
4.506670 -1.581288 32.271177 60 60 60 0
4.941372 -1.703921 34.773903 92 92 92 0
4.931426 -1.671670 34.115713 122 122 122 0
5.139948 -1.713316 34.965633 126 126 126 0
5.170376 -1.695205 34.596026 125 125 125 0
5.231856 -1.687696 34.442766 128 128 128 0
4.984894 -1.582506 32.296041 127 127 127 0
5.324857 -1.664018 33.959546 128 128 128 0
5.687202 -1.749908 35.712417 134 134 134 0
5.914623 -1.792310 36.577757 137 137 137 0
6.144153 -1.834075 37.430110 136 136 136 0
6.381894 -1.877028 38.306684 130 130 130 0
6.473564 -1.876395 38.293780 132 132 132 0
6.718715 -1.919633 39.176178 135 135 135 0
6.811029 -1.918600 39.155096 129 129 129 0
6.905692 -1.918248 39.147915 134 134 134 0
7.161330 -1.962008 40.040984 135 135 135 0
7.258374 -1.961723 40.035160 134 134 134 0
7.028990 -1.874397 38.253009 140 140 140 0
7.120975 -1.873941 38.243690 136 136 136 0
7.584876 -1.970098 40.206073 140 140 140 0
7.675426 -1.968058 40.164448 139 139 139 0
7.773555 -1.967989 40.163032 137 137 137 0
-5.983035 -1.495759 32.132306 130 130 130 0
-5.870141 -1.487102 31.946346 153 153 153 0
-5.784016 -1.485085 31.903009 161 161 161 0
-5.703797 -1.484550 31.891512 163 163 163 0
-5.626960 -1.484892 31.898865 162 162 162 0
-5.550131 -1.485246 31.906475 162 162 162 0
-5.466460 -1.483753 31.874402 162 162 162 0
-5.388289 -1.483732 31.873934 161 161 161 0
-5.310149 -1.483718 31.873644 165 165 165 0
-5.229917 -1.483111 31.860596 163 163 163 0
-5.146167 -1.481472 31.825398 159 159 159 0
-5.063179 -1.480006 31.793901 159 158 159 0
-4.983583 -1.479501 31.783057 159 159 159 0
-4.895893 -1.476539 31.719421 162 162 162 0
-4.804316 -1.472290 31.628151 160 160 160 0
-4.728264 -1.472738 31.637765 158 158 158 0
-4.641843 -1.469917 31.577164 157 157 157 0
-4.553768 -1.466468 31.503065 159 159 159 0
-4.473945 -1.465603 31.484482 159 159 159 0
-4.395175 -1.465058 31.472786 156 156 156 0
-4.310507 -1.462493 31.417689 160 160 160 0
-4.229603 -1.461136 31.388522 158 158 158 0
-4.156306 -1.462404 31.415766 159 159 159 0
-4.074403 -1.460635 31.377767 158 158 158 0
-3.989461 -1.457687 31.314447 159 159 159 0
-3.913525 -1.457980 31.320728 157 157 157 0
-3.840841 -1.459520 31.353808 160 160 160 0
-3.757941 -1.457161 31.303128 158 158 158 0
-3.675526 -1.454896 31.254472 156 156 156 0
-3.597503 -1.454310 31.241881 156 156 156 0
-3.520642 -1.454178 31.239059 156 156 156 0
-3.439561 -1.452259 31.197830 156 156 156 0
-3.357425 -1.449797 31.144949 153 153 153 0
-3.282104 -1.450232 31.154285 147 147 147 0
-3.209586 -1.451956 31.191312 144 144 144 0
-3.134120 -1.452397 31.200800 134 134 134 0
-2.754628 -1.308448 28.108447 130 130 130 0
-2.987950 -1.455668 31.271058 127 127 127 0
-2.626187 -1.313094 28.208241 120 120 120 0
-2.565448 -1.317392 28.300581 125 125 125 0
-2.504124 -1.321621 28.391426 126 126 126 0
-2.433592 -1.321093 28.380086 123 123 123 0
-2.370676 -1.324790 28.459498 129 129 129 0
-2.304960 -1.327098 28.509087 126 125 126 0
-2.239582 -1.329752 28.566095 128 128 128 0
-2.413055 -1.478969 31.771628 133 133 133 0
-2.100855 -1.330542 28.583067 134 134 134 0
-2.271924 -1.488502 31.976409 145 145 145 0
-2.199639 -1.492613 32.064716 148 148 148 0
-2.127981 -1.497468 32.169028 163 163 163 0
-2.050383 -1.498357 32.188110 164 164 164 0
-1.970873 -1.497864 32.177521 162 162 162 0
-1.887261 -1.494081 32.096269 164 163 163 0
-1.803602 -1.489932 32.007126 161 161 161 0
-1.722947 -1.488000 31.965620 162 162 162 0
-1.642637 -1.486196 31.926866 163 163 163 0
-1.565549 -1.487271 31.949970 163 163 163 0
-1.486717 -1.486717 31.938063 162 162 162 0
-1.407511 -1.485706 31.916340 156 156 156 0
-1.330136 -1.486622 31.936031 152 152 152 0
-1.252369 -1.487189 31.948200 151 151 151 0
-1.174446 -1.487631 31.957703 147 147 147 0
-1.096387 -1.487954 31.964643 146 146 146 0
-1.018038 -1.487901 31.963507 142 142 142 0
-0.941053 -1.490001 32.008619 140 140 140 0
-0.863223 -1.491021 32.030523 135 135 135 0
-0.698314 -1.326796 28.502609 123 123 123 0
-0.618992 -1.306760 28.072185 113 113 113 0
-0.625108 -1.484632 31.893267 114 114 114 0
-0.552520 -1.499697 32.216907 96 96 96 0
-0.480008 -1.520025 32.653608 133 133 133 0
-0.402150 -1.528172 32.828609 156 156 156 0
-0.321728 -1.528207 32.829359 146 146 146 0
-0.239880 -1.519239 32.636720 140 140 140 0
-0.158641 -1.507088 32.375680 147 147 147 0
-0.078831 -1.497783 32.175786 142 142 142 0
0.000000 -1.487739 31.960014 146 146 146 0
0.077806 -1.478310 31.757472 145 145 145 0
0.154628 -1.468963 31.556671 148 148 148 0
0.231563 -1.466563 31.505104 148 148 148 0
0.307788 -1.461991 31.406897 146 146 146 0
0.382323 -1.452827 31.210041 148 148 148 0
0.458195 -1.450950 31.169717 147 147 147 0
0.532444 -1.445206 31.046310 148 148 148 0
0.606237 -1.439812 30.930445 148 148 148 0
0.679578 -1.434665 30.819868 146 146 146 0
0.751939 -1.428684 30.691385 145 145 145 0
0.825044 -1.425077 30.613895 146 146 146 0
0.899309 -1.423906 30.588737 146 146 146 0
0.969528 -1.417002 30.440435 147 147 147 0
1.040292 -1.411825 30.329216 150 150 150 0
1.114119 -1.411217 30.316158 152 152 152 0
1.188350 -1.411165 30.315047 152 152 152 0
1.257851 -1.405834 30.200509 149 149 149 0
1.330915 -1.404854 30.179469 152 152 152 0
1.403738 -1.403738 30.155494 151 151 151 0
1.477611 -1.403731 30.155329 149 149 149 0
1.549225 -1.401680 30.111272 147 147 147 0
1.622141 -1.400940 30.095388 146 146 146 0
1.696612 -1.401549 30.108469 144 144 144 0
1.771018 -1.402056 30.119355 140 140 140 0
1.846636 -1.403443 30.149155 137 137 137 0
1.919017 -1.402359 30.125860 133 133 133 0
1.996186 -1.404723 30.176654 131 131 131 0
2.074548 -1.407729 30.241225 129 129 129 0
2.151360 -1.409511 30.279515 128 128 128 0
2.226945 -1.410398 30.298568 122 122 122 0
2.302877 -1.411441 30.320965 120 120 120 0
2.384708 -1.415921 30.417197 117 117 117 0
2.466117 -1.419885 30.502373 116 116 116 0
2.300948 -1.285824 27.622425 115 115 115 0
2.624518 -1.424738 30.606623 110 110 110 0
2.436955 -1.286171 27.629874 113 113 113 0
2.505326 -1.286519 27.637352 110 110 110 0
2.574122 -1.287061 27.649001 113 113 113 0
2.722835 -1.326509 28.496442 109 109 109 0
2.712015 -1.288207 27.673624 108 108 108 0
2.863620 -1.327044 28.507918 109 109 109 0
2.934246 -1.327397 28.515513 109 109 109 0
3.093856 -1.367052 29.367399 111 111 111 0
3.076651 -1.328554 28.540363 112 112 112 0
3.239878 -1.367948 29.386647 111 111 111 0
3.313374 -1.368567 29.399944 110 110 110 0
3.481567 -1.407442 30.235055 108 108 108 0
3.560185 -1.409240 30.273680 98 98 98 0
3.635079 -1.409520 30.279708 92 92 92 0
3.101311 -1.178498 25.316826 86 86 86 0
3.545040 -1.320701 28.371670 89 89 89 0
3.962318 -1.447770 31.101398 89 89 89 0
4.166987 -1.493825 32.090773 62 62 62 0
4.247281 -1.494414 32.103410 52 52 52 0
4.212370 -1.455182 31.260629 53 53 53 0
4.536256 -1.539087 33.063089 54 54 54 0
4.859575 -1.619858 34.798246 63 63 63 0
4.724010 -1.547520 33.244264 104 104 104 0
4.810485 -1.549139 33.279035 122 122 122 0
4.889996 -1.548499 33.265278 127 127 127 0
5.098029 -1.587911 34.111936 131 131 131 0
5.255860 -1.610667 34.600787 131 131 131 0
5.121446 -1.544563 33.180732 125 125 125 0
5.606822 -1.664525 35.757792 135 135 135 0
5.686699 -1.662266 35.709257 133 133 133 0
5.915184 -1.702856 36.581227 133 133 133 0
6.146783 -1.743118 37.446136 132 132 132 0
6.383143 -1.783525 38.314183 133 133 133 0
6.477021 -1.783528 38.314235 132 132 132 0
6.718985 -1.823725 39.177757 134 134 134 0
6.815547 -1.823879 39.181067 134 134 134 0
6.752822 -1.781995 38.281303 128 128 128 0
7.159854 -1.863524 40.032732 132 132 132 0
7.259868 -1.864020 40.043399 136 136 136 0
7.193581 -1.822374 39.148740 130 130 130 0
7.510812 -1.877703 40.337335 137 137 137 0
7.591999 -1.873350 40.243834 140 140 140 0
7.695193 -1.874470 40.267885 135 135 135 0
7.792390 -1.874119 40.260346 141 141 141 0
-5.985486 -1.417615 32.145469 121 121 121 0
-5.879704 -1.411129 31.998390 150 150 150 0
-5.780955 -1.406178 31.886129 160 160 160 0
-5.703399 -1.406318 31.889288 161 161 161 0
-5.627065 -1.406766 31.899464 162 162 162 0
-5.550711 -1.407223 31.909810 161 161 161 0
-5.462624 -1.404675 31.852038 161 161 161 0
-5.387366 -1.405400 31.868480 162 162 162 0
-5.307657 -1.404968 31.858684 164 164 164 0
-5.228960 -1.404795 31.854768 164 164 164 0
-5.143537 -1.402783 31.809132 162 162 162 0
-5.069703 -1.403918 31.834867 159 159 159 0
-4.990264 -1.403512 31.825664 160 160 160 0
-4.902505 -1.400716 31.762261 157 157 157 0
-4.811466 -1.396877 31.675218 159 159 159 0
-4.730139 -1.395779 31.650313 157 157 157 0
-4.643982 -1.393195 31.591713 160 160 160 0
-4.557666 -1.390474 31.530032 159 159 159 0
-4.479879 -1.390307 31.526243 158 158 158 0
-4.399492 -1.389313 31.503704 159 159 159 0
-4.315943 -1.387267 31.457311 157 157 157 0
-4.232473 -1.385173 31.409820 158 158 158 0
-4.156743 -1.385581 31.419073 160 160 160 0
-4.077706 -1.384881 31.403203 159 159 159 0
-3.995231 -1.382965 31.359742 159 159 159 0
-3.915737 -1.382025 31.338435 158 158 158 0
-3.842037 -1.383133 31.363567 161 161 161 0
-3.761710 -1.381853 31.334528 160 160 160 0
-3.678046 -1.379267 31.275899 160 160 160 0
-3.601086 -1.379139 31.272998 158 158 158 0
-3.527897 -1.380481 31.303430 155 155 155 0
-3.442249 -1.376900 31.222217 157 157 157 0
-3.361938 -1.375338 31.186809 157 157 157 0
-3.283325 -1.374415 31.165873 149 149 149 0
-3.212008 -1.376575 31.214851 142 142 142 0
-3.137134 -1.377278 31.230805 136 136 136 0
-2.759415 -1.241737 28.157293 127 127 127 0
-2.691384 -1.242177 28.167287 124 124 124 0
-2.628055 -1.244868 28.228302 124 124 124 0
-2.564147 -1.247423 28.286237 125 125 125 0
-2.501241 -1.250621 28.358744 130 130 130 0
-2.436869 -1.253247 28.418293 128 128 128 0
-2.370971 -1.255220 28.463034 129 129 129 0
-2.309378 -1.259661 28.563731 127 127 127 0
-2.237569 -1.258633 28.540426 131 131 131 0
-2.171519 -1.260882 28.591429 135 135 135 0
-2.100610 -1.260366 28.579723 139 138 139 0
-2.037955 -1.264938 28.683394 146 146 146 0
-2.200343 -1.414506 32.074974 151 150 151 0
-2.128876 -1.419251 32.182553 170 170 170 0
-2.051335 -1.420155 32.203068 168 168 168 0
-1.968147 -1.417066 32.133005 165 165 165 0
-1.884784 -1.413588 32.054154 162 162 162 0
-1.802463 -1.410623 31.986913 161 161 161 0
-1.721549 -1.408540 31.939690 164 164 164 0
-1.643277 -1.408523 31.939292 168 168 168 0
-1.564536 -1.408083 31.929316 164 164 164 0
-1.487446 -1.409160 31.953736 157 157 157 0
-1.408286 -1.408286 31.933916 156 155 156 0
-1.329753 -1.407974 31.926847 149 149 149 0
-1.251421 -1.407849 31.924005 149 149 149 0
-1.173258 -1.407910 31.925399 145 145 145 0
-1.094689 -1.407458 31.915144 143 143 143 0
-1.017728 -1.409162 31.953787 141 141 141 0
-0.940371 -1.410557 31.985415 136 136 136 0
-0.862240 -1.410939 31.994079 134 134 134 0
-0.785363 -1.413654 32.055639 127 127 127 0
-0.623444 -1.246888 28.274102 111 111 111 0
-0.615462 -1.384790 31.401126 106 106 106 0
-0.551517 -1.418188 32.158451 107 107 107 0
-0.477536 -1.432608 32.485447 118 118 118 0
-0.402048 -1.447373 32.820256 155 155 155 0
-0.321823 -1.448202 32.839039 151 151 151 0
-0.239991 -1.439947 32.651868 145 145 145 0
-0.158712 -1.428408 32.390201 143 143 143 0
-0.078950 -1.421098 32.224446 145 145 145 0
0.000000 -1.408663 31.942468 143 143 143 0
0.077726 -1.399076 31.725083 147 147 147 0
0.154835 -1.393513 31.598923 144 144 144 0
0.231521 -1.389127 31.499477 144 144 144 0
0.307565 -1.384042 31.384182 146 146 146 0
0.383057 -1.379005 31.269951 147 147 147 0
0.457761 -1.373284 31.140224 147 147 147 0
0.532460 -1.369183 31.047245 146 146 146 0
0.607058 -1.365880 30.972347 150 150 150 0
0.680918 -1.361835 30.880618 144 144 144 0
0.752644 -1.354759 30.720165 145 144 145 0
0.825588 -1.350963 30.634076 144 144 144 0
0.899128 -1.348692 30.582579 146 146 146 0
0.970707 -1.344056 30.477465 149 149 149 0
1.040843 -1.338226 30.345267 147 147 147 0
1.114937 -1.337924 30.338424 148 148 148 0
1.189794 -1.338518 30.351876 148 148 148 0
1.259705 -1.333806 30.245029 149 149 149 0
1.331834 -1.331834 30.200313 149 149 149 0
1.405029 -1.331080 30.183227 148 148 148 0
1.480094 -1.332084 30.205994 146 146 146 0
1.550989 -1.329419 30.145555 144 144 144 0
1.623505 -1.328322 30.120688 145 145 145 0
1.699223 -1.329827 30.154807 142 142 142 0
1.772612 -1.329459 30.146471 141 141 141 0
1.848653 -1.331030 30.182097 137 137 137 0
1.920301 -1.329439 30.146015 135 135 135 0
1.997166 -1.331444 30.191477 132 132 132 0
2.075286 -1.334112 30.251982 130 130 130 0
2.152590 -1.336090 30.296836 126 126 126 0
2.226583 -1.335950 30.293640 121 121 121 0
2.304800 -1.338271 30.346283 117 117 117 0
2.386626 -1.342477 30.441663 118 118 118 0
2.469244 -1.346860 30.541047 116 116 116 0
2.545732 -1.347740 30.561009 117 117 117 0
2.621996 -1.348455 30.577214 114 114 114 0
2.436871 -1.218436 27.628927 114 114 114 0
2.580090 -1.255179 28.462106 110 110 110 0
2.573656 -1.219100 27.643995 112 112 112 0
2.802962 -1.293675 29.335027 110 110 110 0
2.792988 -1.256845 28.499877 109 109 109 0
2.780387 -1.220658 27.679312 110 110 110 0
2.763961 -1.184555 26.860651 111 111 111 0
3.094108 -1.295208 29.369795 109 109 109 0
3.077088 -1.258809 28.544412 109 109 109 0
3.240009 -1.296004 29.387840 111 111 111 0
3.312809 -1.296317 29.394935 111 111 111 0
3.483095 -1.333951 30.248330 105 105 105 0
3.560026 -1.335010 30.272334 103 103 103 0
3.730895 -1.370533 31.077846 90 90 90 0
3.343463 -1.203647 27.293576 90 89 89 0
3.874086 -1.367324 31.005089 90 90 90 0
3.954197 -1.368761 31.037656 91 91 91 0
4.057118 -1.377889 31.244649 67 67 67 0
4.331140 -1.443713 32.737265 59 59 59 0
4.452929 -1.457322 33.045853 61 61 61 0
4.421177 -1.421093 32.224325 63 63 63 0
4.867460 -1.537093 34.854706 65 65 65 0
4.851098 -1.505513 34.138624 103 103 103 0
5.062490 -1.544488 35.022415 135 135 135 0
4.891631 -1.467489 33.276399 133 133 133 0
5.101601 -1.505390 34.135837 130 130 130 0
5.443806 -1.580460 35.838089 128 128 128 0
5.321478 -1.520422 34.476698 125 125 125 0
5.609027 -1.577539 35.771857 129 129 129 0
5.434143 -1.504840 34.123347 131 131 131 0
6.199807 -1.690856 38.341413 133 133 133 0
6.147035 -1.651442 37.447669 132 132 132 0
6.384649 -1.690054 38.323225 132 132 132 0
6.478379 -1.690012 38.322264 135 135 135 0
6.721835 -1.728472 39.194373 133 133 133 0
6.816461 -1.728117 39.186321 130 130 130 0
6.911397 -1.727849 39.180256 134 134 134 0
7.164912 -1.766691 40.061009 134 134 134 0
7.260578 -1.766087 40.047316 132 132 132 0
7.424641 -1.781914 40.406208 132 132 132 0
7.292197 -1.727099 39.163247 132 132 132 0
7.552002 -1.765403 40.031816 136 136 136 0
7.696999 -1.776230 40.277335 138 138 138 0
7.403769 -1.686935 38.252487 138 138 138 0
-10.374189 -2.290405 54.991725 89 89 89 0
-7.080811 -1.583866 38.027984 126 126 126 0
-5.883660 -1.333630 32.019916 150 150 150 0
-5.781485 -1.328179 31.889053 160 160 160 0
-5.702632 -1.328010 31.884997 161 161 161 0
-5.623004 -1.327654 31.876440 163 163 163 0
-5.545742 -1.327854 31.881241 161 161 161 0
-5.462101 -1.326510 31.848983 160 160 160 0
-5.386800 -1.327183 31.865129 161 161 161 0
-5.306925 -1.326731 31.854292 163 163 163 0
-5.228759 -1.326700 31.853541 167 167 167 0
-5.142013 -1.324458 31.799710 165 165 165 0
-5.065961 -1.324944 31.811374 162 162 162 0
-4.992651 -1.326173 31.840887 161 161 161 0
-4.909568 -1.324804 31.808024 162 162 162 0
-4.818057 -1.321080 31.718610 159 159 159 0
-4.736557 -1.320024 31.693255 158 158 158 0
-4.653113 -1.318382 31.653829 158 158 158 0
-4.562162 -1.314521 31.561138 158 158 158 0
-4.483089 -1.314009 31.548829 156 156 156 0
-4.402930 -1.313155 31.528321 160 160 160 0
-4.318144 -1.310865 31.473350 163 163 163 0
-4.238559 -1.310100 31.454981 157 157 157 0
-4.160426 -1.309764 31.446910 163 163 163 0
-4.082398 -1.309448 31.439337 159 159 159 0
-3.999082 -1.307392 31.389968 159 159 159 0
-3.918390 -1.306130 31.359663 158 158 158 0
-3.846954 -1.307964 31.403705 160 160 160 0
-3.766330 -1.306686 31.373009 158 158 158 0
-3.681621 -1.303907 31.306302 160 159 160 0
-3.604346 -1.303700 31.301310 159 159 159 0
-3.530011 -1.304569 31.322191 157 157 157 0
-3.447604 -1.302428 31.270782 157 157 157 0
-3.364991 -1.300110 31.215133 156 156 156 0
-3.290355 -1.300838 31.232603 149 149 149 0
-3.215195 -1.301388 31.245822 145 145 145 0
-3.139911 -1.301914 31.258444 136 136 136 0
-3.067954 -1.303880 31.305650 126 126 126 0
-2.694310 -1.174443 28.197909 125 125 125 0
-2.632771 -1.177818 28.278953 127 127 127 0
-2.571353 -1.181432 28.365726 124 124 124 0
-2.506600 -1.183672 28.419505 126 126 126 0
-2.439303 -1.184804 28.446686 127 127 127 0
-2.376047 -1.188024 28.523975 126 126 126 0
-2.307208 -1.188562 28.536900 129 129 129 0
-2.244053 -1.192153 28.623123 135 135 135 0
-2.170544 -1.190298 28.578587 137 137 137 0
-2.101477 -1.190837 28.591521 143 143 143 0
-2.277944 -1.335347 32.061144 146 146 146 0
-2.206406 -1.339604 32.163353 156 155 156 0
-2.129288 -1.340663 32.188780 168 168 168 0
-2.050002 -1.340386 32.182142 166 166 166 0
-1.968053 -1.338276 32.131473 168 168 168 0
-1.886257 -1.336099 32.079208 161 161 161 0
-1.802061 -1.331958 31.979795 161 161 161 0
-1.722663 -1.331148 31.960348 169 169 169 0
-1.642879 -1.329950 31.931567 162 162 162 0
-1.563720 -1.329162 31.912644 158 158 158 0
-1.485901 -1.329490 31.920536 155 155 155 0
-1.405757 -1.327659 31.876574 150 150 150 0
-1.328843 -1.328843 31.905003 148 148 148 0
-1.110535 -1.179944 28.329979 146 146 146 0
-1.172450 -1.328777 31.903401 140 140 140 0
-1.092588 -1.326714 31.853880 141 141 141 0
-1.015917 -1.328507 31.896926 143 143 143 0
-0.938308 -1.329270 31.915238 137 137 137 0
-0.860490 -1.329848 31.929133 130 130 131 0
-0.694746 -1.181069 28.356994 129 129 129 0
-0.624469 -1.179553 28.320593 113 113 113 0
-0.615602 -1.308155 31.408286 106 106 106 0
-0.548918 -1.333086 32.006873 110 110 110 0
-0.475919 -1.348436 32.375421 110 110 110 0
-0.401665 -1.365660 32.788960 149 149 149 0
-0.321741 -1.367400 32.830726 150 150 150 0
-0.240342 -1.361939 32.699617 141 141 141 0
-0.159200 -1.353197 32.489715 140 140 140 0
-0.078932 -1.341842 32.217097 142 142 142 0
0.000000 -1.333474 32.016174 138 138 138 0
0.077840 -1.323285 31.771548 146 146 146 0
0.154988 -1.317394 31.630103 147 147 147 0
0.231540 -1.312059 31.502016 146 146 146 0
0.307958 -1.308821 31.424274 145 145 145 0
0.382580 -1.300773 31.231039 148 148 148 0
0.458302 -1.298522 31.177006 148 147 148 0
0.532875 -1.294126 31.071449 145 145 145 0
0.608278 -1.292591 31.034591 149 149 149 0
0.681043 -1.286414 30.886296 148 148 148 0
0.753296 -1.280604 30.746790 150 150 150 0
0.827614 -1.279039 30.709224 143 143 143 0
0.900182 -1.275258 30.618434 146 146 146 0
0.971260 -1.270109 30.494815 144 144 144 0
1.042461 -1.265846 30.392458 148 148 148 0
1.115958 -1.264752 30.366199 150 150 150 0
1.191342 -1.265801 30.391375 150 150 150 0
1.261087 -1.261087 30.278211 151 151 151 0
1.332733 -1.258692 30.220693 147 147 147 0
1.407385 -1.259239 30.233833 147 147 147 0
1.481831 -1.259556 30.241443 144 144 144 0
1.553969 -1.257975 30.203481 145 145 145 0
1.626009 -1.256462 30.167147 142 142 142 0
1.699994 -1.256518 30.168489 143 143 143 0
1.775476 -1.257629 30.195164 139 139 139 0
1.850238 -1.258162 30.207975 136 136 136 0
1.922579 -1.257071 30.181769 134 134 134 0
1.999020 -1.258642 30.219498 130 130 130 0
2.075667 -1.260227 30.257541 128 128 128 0
2.153695 -1.262511 30.312389 126 126 126 0
2.227614 -1.262315 30.307676 119 119 119 0
2.304951 -1.264005 30.348262 118 118 118 0
2.386756 -1.267964 30.443310 116 116 116 0
2.468568 -1.271686 30.532689 117 117 117 0
2.545441 -1.272721 30.557518 115 115 115 0
2.625588 -1.275285 30.619096 114 114 114 0
2.582871 -1.219689 29.284251 113 113 113 0
2.431469 -1.117162 26.822607 112 112 112 0
2.497913 -1.117487 26.830425 111 111 111 0
2.644214 -1.152606 27.673611 107 107 107 0
2.793297 -1.187151 28.503035 107 107 107 0
2.862624 -1.186942 28.498001 108 108 108 0
2.934245 -1.187671 28.515503 110 110 110 0
2.918373 -1.153775 27.701690 107 107 107 0
3.166923 -1.223584 29.377762 111 111 111 0
3.147995 -1.189243 28.553243 110 110 110 0
3.313575 -1.224582 29.401728 107 107 107 0
3.484283 -1.260273 30.258644 105 105 105 0
3.561278 -1.261286 30.282972 101 101 101 0
3.742653 -1.298472 31.175788 91 91 91 0
3.373055 -1.146839 27.535145 94 94 94 0
4.014337 -1.338112 32.127551 98 98 98 0
3.944095 -1.289416 30.958360 101 101 101 0
4.158387 -1.333822 32.024545 77 77 77 0
4.362096 -1.373253 32.971250 67 67 67 0
4.454717 -1.376913 33.059126 73 73 73 0
4.576080 -1.389167 33.353350 65 65 65 0
4.770741 -1.422853 34.162129 65 65 65 0
4.729842 -1.386333 33.285303 122 122 122 0
4.936820 -1.422473 34.153024 140 140 140 0
5.020416 -1.422451 34.152489 134 134 134 0
5.105240 -1.422772 34.160190 137 137 137 0
5.444408 -1.492822 35.842055 133 133 133 0
5.377894 -1.451178 34.842203 134 134 134 0
5.610749 -1.490355 35.782837 131 131 131 0
5.832708 -1.525477 36.626109 135 135 135 0
5.495762 -1.415575 33.987395 128 128 128 0
6.148817 -1.560148 37.458527 131 131 131 0
6.384616 -1.596154 38.323024 131 131 131 0
6.477888 -1.596001 38.319360 135 135 135 0
6.722324 -1.632564 39.197227 133 133 133 0
6.815461 -1.631871 39.180575 134 134 134 0
6.757286 -1.595470 38.306612 138 138 138 0
7.166287 -1.668861 40.068702 136 136 136 0
6.940682 -1.594481 38.282855 134 134 134 0
7.440790 -1.686579 40.494095 131 131 131 0
7.525715 -1.683384 40.417372 131 131 131 0
7.613411 -1.680883 40.357332 132 132 132 0
7.713991 -1.681254 40.366251 134 134 134 0
7.812810 -1.681238 40.365847 136 136 136 0
-10.644024 -2.155752 54.993667 83 82 83 0
-10.509387 -2.155772 54.994177 106 106 106 0
-10.374391 -2.155718 54.992795 118 118 118 0
-8.916936 -1.877250 47.889022 127 127 127 0
-5.891548 -1.256864 32.062844 150 150 150 0
-5.781132 -1.249974 31.887103 156 156 156 0
-5.698881 -1.249070 31.864026 160 160 160 0
-5.622139 -1.249364 31.871537 159 159 159 0
-5.546596 -1.249937 31.886154 160 160 160 0
-5.459294 -1.247839 31.832621 159 159 159 0
-5.383169 -1.248271 31.843653 159 159 159 0
-5.305581 -1.248372 31.846225 162 162 162 0
-5.224943 -1.247748 31.830295 165 165 165 0
-5.142485 -1.246663 31.802631 160 160 160 0
-5.064753 -1.246708 31.803785 158 158 158 0
-4.994580 -1.248645 31.853189 162 162 162 0
-4.915437 -1.248365 31.846047 159 159 159 0
-4.825051 -1.245174 31.764652 158 158 158 0
-4.742958 -1.244055 31.736086 160 160 160 0
-4.661697 -1.243119 31.712224 161 161 161 0
-4.568384 -1.238884 31.604178 161 161 161 0
-4.485711 -1.237437 31.567282 159 159 159 0
-4.409201 -1.237670 31.573224 160 160 160 0
-4.323337 -1.235239 31.511203 159 159 159 0
-4.240618 -1.233634 31.470261 160 160 160 0
-4.166597 -1.234547 31.493556 159 159 159 0
-4.086681 -1.233715 31.472323 164 164 164 0
-4.004424 -1.232131 31.431903 160 160 160 0
-3.923437 -1.230882 31.400060 158 158 158 0
-3.850818 -1.232262 31.435247 161 161 161 0
-3.769449 -1.230841 31.398993 157 157 157 0
-3.686552 -1.228851 31.348235 158 158 158 0
-3.605773 -1.227497 31.313704 158 157 158 0
-3.532971 -1.228859 31.348456 156 156 156 0
-3.452552 -1.227574 31.315667 158 158 158 0
-3.369448 -1.225254 31.256471 157 157 157 0
-3.294355 -1.225807 31.270577 150 150 150 0
-3.222404 -1.227582 31.315878 142 142 142 0
-3.147637 -1.228346 31.335357 135 135 135 0
-3.071416 -1.228566 31.340975 132 132 132 0
-2.998548 -1.230173 31.381976 128 127 128 0
-2.633134 -1.108688 28.282856 130 130 130 0
-2.571888 -1.112168 28.371623 123 123 123 0
-2.508565 -1.114918 28.441782 127 127 127 0
-2.445150 -1.117783 28.514874 129 129 129 0
-2.369859 -1.115228 28.449685 128 128 128 0
-2.305291 -1.117717 28.513184 131 131 131 0
-2.242085 -1.121043 28.598027 138 138 138 0
-2.174091 -1.122111 28.625292 137 137 137 0
-2.352821 -1.254838 32.011167 150 150 150 0
-2.280625 -1.258276 32.098874 150 150 150 0
-2.207967 -1.261695 32.186105 166 166 166 0
-2.127938 -1.261000 32.168369 173 173 173 0
-2.050437 -1.261807 32.188960 164 164 164 0
-1.967488 -1.259192 32.122254 168 168 168 0
-1.884160 -1.256107 32.043538 167 167 167 0
-1.804690 -1.255436 32.026440 168 168 168 0
-1.723962 -1.253791 31.984453 166 166 166 0
-1.641813 -1.250905 31.910846 156 156 156 0
-1.563497 -1.250797 31.908096 153 153 153 0
-1.484199 -1.249852 31.883979 150 150 150 0
-1.404407 -1.248362 31.845965 146 145 146 0
-1.327401 -1.249318 31.870369 144 144 144 0
-1.248764 -1.248764 31.856214 140 140 140 0
-1.169730 -1.247712 31.829377 138 138 138 0
-1.090636 -1.246442 31.796981 137 137 137 0
-1.015746 -1.250149 31.891561 137 137 137 0
-0.937421 -1.249894 31.885052 137 137 137 0
-0.859748 -1.250542 31.901584 133 133 133 0
-0.693270 -1.109233 28.296753 126 126 126 0
-0.622373 -1.106441 28.225540 117 117 117 0
-0.613258 -1.226515 31.288655 108 108 108 0
-0.548313 -1.253286 31.971579 104 104 104 0
-0.474910 -1.266426 32.306794 112 112 112 0
-0.401291 -1.284131 32.758435 144 144 144 0
-0.322512 -1.290048 32.909386 154 154 154 0
-0.240941 -1.285019 32.781097 149 149 149 0
-0.159139 -1.273113 32.477377 138 138 138 0
-0.079082 -1.265306 32.278211 145 145 145 0
0.000000 -1.254247 31.996107 142 142 142 0
0.078027 -1.248428 31.847643 142 141 142 0
0.154911 -1.239291 31.614577 144 144 144 0
0.231697 -1.235719 31.523450 142 142 142 0
0.307828 -1.231313 31.411045 145 145 145 0
0.383493 -1.227178 31.305564 147 147 147 0
0.458439 -1.222504 31.186334 148 148 148 0
0.534380 -1.221441 31.159209 148 148 148 0
0.608293 -1.216587 31.035380 149 149 149 0
0.682718 -1.213721 30.962266 143 143 143 0
0.753836 -1.206137 30.768804 143 143 143 0
0.827925 -1.204254 30.720773 145 145 145 0
0.902165 -1.202887 30.685890 141 141 141 0
0.974059 -1.198842 30.582696 146 146 146 0
1.043686 -1.192784 30.428173 146 146 146 0
1.117283 -1.191768 30.402247 147 147 147 0
1.193081 -1.193081 30.435750 148 148 148 0
1.262271 -1.188020 30.306630 148 148 148 0
1.334188 -1.185945 30.253706 150 150 150 0
1.407720 -1.185449 30.241034 148 148 148 0
1.484478 -1.187582 30.295462 144 144 144 0
1.556534 -1.185931 30.253332 144 144 144 0
1.627525 -1.183655 30.195276 143 143 143 0
1.703176 -1.184818 30.224956 141 141 141 0
1.778679 -1.185786 30.249635 140 140 140 0
1.852415 -1.185546 30.243509 135 135 135 0
1.924101 -1.184062 30.205665 133 133 133 0
2.000857 -1.185693 30.247265 128 128 128 0
2.080566 -1.188895 30.328947 127 127 127 0
2.156767 -1.189941 30.355625 124 124 124 0
2.230997 -1.189865 30.353704 122 122 122 0
2.306465 -1.190433 30.368198 118 118 118 0
2.388524 -1.194262 30.465865 116 116 116 0
2.471450 -1.198279 30.568330 116 116 116 0
2.546337 -1.198276 30.568267 114 114 114 0
2.624302 -1.199681 30.604109 114 114 114 0
2.710195 -1.204531 30.727839 113 113 113 0
2.505735 -1.083561 27.641869 111 111 111 0
2.497073 -1.051399 26.821410 112 112 112 0
2.801709 -1.149419 29.321914 109 109 109 0
2.793599 -1.117440 28.506117 108 108 108 0
2.863723 -1.117550 28.508940 108 108 108 0
2.935376 -1.118238 28.526488 110 110 110 0
3.006725 -1.118781 28.540340 109 109 109 0
3.167291 -1.151742 29.381180 109 109 109 0
3.240378 -1.152134 29.391181 110 110 110 0
3.314893 -1.153006 29.413428 106 106 106 0
3.485222 -1.186459 30.266802 102 102 102 0
3.561547 -1.187182 30.285263 98 98 98 0
3.636307 -1.187366 30.289940 92 92 92 0
3.804314 -1.217381 31.055627 89 89 89 0
3.898282 -1.222990 31.198735 96 96 96 0
3.965430 -1.220132 31.125827 102 102 102 0
3.938401 -1.188951 30.330386 70 70 70 0
4.471995 -1.325036 33.801929 66 66 66 0
4.330861 -1.259887 32.139967 74 74 74 0
4.423169 -1.263763 32.238839 77 77 77 0
4.869670 -1.366925 34.870535 68 68 68 0
4.729906 -1.304802 33.285758 139 139 139 0
4.813775 -1.305430 33.301796 152 152 152 0
5.020763 -1.338870 34.154852 146 146 146 0
5.234054 -1.372867 35.022105 139 139 139 0
5.317140 -1.372165 35.004213 134 134 134 0
5.667480 -1.439360 36.718369 134 134 134 0
5.609183 -1.402296 35.772848 136 136 136 0
5.694800 -1.401797 35.760125 134 134 134 0
6.060643 -1.469247 37.480786 133 133 133 0
6.149176 -1.468460 37.460715 135 135 135 0
6.094457 -1.433990 36.581374 135 135 135 0
6.479421 -1.502474 38.328429 139 139 139 0
6.725994 -1.537370 39.218622 135 135 135 0
6.973440 -1.571479 40.088760 135 135 135 0
7.068461 -1.570769 40.070641 135 135 135 0
7.168388 -1.571153 40.080446 132 132 132 0
7.366827 -1.592827 40.633352 135 135 135 0
7.200519 -1.536111 39.186498 132 132 132 0
7.459690 -1.570461 40.062780 134 134 134 0
7.556865 -1.570258 40.057593 133 133 133 0
7.737870 -1.587255 40.491209 131 131 131 0
7.834337 -1.586701 40.477071 136 136 136 0
-9.291527 -1.742161 47.405750 95 95 95 0
-10.644282 -2.021066 54.995000 116 116 116 0
-10.509559 -2.021069 54.995077 123 123 123 0
-10.374581 -2.021022 54.993805 123 123 123 0
-9.583459 -1.891472 51.468630 129 129 129 0
-5.897216 -1.179443 32.093692 144 144 144 0
-5.781298 -1.171885 31.888019 157 157 157 0
-5.699876 -1.171207 31.869589 157 157 157 0
-5.619124 -1.170651 31.854443 156 156 156 0
-5.543059 -1.171069 31.865819 159 159 159 0
-5.457783 -1.169525 31.823809 160 160 160 0
-5.379406 -1.169436 31.821389 159 159 159 0
-5.301620 -1.169475 31.822452 159 159 159 0
-5.224590 -1.169684 31.828148 160 160 160 0
-5.139446 -1.168056 31.783832 161 161 161 0
-5.064365 -1.168700 31.801353 155 155 155 0
-4.988925 -1.169279 31.817121 154 154 154 0
-4.916727 -1.170649 31.854403 160 160 160 0
-4.834210 -1.169567 31.824950 159 159 159 0
-4.750275 -1.168100 31.785044 160 159 160 0
-4.668575 -1.167144 31.759013 162 162 162 0
-4.578399 -1.164000 31.673462 160 160 160 0
-4.491633 -1.161629 31.608958 160 160 160 0
-4.414103 -1.161606 31.608330 157 157 157 0
-4.328077 -1.159306 31.545754 160 160 160 0
-4.243856 -1.157415 31.494297 157 157 157 0
-4.169040 -1.158067 31.512019 160 160 160 0
-4.090657 -1.157733 31.502944 161 161 161 0
-4.006730 -1.155788 31.450003 159 159 159 0
-3.926361 -1.154812 31.423457 159 159 159 0
-3.851645 -1.155493 31.441998 157 157 157 0
-3.773312 -1.155095 31.431170 158 158 158 0
-3.690362 -1.153238 31.380628 157 157 157 0
-3.612502 -1.152926 31.372139 157 157 157 0
-3.537807 -1.153633 31.391363 159 159 159 0
-3.460710 -1.153570 31.389663 155 155 155 0
-3.374463 -1.150385 31.302995 158 158 158 0
-3.298315 -1.150575 31.308166 149 149 149 0
-3.224413 -1.151576 31.335402 147 147 147 0
-3.150680 -1.152688 31.365659 135 135 135 0
-3.077671 -1.154127 31.404809 129 129 129 0
-2.696897 -1.037268 28.224984 128 128 128 0
-2.937183 -1.159414 31.548687 128 128 128 0
-2.579050 -1.045561 28.450631 129 129 129 0
-2.795567 -1.164819 31.695767 132 132 132 0
-2.724082 -1.167464 31.767716 131 131 131 0
-2.375994 -1.048233 28.523334 125 124 125 0
-2.306818 -1.048554 28.532072 135 135 135 0
-2.243775 -1.051770 28.619580 137 137 137 0
-2.419946 -1.170941 31.862350 140 140 140 0
-2.354674 -1.177337 32.036377 151 151 151 0
-2.281401 -1.180035 32.109789 156 156 156 0
-2.211092 -1.184514 32.231665 170 170 170 0
-2.128805 -1.182669 32.181475 167 167 167 0
-2.050979 -1.183257 32.197480 165 165 165 0
-1.966901 -1.180141 32.112675 165 165 165 0
-1.884471 -1.177794 32.048828 166 166 166 0
-1.803023 -1.175885 31.996867 166 166 166 0
-1.722337 -1.174321 31.954304 158 158 158 0
-1.639807 -1.171291 31.871861 150 150 150 0
-1.562156 -1.171617 31.880728 148 148 148 0
-1.480997 -1.169208 31.815180 142 142 142 0
-1.402582 -1.168818 31.804570 143 143 143 0
-1.325013 -1.169129 31.813045 141 141 141 0
-1.247470 -1.169503 31.823219 137 137 137 0
-1.168096 -1.168096 31.784913 134 134 134 0
-1.089617 -1.167447 31.767272 136 136 136 0
-1.012740 -1.168546 31.797183 137 137 137 0
-0.935748 -1.169686 31.828178 135 135 135 0
-0.760592 -1.037171 28.222353 133 133 133 0
-0.782658 -1.173988 31.945242 130 130 130 0
-0.622866 -1.038110 28.247893 119 119 119 0
-0.609558 -1.142922 31.099911 105 105 105 0
-0.545146 -1.168170 31.786938 105 105 105 0
-0.471679 -1.179198 32.087022 103 103 103 0
-0.400540 -1.201620 32.697138 130 130 130 0
-0.322204 -1.208265 32.877966 158 158 158 0
-0.240978 -1.204888 32.786059 141 141 141 0
-0.159526 -1.196443 32.556264 144 144 144 0
-0.079105 -1.186580 32.287897 144 144 144 0
0.000000 -1.177958 32.053288 143 143 143 0
0.078127 -1.171911 31.888736 141 141 141 0
0.155201 -1.164006 31.673629 144 144 144 0
0.231934 -1.159670 31.555655 143 143 143 0
0.308207 -1.155777 31.449717 143 143 143 0
0.383223 -1.149668 31.283487 147 147 147 0
0.459368 -1.148420 31.249514 147 147 147 0
0.534202 -1.144719 31.148812 149 149 149 0
0.608783 -1.141469 31.060381 147 147 147 0
0.682938 -1.138230 30.972235 148 148 148 0
0.756356 -1.134534 30.871680 143 143 143 0
0.829181 -1.130702 30.767395 142 142 142 0
0.902849 -1.128562 30.709161 143 143 143 0
0.975067 -1.125078 30.614362 142 142 142 0
1.044957 -1.119597 30.465229 146 146 146 0
1.119391 -1.119391 30.459606 142 142 142 0
1.193905 -1.119286 30.456768 144 144 144 0
1.264262 -1.115525 30.354425 147 147 147 0
1.335631 -1.113026 30.286411 147 147 147 0
1.410643 -1.113666 30.303827 144 144 144 0
1.486128 -1.114596 30.329140 146 146 146 0
1.558335 -1.113097 30.288343 144 144 144 0
1.629222 -1.110833 30.226745 142 142 142 0
1.704826 -1.111843 30.254240 141 141 141 0
1.781448 -1.113405 30.296739 139 139 139 0
1.855684 -1.113411 30.296885 134 134 134 0
1.927800 -1.112192 30.263731 132 132 132 0
2.003333 -1.112963 30.284698 131 131 131 0
2.082368 -1.115554 30.355215 128 128 128 0
2.158274 -1.116349 30.376831 127 127 127 0
2.233324 -1.116662 30.385361 123 123 123 0
2.309300 -1.117403 30.405533 118 118 118 0
2.390712 -1.120646 30.493775 116 116 116 0
2.474272 -1.124669 30.603237 116 116 116 0
2.550156 -1.125069 30.614112 118 118 118 0
2.299178 -0.985362 26.812567 115 115 115 0
2.708565 -1.128569 30.709358 113 113 113 0
2.580976 -1.046342 28.471880 113 113 113 0
2.574576 -1.016280 27.653876 111 111 111 0
2.802446 -1.077864 29.329627 108 108 108 0
2.711926 -1.016972 27.672716 109 109 109 0
2.864433 -1.047963 28.516009 107 107 107 0
2.935114 -1.048255 28.523944 107 107 107 0
3.095043 -1.079666 29.378673 110 110 110 0
3.167018 -1.079665 29.378649 109 109 109 0
3.241684 -1.080561 29.403033 107 107 107 0
3.315089 -1.081007 29.415166 103 103 103 0
3.581599 -1.143064 31.103772 105 105 105 0
3.464463 -1.082645 29.459723 95 95 95 0
3.749961 -1.147947 31.236663 96 96 96 0
3.827916 -1.148375 31.248290 90 90 90 0
3.903763 -1.148166 31.242602 93 93 93 0
3.950389 -1.139535 31.007760 94 94 94 0
4.050608 -1.146399 31.194519 69 69 69 0
4.307990 -1.196664 32.562283 62 62 62 0
4.440272 -1.210983 32.951924 76 76 76 0
4.581431 -1.227169 33.392354 78 78 78 0
4.753427 -1.250902 34.038147 94 94 94 0
4.730361 -1.223369 33.288958 151 151 151 0
4.814885 -1.224123 33.309481 156 156 156 0
5.019131 -1.254783 34.143748 151 151 151 0
5.106565 -1.255713 34.169051 154 154 154 0
5.190552 -1.255779 34.170852 136 136 136 0
5.413375 -1.288899 35.072076 137 137 137 0
5.616803 -1.316438 35.821449 136 136 136 0
5.976984 -1.379304 37.532081 136 136 136 0
6.062593 -1.377862 37.492847 139 139 139 0
6.298531 -1.410119 38.370581 137 137 137 0
6.242500 -1.377022 37.469986 135 135 135 0
6.478332 -1.408333 38.321986 135 135 135 0
6.423051 -1.376368 37.452191 137 137 137 0
6.819815 -1.440806 39.205606 139 139 139 0
6.916554 -1.440949 39.209489 134 134 134 0
7.170213 -1.473331 40.090650 136 136 136 0
7.268759 -1.473397 40.092439 132 132 132 0
7.484851 -1.496970 40.733882 134 134 134 0
7.578192 -1.495696 40.699205 135 135 135 0
7.659026 -1.492018 40.599129 136 136 136 0
7.654178 -1.471957 40.053262 135 135 135 0
7.865800 -1.493506 40.639626 129 129 129 0
-6.775927 -1.185787 34.571056 96 96 96 0
-10.644633 -1.886391 54.996811 116 115 116 0
-10.509723 -1.886361 54.995935 125 125 125 0
-10.374877 -1.886341 54.995373 125 125 125 0
-10.240272 -1.886366 54.996089 128 128 128 0
-5.908990 -1.103011 32.157767 145 145 145 0
-5.789073 -1.095230 31.930905 155 155 155 0
-5.695838 -1.092353 31.847012 157 157 157 0
-5.616441 -1.092086 31.839233 159 159 159 0
-5.537289 -1.091860 31.832645 157 157 157 0
-5.454295 -1.090859 31.803467 157 157 157 0
-5.378132 -1.091215 31.813854 159 159 159 0
-5.299946 -1.091165 31.812402 160 160 160 0
-5.222618 -1.091293 31.816132 158 158 158 0
-5.137354 -1.089742 31.770895 159 159 159 0
-5.057312 -1.089267 31.757064 158 158 158 0
-4.986387 -1.090772 31.800937 158 158 158 0
-4.916608 -1.092580 31.853635 161 161 161 0
-4.840158 -1.092939 31.864111 164 164 164 0
-4.761624 -1.092832 31.860982 158 158 158 0
-4.673128 -1.090396 31.789984 161 161 161 0
-4.584299 -1.087800 31.714278 159 159 159 0
-4.497108 -1.085509 31.647489 160 160 160 0
-4.418156 -1.085161 31.637354 162 162 162 0
-4.333412 -1.083353 31.584638 156 156 156 0
-4.250947 -1.082059 31.546916 160 160 160 0
-4.170580 -1.081262 31.523661 158 158 158 0
-4.090400 -1.080483 31.500966 163 163 163 0
-4.011119 -1.079917 31.484454 160 160 160 0
-3.931107 -1.079128 31.461443 161 161 161 0
-3.853914 -1.079096 31.460522 159 159 159 0
-3.780919 -1.080263 31.494539 157 157 157 0
-3.694437 -1.077544 31.415280 156 156 156 0
-3.613706 -1.076423 31.382593 160 160 160 0
-3.543146 -1.078349 31.438744 157 157 157 0
-3.463788 -1.077623 31.417580 158 158 158 0
-3.378276 -1.074906 31.338371 159 159 159 0
-3.301268 -1.074832 31.336197 153 153 153 0
-3.227793 -1.075931 31.368246 142 142 142 0
-3.154776 -1.077241 31.406436 136 136 136 0
-3.079583 -1.077854 31.424317 128 128 128 0
-2.708013 -0.972107 28.341315 131 131 131 0
-2.938987 -1.082785 31.568061 129 128 129 0
-2.580869 -0.976545 28.470706 128 128 128 0
-2.799528 -1.088705 31.740676 133 133 133 0
-2.727425 -1.090970 31.806700 143 143 143 0
-2.379478 -0.979785 28.565158 131 131 131 0
-2.569128 -1.089933 31.776477 128 128 128 0
-2.497174 -1.092514 31.851715 142 142 142 0
-2.429443 -1.097168 31.987399 153 153 153 0
-2.357628 -1.100226 32.076568 150 150 150 0
-2.284682 -1.102950 32.155975 162 162 162 0
-2.211594 -1.105797 32.238984 168 168 168 0
-2.129848 -1.104366 32.197251 166 166 166 0
-2.049719 -1.103695 32.177698 167 167 167 0
-1.968719 -1.102483 32.142348 164 164 164 0
-1.884477 -1.099278 32.048923 160 160 160 0
-1.803424 -1.097736 32.003967 161 161 161 0
-1.718270 -1.093444 31.878844 152 152 152 0
-1.637297 -1.091531 31.823065 149 149 149 0
-1.558837 -1.091186 31.813008 149 149 149 0
-1.478602 -1.089496 31.763744 148 148 148 0
-1.399229 -1.088289 31.728547 145 145 145 0
-1.320859 -1.087766 31.713293 140 140 140 0
-1.104084 -0.966074 28.165420 140 140 140 0
-1.164753 -1.087103 31.693972 135 135 135 0
-1.087057 -1.087057 31.692636 133 133 133 0
-1.010871 -1.088630 31.738481 134 133 134 0
-0.934506 -1.090257 31.785917 134 134 134 0
-0.857983 -1.091978 31.836092 131 131 131 0
-0.691374 -0.967923 28.219341 126 126 126 0
-0.624195 -0.970970 28.308161 115 115 115 0
-0.608089 -1.064155 31.024940 109 109 109 0
-0.538413 -1.076826 31.394345 110 110 110 0
-0.472569 -1.102661 32.147548 107 107 107 0
-0.398684 -1.116314 32.545600 113 113 113 0
-0.321850 -1.126474 32.841819 154 154 154 0
-0.241305 -1.126091 32.830655 147 147 147 0
-0.159690 -1.117830 32.589797 142 142 142 0
-0.079287 -1.110020 32.362098 139 139 139 0
0.000000 -1.103555 32.173613 139 139 139 0
0.078147 -1.094058 31.896723 140 140 140 0
0.155653 -1.089568 31.765819 140 140 140 0
0.232235 -1.083764 31.596615 142 142 142 0
0.308794 -1.080778 31.509554 145 145 145 0
0.384406 -1.076338 31.380102 148 148 148 0
0.459635 -1.072481 31.267673 146 146 146 0
0.535121 -1.070241 31.202375 147 147 147 0
0.610049 -1.067587 31.124971 145 145 145 0
0.683732 -1.063584 31.008273 146 146 146 0
0.757931 -1.061103 30.935950 146 146 146 0
0.829912 -1.056252 30.794505 144 144 144 0
0.904326 -1.055047 30.759390 145 145 145 0
0.977078 -1.052238 30.677501 143 143 143 0
1.047158 -1.047158 30.529401 143 143 143 0
1.122275 -1.047456 30.538083 144 144 144 0
1.196348 -1.046805 30.519089 141 141 141 0
1.266919 -1.043345 30.418227 142 142 142 0
1.337916 -1.040601 30.338223 140 140 140 0
1.412190 -1.040561 30.337065 142 142 142 0
1.487805 -1.041463 30.363361 142 142 142 0
1.560647 -1.040432 30.333285 141 141 141 0
1.630249 -1.037431 30.245815 140 140 140 0
1.706984 -1.039033 30.292521 140 140 140 0
1.783110 -1.040148 30.325002 137 137 137 0
1.857598 -1.040255 30.328124 137 137 137 0
1.929325 -1.038868 30.287684 134 134 134 0
2.005024 -1.039642 30.310270 133 133 133 0
2.084545 -1.042273 30.386958 132 132 132 0
2.161230 -1.043352 30.418439 128 128 128 0
2.236727 -1.043806 30.431661 124 124 124 0
2.313370 -1.044748 30.459122 119 119 119 0
2.392130 -1.046557 30.511863 117 117 117 0
2.475013 -1.050005 30.612403 117 117 117 0
2.553807 -1.051567 30.657943 115 115 115 0
2.627829 -1.051132 30.645242 116 116 116 0
2.714004 -1.055446 30.771025 111 111 111 0
2.505950 -0.948197 27.644240 111 111 111 0
2.652216 -0.977132 28.487816 112 112 112 0
2.724112 -0.977887 28.509811 108 108 108 0
2.632732 -0.921456 26.864614 108 108 108 0
3.133412 -1.069946 31.193747 108 108 108 0
2.698199 -0.899400 26.221561 106 106 106 0
3.270598 -1.064846 31.045071 110 110 110 0
3.078687 -0.979582 28.559252 108 108 108 0
3.240995 -1.008310 29.396783 105 105 105 0
3.315281 -1.008998 29.416866 104 104 104 0
3.486320 -1.038478 30.276336 99 99 99 0
3.563189 -1.039263 30.299222 100 100 100 0
3.650069 -1.042877 30.404569 92 92 92 0
3.827568 -1.071719 31.245454 95 95 95 0
3.903771 -1.071623 31.242662 99 99 99 0
3.969215 -1.068635 31.155530 96 96 96 0
4.172347 -1.102129 32.132050 75 75 75 0
4.466670 -1.158026 33.761679 73 73 73 0
4.437990 -1.129670 32.934988 66 66 66 0
4.564573 -1.141143 33.269480 77 77 77 0
4.516419 -1.109296 32.340989 104 104 104 0
4.607361 -1.112122 32.423371 150 150 150 0
5.062513 -1.201274 35.022572 163 163 163 0
5.020114 -1.171360 34.150434 157 157 157 0
5.104953 -1.171629 34.158266 149 149 149 0
5.453931 -1.231533 35.904749 146 146 146 0
