ply
format ascii 1.0
element vertex 1101
property float x
property float y
property float z
property uchar red
property uchar green
property uchar blue
property uchar alpha
end_header
1.388933 -1.822974 35.431956 132 132 132 0
1.481230 -1.829755 35.563757 134 134 134 0
1.569862 -1.831506 35.597781 131 131 131 0
1.653843 -1.827931 35.528307 129 129 129 0
1.741347 -1.828414 35.537687 128 128 128 0
1.832795 -1.832795 35.622847 132 132 132 0
1.921616 -1.834270 35.651505 125 125 125 0
2.007683 -1.833102 35.628805 123 123 123 0
2.099779 -1.837306 35.710521 119 119 119 0
2.192694 -1.841863 35.799079 115 115 115 0
2.289121 -1.848906 35.935968 117 117 117 0
2.059218 -1.601614 31.129527 116 116 116 0
2.461857 -1.846393 35.887125 115 115 115 0
2.545319 -1.843162 35.824337 110 110 110 0
2.649744 -1.854821 36.050935 113 113 113 0
2.765636 -1.873495 36.413904 127 127 127 0
2.881417 -1.890930 36.752762 151 151 151 0
2.982628 -1.898036 36.890890 138 138 138 0
3.068273 -1.895110 36.834007 136 136 136 0
3.161208 -1.896725 36.865399 137 137 137 0
3.235434 -1.887336 36.682924 134 134 134 0
3.301625 -1.873895 36.421680 136 136 136 0
3.389109 -1.872929 36.402891 146 146 146 0
3.479021 -1.873319 36.410472 149 149 149 0
3.565978 -1.872139 36.387535 157 157 157 0
3.646920 -1.867935 36.305822 155 155 155 0
3.742375 -1.871188 36.369050 151 151 151 0
3.828642 -1.869802 36.342113 148 148 148 0
3.915302 -1.868667 36.320057 147 147 147 0
4.002599 -1.867879 36.304752 149 149 149 0
4.099862 -1.871676 36.378549 146 146 146 0
4.185018 -1.869902 36.344055 142 142 142 0
4.274359 -1.870032 36.346587 137 137 137 0
4.356709 -1.867161 36.290783 132 132 132 0
3.790319 -1.591934 30.941383 126 126 126 0
4.547087 -1.872330 36.391249 127 127 127 0
4.633172 -1.871089 36.367126 130 130 130 0
4.735014 -1.876137 36.465257 136 136 136 0
4.847036 -1.884959 36.636707 137 137 137 0
4.934112 -1.883933 36.616783 143 143 143 0
5.024103 -1.884039 36.618826 135 135 135 0
5.128617 -1.889490 36.724789 141 141 141 0
5.230132 -1.893668 36.805993 139 139 139 0
5.093263 -1.812856 35.235302 131 131 131 0
5.302522 -1.855883 36.071581 123 123 123 0
5.132125 -1.766797 34.340083 124 124 124 0
5.575823 -1.888585 36.707193 127 127 127 0
5.681635 -1.893878 36.810077 133 133 133 0
5.782197 -1.897283 36.876258 137 137 137 0
5.892250 -1.903650 37.000000 137 137 137 0
6.123493 -1.948384 37.869465 138 138 138 0
6.215240 -1.948060 37.863174 142 142 142 0
6.305599 -1.947317 37.848732 136 136 136 0
6.696891 -2.038184 39.614856 137 137 137 0
6.491871 -1.947561 37.853477 139 139 139 0
6.429102 -1.901565 36.959481 134 134 134 0
6.831683 -1.992574 38.728362 134 134 134 0
6.565000 -1.888562 36.706740 132 132 132 0
7.505219 -2.129859 41.396686 129 129 129 0
6.738649 -1.886822 36.672917 128 128 128 0
8.042399 -2.222242 43.192261 127 127 127 0
6.640925 -1.811161 35.202360 124 124 124 0
7.025681 -1.891529 36.764421 126 126 126 0
8.540310 -2.270209 44.124565 123 123 123 0
-7.320454 -1.830114 37.349257 159 159 159 0
-7.214899 -1.826557 37.276668 158 158 158 0
-7.120137 -1.825676 37.258698 163 163 163 0
-7.030259 -1.826041 37.266147 163 163 163 0
-6.933838 -1.824694 37.238656 166 166 166 0
-6.836863 -1.823163 37.207417 167 167 167 0
-6.753077 -1.825156 37.248080 165 165 165 0
-6.657622 -1.824006 37.224613 168 168 168 0
-6.555476 -1.820966 37.162563 169 169 169 0
-6.473890 -1.823631 37.216959 160 160 160 0
-5.902681 -1.686480 34.417963 135 135 135 0
-5.793900 -1.679391 34.273294 134 134 134 0
-5.681959 -1.671164 34.105394 135 135 135 0
-5.580083 -1.665696 33.993803 136 135 136 0
-5.478664 -1.660201 33.881660 135 135 135 0
-5.380809 -1.655633 33.788438 136 135 136 0
-5.274445 -1.648264 33.638042 139 139 139 0
-5.179480 -1.644279 33.556723 139 139 139 0
-5.086666 -1.640860 33.486939 140 140 140 0
-4.986561 -1.634938 33.366080 140 140 140 0
-4.894489 -1.631496 33.295840 142 142 142 0
-4.808114 -1.629869 33.262637 141 141 141 0
-4.711768 -1.624748 33.158114 143 143 143 0
-4.622029 -1.621764 33.097233 145 144 144 0
-4.536354 -1.620127 33.063808 146 146 146 0
-4.449904 -1.618147 33.023409 148 148 148 0
-4.365827 -1.616973 32.999447 152 152 152 0
-4.284452 -1.616774 32.995393 154 154 154 0
-4.200530 -1.615588 32.971192 154 154 154 0
-4.119412 -1.615455 32.968480 155 155 155 0
-4.038950 -1.615580 32.971016 154 154 154 0
-3.957466 -1.615292 32.965147 152 152 152 0
-3.878812 -1.616172 32.983093 148 148 148 0
-3.799181 -1.616673 32.993318 144 144 144 0
-3.720322 -1.617531 33.010842 140 140 140 0
-3.643060 -1.619138 33.043625 138 138 138 0
-3.566739 -1.621245 33.086634 136 136 136 0
-3.489855 -1.623188 33.126293 127 127 127 0
-3.411521 -1.624534 33.153755 123 123 123 0
-3.338963 -1.628762 33.240047 112 112 112 0
-3.267463 -1.633731 33.341454 110 110 110 0
-2.882804 -1.478361 30.170634 105 105 105 0
-2.816806 -1.482530 30.255705 99 99 99 0
-2.752444 -1.487808 30.363424 94 94 94 0
-2.682130 -1.490072 30.409636 96 96 96 0
-2.623667 -1.499238 30.596695 108 108 108 0
-2.560344 -1.506085 30.736420 113 113 113 0
-2.756767 -1.670768 34.097303 122 122 122 0
-2.686124 -1.678828 34.261790 125 125 125 0
-2.602493 -1.679028 34.265878 130 130 130 0
-2.518185 -1.678790 34.261024 127 127 127 0
-2.437856 -1.681280 34.311833 124 124 124 0
-2.112485 -1.508918 30.794243 115 115 115 0
-2.021450 -1.497370 30.558578 108 108 108 0
-2.174915 -1.673012 34.143100 112 112 112 0
-2.108000 -1.686400 34.416325 125 125 125 0
-2.042941 -1.702451 34.743896 136 136 136 0
-1.967951 -1.711262 34.923707 146 146 146 0
-1.883977 -1.712706 34.953183 149 149 149 0
-1.787803 -1.702670 34.748364 142 142 142 0
-1.701611 -1.701611 34.726759 150 150 150 0
-1.613709 -1.698641 34.666146 152 152 152 0
-1.523879 -1.693199 34.555085 154 154 154 0
-1.435736 -1.689101 34.471458 150 150 150 0
-1.350696 -1.688371 34.456543 150 150 150 0
-1.262258 -1.683010 34.347152 153 153 153 0
-1.174795 -1.678278 34.250579 150 150 150 0
-1.091138 -1.678673 34.258640 147 147 147 0
-1.005213 -1.675355 34.190927 145 145 145 0
-0.919999 -1.672726 34.137257 144 144 144 0
-0.834190 -1.668381 34.048584 141 141 141 0
-0.750273 -1.667272 34.025967 140 140 140 0
-0.666257 -1.665642 33.992685 136 136 136 0
-0.582795 -1.665128 33.982198 133 133 133 0
-0.499187 -1.663955 33.958275 133 133 133 0
-0.416415 -1.665659 33.993050 127 127 127 0
-0.333119 -1.665596 33.991749 123 123 123 0
-0.250074 -1.667163 34.023733 115 115 115 0
-0.167090 -1.670904 34.100081 109 109 109 0
-0.074154 -1.483078 30.266905 101 101 101 0
0.000000 -1.480138 30.206897 102 102 102 0
0.074303 -1.486062 30.327786 96 96 96 0
0.148600 -1.486000 30.326525 98 98 98 0
0.224265 -1.495101 30.512266 96 96 96 0
0.295769 -1.478846 30.180534 91 91 91 0
0.371617 -1.486468 30.336079 96 96 96 0
0.456274 -1.520915 31.039081 107 107 107 0
0.611084 -1.745956 35.631747 127 127 127 0
0.700851 -1.752128 35.757706 132 132 132 0
0.788337 -1.751860 35.752254 130 130 130 0
0.877344 -1.754687 35.809940 136 136 136 0
0.964362 -1.753385 35.783364 137 137 137 0
1.048501 -1.747502 35.663313 134 134 134 0
1.135428 -1.746812 35.649234 133 133 133 0
1.223683 -1.748119 35.675898 131 131 131 0
1.308308 -1.744411 35.600226 129 129 129 0
1.395027 -1.743784 35.587430 132 132 132 0
1.482510 -1.744130 35.594490 130 130 130 0
1.572863 -1.747625 35.665826 130 130 130 0
1.657855 -1.745111 35.614508 130 130 130 0
1.743622 -1.743622 35.584116 131 131 131 0
1.835252 -1.747859 35.670595 129 129 129 0
1.925135 -1.750123 35.716790 129 129 129 0
2.010707 -1.748441 35.682475 128 128 128 0
2.103438 -1.752865 35.772755 124 124 124 0
2.197823 -1.758258 35.882825 131 131 131 0
2.290201 -1.761693 35.952927 126 126 126 0
2.378206 -1.761634 35.951721 127 127 127 0
2.474522 -1.767516 36.071747 122 122 122 0
2.557872 -1.764050 36.001014 113 113 113 0
2.646072 -1.764048 36.000983 116 116 116 0
2.737406 -1.766068 36.042213 118 118 118 0
2.872758 -1.795474 36.642317 130 130 130 0
2.979968 -1.806041 36.857979 141 141 141 0
3.074859 -1.808741 36.913076 134 134 134 0
3.161976 -1.806843 36.874355 129 129 129 0
3.248361 -1.804645 36.829493 128 128 128 0
3.316152 -1.792515 36.581930 128 128 128 0
3.397641 -1.788232 36.494532 138 138 138 0
3.479245 -1.784228 36.412820 146 146 146 0
3.567590 -1.783795 36.403982 154 154 154 0
3.646920 -1.778985 36.305822 158 158 158 0
3.740373 -1.781130 36.349589 155 155 155 0
3.830514 -1.781635 36.359890 149 149 149 0
3.917188 -1.780540 36.337551 145 145 145 0
3.999610 -1.777604 36.277638 146 146 146 0
4.095452 -1.780631 36.339415 143 143 143 0
4.185175 -1.780925 36.345416 140 140 140 0
4.272602 -1.780251 36.331651 134 134 134 0
4.357168 -1.778436 36.294613 130 130 130 0
4.452127 -1.780851 36.343897 127 127 127 0
4.546323 -1.782872 36.385134 129 129 129 0
4.637276 -1.783568 36.399340 135 135 135 0
4.741129 -1.789105 36.512353 137 137 137 0
4.845495 -1.794628 36.625054 148 148 148 0
4.940633 -1.796594 36.665180 151 151 151 0
5.027705 -1.795609 36.645081 145 145 145 0
5.128564 -1.799496 36.724413 139 139 139 0
5.207476 -1.795681 36.646559 137 137 137 0
4.965899 -1.683355 34.354193 135 135 135 0
5.047073 -1.682358 34.333832 127 127 127 0
5.388847 -1.766835 36.057861 125 125 125 0
5.480515 -1.767908 36.079753 126 126 126 0
5.035974 -1.598722 32.626974 125 125 125 0
5.524189 -1.726309 35.230799 134 134 134 0
5.867182 -1.805287 36.842587 138 138 138 0
5.839022 -1.769401 36.110217 138 138 138 0
5.637581 -1.682860 34.344081 136 136 136 0
6.452862 -1.897900 38.732663 141 141 141 0
6.546310 -1.897481 38.724103 139 139 139 0
6.791754 -1.940501 39.602062 139 139 139 0
6.888487 -1.940419 39.600385 138 138 138 0
6.985520 -1.940422 39.600452 136 136 136 0
7.242722 -1.984307 40.496069 132 132 132 0
7.341748 -1.984256 40.495027 134 134 134 0
6.705926 -1.788247 36.494834 129 129 129 0
6.824394 -1.795893 36.650882 128 128 128 0
6.915665 -1.796277 36.658708 127 127 127 0
7.004280 -1.795969 36.652432 121 121 121 0
5.662900 -1.433645 29.258071 123 123 123 0
-7.314847 -1.737276 37.320649 159 159 159 0
-7.217727 -1.735909 37.291277 161 161 161 0
-7.122279 -1.734914 37.269905 160 160 160 0
-7.031112 -1.734950 37.270669 162 162 162 0
-6.937363 -1.734341 37.257591 161 161 161 0
-6.838172 -1.732337 37.214544 162 162 162 0
-6.755075 -1.734411 37.259101 165 165 165 0
-6.660573 -1.733574 37.241112 167 167 167 0
-6.563832 -1.732122 37.209932 169 169 169 0
-5.962984 -1.595728 34.279874 154 154 154 0
-5.890844 -1.598943 34.348945 135 134 135 0
-5.776365 -1.590593 34.169567 136 136 136 0
-5.669667 -1.584172 34.031616 136 136 136 0
-5.565536 -1.578286 33.905184 134 134 134 0
-5.461273 -1.572185 33.774109 135 135 135 0
-5.366565 -1.568688 33.698996 137 136 137 0
-5.261920 -1.562132 33.558160 140 140 140 0
-5.169774 -1.559138 33.493838 139 139 139 0
-5.075751 -1.555472 33.415083 140 140 140 0
-4.976598 -1.550088 33.299421 140 140 140 0
-4.888994 -1.548182 33.258464 142 141 142 0
-4.796937 -1.544776 33.185310 144 144 144 0
-4.705948 -1.541604 33.117154 146 146 146 0
-4.617543 -1.539181 33.065111 149 149 149 0
-4.532860 -1.537935 33.038338 152 152 152 0
-4.447655 -1.536463 33.006718 155 155 155 0
-4.364237 -1.535565 32.987432 158 158 158 0
-4.281563 -1.534900 32.973146 158 158 158 0
-4.200194 -1.534686 32.968557 159 159 159 0
-4.120447 -1.535068 32.976766 156 156 156 0
-4.039399 -1.534972 32.974689 152 152 152 0
-3.957449 -1.534521 32.965006 149 149 149 0
-3.879393 -1.535593 32.988032 146 146 146 0
-3.801028 -1.536586 33.009364 142 142 142 0
-3.721711 -1.537228 33.023164 139 139 139 0
-3.645334 -1.539141 33.064256 134 134 134 0
-3.567452 -1.540491 33.093247 128 128 128 0
-3.490522 -1.542324 33.132621 121 121 121 0
-3.413516 -1.544209 33.173135 118 118 118 0
-3.340447 -1.548012 33.254820 113 113 113 0
-3.270051 -1.553274 33.367866 109 109 109 0
-2.887015 -1.406495 30.214709 105 105 105 0
-2.824282 -1.412141 30.336000 99 99 99 0
-2.762100 -1.418376 30.469943 96 96 96 0
-2.703061 -1.426616 30.646956 103 103 103 0
-2.620412 -1.422509 30.558735 106 106 106 0
-2.560396 -1.430809 30.737046 115 115 115 0
-2.765492 -1.592253 34.205214 118 118 118 0
-2.688657 -1.596390 34.294095 127 127 127 0
-2.610136 -1.599761 34.366510 131 131 131 0
-2.524228 -1.598678 34.343234 127 127 127 0
-2.441885 -1.599856 34.368541 129 129 129 0
-2.360183 -1.601553 34.405005 111 111 111 0
-2.259550 -1.590054 34.157979 110 110 110 0
-2.184311 -1.596227 34.290598 108 108 108 0
-2.118254 -1.609873 34.583744 129 129 129 0
-2.048477 -1.621711 34.838043 137 137 137 0
-1.971715 -1.628808 34.990514 152 152 152 0
-1.887175 -1.629833 35.012526 156 156 156 0
-1.796027 -1.624977 34.908209 145 145 145 0
-1.703991 -1.618791 34.775327 149 149 149 0
-1.615938 -1.615938 34.714027 150 150 150 0
-1.522996 -1.607606 34.535047 155 155 155 0
-1.435917 -1.604848 34.475798 152 152 152 0
-1.350893 -1.604186 34.461561 151 151 151 0
-1.263430 -1.600345 34.379057 148 148 148 0
-1.175977 -1.595969 34.285054 149 149 149 0
-1.091798 -1.595705 34.279381 144 144 144 0
-1.006608 -1.593797 34.238379 143 143 143 0
-0.921358 -1.591437 34.187688 141 141 141 0
-0.835596 -1.587632 34.105940 139 139 139 0
-0.751872 -1.587284 34.098485 136 136 136 0
-0.667521 -1.585362 34.057187 134 134 134 0
-0.583697 -1.584320 34.034795 135 135 135 0
-0.500368 -1.584498 34.038635 132 132 132 0
-0.417384 -1.586060 34.072178 126 126 126 0
-0.333791 -1.585509 34.060350 121 121 121 0
-0.250772 -1.588220 34.118581 115 115 115 0
-0.148332 -1.409154 30.271845 108 108 108 0
-0.074302 -1.411733 30.327245 105 105 105 0
0.000000 -1.418022 30.462338 104 104 104 0
0.074744 -1.420131 30.507656 97 97 97 0
0.149903 -1.424081 30.592499 101 101 101 0
0.227366 -1.439985 30.934154 105 105 105 0
0.299911 -1.424577 30.603164 93 93 93 0
0.371681 -1.412387 30.341297 98 98 98 0
0.456351 -1.445113 31.044319 111 111 111 0
0.611920 -1.660927 35.680485 124 124 124 0
0.701974 -1.667189 35.815023 133 133 133 0
0.791051 -1.669997 35.875343 134 134 134 0
0.881336 -1.674537 35.972879 133 133 133 0
0.968109 -1.672189 35.922418 132 132 132 0
1.054707 -1.669953 35.874392 132 132 132 0
1.139208 -1.664996 35.767914 129 129 129 0
1.229601 -1.668744 35.848427 131 131 131 0
1.311883 -1.661718 35.697495 134 134 134 0
1.398489 -1.660706 35.675745 132 132 132 0
1.489118 -1.664309 35.753142 135 135 135 0
1.577637 -1.665283 35.774080 136 136 136 0
1.663124 -1.663124 35.727690 131 131 131 0
1.752786 -1.665147 35.771153 131 131 131 0
1.841324 -1.665959 35.788603 131 131 131 0
1.929129 -1.666066 35.790888 134 134 134 0
2.016309 -1.665646 35.781879 134 134 134 0
2.104423 -1.666002 35.789508 137 137 137 0
2.198457 -1.670827 35.893177 139 139 139 0
2.290041 -1.673491 35.950402 136 136 136 0
2.379633 -1.674557 35.973295 132 132 132 0
2.472260 -1.677605 36.038782 123 123 123 0
2.550642 -1.671110 35.899248 117 117 117 0
2.647604 -1.676816 36.021823 113 113 113 0
2.733823 -1.675569 35.995035 110 110 110 0
2.843010 -1.688037 36.262882 104 104 104 0
2.971323 -1.710762 36.751057 121 121 121 0
3.073699 -1.717655 36.899147 128 128 128 0
3.174357 -1.723223 37.018743 129 129 129 0
3.260059 -1.720587 36.962121 125 125 125 0
3.330339 -1.710174 36.738434 128 128 128 0
3.406489 -1.703244 36.589566 129 129 129 0
3.488244 -1.699401 36.507002 140 140 140 0
3.569831 -1.695670 36.426846 147 147 147 0
3.646923 -1.690038 36.305858 155 155 155 0
3.742199 -1.692899 36.367333 157 157 157 0
3.831611 -1.693037 36.370300 152 152 152 0
3.913148 -1.689768 36.300070 148 148 148 0
3.999610 -1.688724 36.277638 145 145 145 0
4.097849 -1.692590 36.360680 140 140 140 0
4.187252 -1.692719 36.363455 136 136 136 0
4.273672 -1.691662 36.340746 133 133 133 0
4.352322 -1.687635 36.254247 127 127 127 0
4.452865 -1.692089 36.349919 125 125 125 0
4.549817 -1.695030 36.413103 132 132 132 0
4.640640 -1.695618 36.425745 132 132 132 0
4.741308 -1.699714 36.513734 142 142 142 0
4.856119 -1.708634 36.705359 148 148 148 0
4.943402 -1.707721 36.685732 147 147 147 0
5.036539 -1.708826 36.709468 145 145 145 0
5.113789 -1.704596 36.618609 140 140 140 0
5.207209 -1.705810 36.644679 138 138 138 0
5.279520 -1.700184 36.523833 133 133 133 0
5.301206 -1.678715 36.062628 123 123 123 0
5.130030 -1.597878 34.326062 128 128 128 0
5.346352 -1.638398 35.196522 124 124 124 0
5.433848 -1.638780 35.204719 128 128 128 0
5.522920 -1.639617 35.222705 132 132 132 0
5.850293 -1.710086 36.736531 134 134 134 0
5.975939 -1.720346 36.956951 139 139 139 0
6.210621 -1.761221 37.835037 141 141 141 0
6.112853 -1.708003 36.691797 138 138 138 0
6.545762 -1.802456 38.720862 140 140 140 0
6.790867 -1.843235 39.596891 140 140 140 0
7.194113 -1.925185 41.357362 141 141 141 0
6.458008 -1.704197 36.610023 138 138 138 0
7.240663 -1.884556 40.484556 134 134 134 0
7.340506 -1.884725 40.488177 131 131 131 0
6.714458 -1.700996 36.541266 129 129 129 0
8.041664 -2.010416 43.188315 130 130 130 0
6.638814 -1.638149 35.191169 128 128 128 0
7.003217 -1.705912 36.646870 124 124 124 0
5.660129 -1.361297 29.243755 119 119 119 0
-7.320375 -1.647084 37.348851 165 165 165 0
-7.223108 -1.645772 37.319082 159 159 159 0
-7.122279 -1.643603 37.269905 159 159 159 0
-7.037231 -1.645067 37.303106 159 159 159 0
-6.942113 -1.644185 37.283099 161 161 161 0
-6.842408 -1.642178 37.237593 161 161 161 0
-6.755593 -1.643252 37.261960 160 160 160 0
-6.656898 -1.641427 37.220565 164 164 164 0
-6.563932 -1.640983 37.210500 163 163 163 0
-5.972700 -1.514206 34.335728 146 146 146 0
-5.876337 -1.511058 34.264357 137 136 137 0
-5.764602 -1.503809 34.099982 137 137 137 0
-5.657149 -1.497481 33.956478 136 136 136 0
-5.547149 -1.490279 33.793169 136 136 136 0
-5.448170 -1.485865 33.693076 137 137 137 0
-5.351871 -1.482057 33.606726 139 139 139 0
-5.254139 -1.477727 33.508542 139 139 139 0
-5.162380 -1.474966 33.445934 140 140 140 0
-5.065153 -1.470528 33.345311 143 143 143 0
-4.970789 -1.466790 33.260549 145 145 145 0
-4.882376 -1.464713 33.213443 147 147 147 0
-4.793713 -1.462489 33.163006 150 150 150 0
-4.702002 -1.459242 33.089389 150 150 150 0
-4.618177 -1.458372 33.069654 154 154 154 0
-4.531840 -1.456663 33.030905 155 155 155 0
-4.447230 -1.455457 33.003559 156 156 156 0
-4.364638 -1.454879 32.990462 154 154 154 0
-4.282929 -1.454580 32.983665 151 151 151 0
-4.201032 -1.454203 32.975130 150 150 150 0
-4.121011 -1.454474 32.981278 147 147 147 0
-4.041351 -1.454887 32.990624 144 144 144 0
-3.960262 -1.454790 32.988440 143 143 143 0
-3.881999 -1.455750 33.010197 141 141 141 0
-3.803341 -1.456599 33.029451 139 139 139 0
-3.724310 -1.457339 33.046226 136 136 136 0
-3.648488 -1.459395 33.092864 131 131 131 0
-3.569577 -1.460282 33.112961 124 124 124 0
-3.495893 -1.463397 33.183603 118 118 118 0
-3.418907 -1.465246 33.225531 114 114 114 0
-3.341038 -1.466797 33.260704 111 111 111 0
-2.955514 -1.329981 30.158306 108 108 108 0
-2.888738 -1.333264 30.232735 105 105 105 0
-2.826442 -1.338841 30.359202 103 103 103 0
-2.764708 -1.344993 30.498712 99 99 99 0
-2.689008 -1.344504 30.487614 101 101 101 0
-2.627147 -1.351104 30.637278 105 105 105 0
-2.562852 -1.356804 30.766525 110 110 110 0
-2.770849 -1.511372 34.271477 120 120 120 0
-2.692958 -1.514789 34.348950 124 124 124 0
-2.612735 -1.517072 34.400725 128 128 128 0
-2.529395 -1.517637 34.413532 128 128 128 0
-2.445856 -1.518117 34.424432 124 124 124 0
-2.127757 -1.367844 31.016867 120 120 120 0
-2.232371 -1.488247 33.747100 110 110 110 0
-2.192153 -1.517644 34.413698 119 119 119 0
-2.127096 -1.531509 34.728103 127 127 127 0
-2.054800 -1.541100 34.945579 143 143 143 0
-1.973590 -1.544549 35.023787 152 152 152 0
-1.888925 -1.545484 35.044982 152 152 152 0
-1.797926 -1.541080 34.945118 148 148 148 0
-1.708941 -1.538047 34.876348 150 150 150 0
-1.616872 -1.531774 34.734095 148 148 148 0
-1.525603 -1.525603 34.594182 148 148 148 0
-1.437233 -1.521776 34.507391 146 146 146 0
-1.352681 -1.521766 34.507162 144 144 144 0
-1.265558 -1.518669 34.436945 146 146 146 0
-1.177728 -1.514222 34.336107 143 143 143 0
-1.093810 -1.514506 34.342545 141 141 141 0
-1.008038 -1.512057 34.286999 143 143 143 0
-0.923147 -1.510604 34.254068 139 139 139 0
-0.838100 -1.508579 34.208152 138 138 138 0
-0.754125 -1.508249 34.200658 137 137 137 0
-0.668888 -1.504997 34.126918 137 137 137 0
-0.585205 -1.504814 34.122756 133 133 133 0
-0.501782 -1.505346 34.134823 132 132 132 0
-0.418564 -1.506832 34.168528 128 128 128 0
-0.334839 -1.506775 34.167228 121 121 121 0
-0.251341 -1.508046 34.196052 112 112 112 0
-0.148205 -1.333844 30.245887 104 104 104 0
-0.074600 -1.342796 30.448887 101 101 101 0
0.000000 -1.347372 30.552653 98 98 98 0
0.074603 -1.342851 30.450134 102 102 102 0
0.150870 -1.357834 30.789893 99 99 99 0
0.226214 -1.357283 30.777397 104 104 104 0
0.297421 -1.338397 30.349131 105 105 105 0
0.373746 -1.345487 30.509911 102 102 102 0
0.458313 -1.374938 31.177733 100 100 100 0
0.539502 -1.387290 31.457817 122 122 122 0
0.704940 -1.586116 35.966345 135 135 135 0
0.793956 -1.587913 36.007090 140 140 140 0
0.882481 -1.588465 36.019619 139 139 139 0
0.971123 -1.589110 36.034234 133 133 133 0
1.057075 -1.585613 35.954934 134 134 134 0
1.147009 -1.588166 36.012843 134 134 134 0
1.233261 -1.585621 35.955126 136 136 136 0
1.318718 -1.582462 35.883491 132 132 132 0
1.406264 -1.582047 35.874091 139 139 139 0
1.492465 -1.580257 35.833498 131 131 131 0
1.578161 -1.578161 35.785974 134 134 134 0
1.668245 -1.580443 35.837710 137 137 137 0
1.757548 -1.581793 35.868322 139 139 139 0
1.844762 -1.581225 35.855432 137 137 137 0
1.934933 -1.583127 35.898572 142 142 142 0
2.023410 -1.583538 35.907897 145 145 145 0
2.109600 -1.582200 35.877549 149 149 149 0
2.198162 -1.582677 35.888356 151 151 151 0
2.291463 -1.586397 35.972724 147 147 147 0
2.378351 -1.585568 35.953913 139 139 139 0
2.468823 -1.587101 35.988676 130 130 130 0
2.549499 -1.582448 35.883171 119 119 119 0
2.635500 -1.581300 35.857149 109 109 109 0
2.729313 -1.584762 35.935655 110 110 110 0
2.820475 -1.586517 35.975448 106 106 106 0
2.936854 -1.601920 36.324726 90 90 90 0
3.062600 -1.621376 36.765907 105 105 105 0
3.174071 -1.632379 37.015406 119 119 119 0
3.262578 -1.631289 36.990681 122 122 122 0
3.348048 -1.628780 36.933794 125 125 125 0
3.422398 -1.621136 36.760452 128 128 128 0
3.502172 -1.616387 36.652769 133 133 133 0
3.582687 -1.612209 36.558026 136 136 136 0
3.658619 -1.606223 36.422285 141 141 141 0
3.740987 -1.603280 36.355560 147 147 147 0
3.833504 -1.604723 36.388270 147 147 147 0
3.916252 -1.602103 36.328872 144 144 144 0
4.001156 -1.600463 36.291667 142 142 142 0
4.098593 -1.603797 36.367288 139 139 139 0
4.188310 -1.604034 36.372644 134 134 134 0
4.268834 -1.600813 36.299613 129 129 129 0
4.351061 -1.598349 36.243739 131 131 131 0
4.459359 -1.605369 36.402928 133 133 133 0
4.556373 -1.608132 36.465570 139 139 139 0
4.651655 -1.610188 36.512207 142 142 142 0
4.746302 -1.611952 36.552192 140 140 140 0
4.855810 -1.618603 36.703024 142 142 142 0
4.942012 -1.617386 36.675414 142 142 142 0
5.014090 -1.611672 36.545848 140 140 140 0
5.099602 -1.610401 36.517023 137 137 137 0
5.186246 -1.609525 36.497158 137 137 137 0
5.253085 -1.602636 36.340952 134 134 134 0
4.918609 -1.475583 33.459923 125 125 125 0
5.446246 -1.607089 36.441927 122 122 122 0
5.345975 -1.552057 35.194044 124 124 124 0
5.432444 -1.552127 35.195621 129 129 129 0
5.519604 -1.552389 35.201555 130 130 130 0
5.744328 -1.590737 36.071136 135 135 135 0
6.258821 -1.706951 38.706374 138 138 138 0
5.997660 -1.611312 36.537681 137 137 137 0
6.092993 -1.612851 36.572585 139 139 139 0
6.544945 -1.707377 38.716032 140 140 140 0
6.790157 -1.746040 39.592755 142 142 142 0
7.194140 -1.823866 41.357516 142 142 142 0
6.984530 -1.746133 39.594842 141 141 141 0
6.538382 -1.612204 36.557908 140 140 140 0
7.339317 -1.785239 40.481617 135 135 135 0
6.700404 -1.608097 36.464785 130 130 130 0
7.375366 -1.746797 39.609916 129 129 129 0
7.977792 -1.864938 42.288855 127 127 127 0
8.424102 -1.944023 44.082165 126 126 126 0
8.534837 -1.944646 44.096292 125 125 125 0
-7.322748 -1.556084 37.360959 163 163 163 0
-7.225673 -1.554892 37.332331 163 163 163 0
-7.126638 -1.553242 37.292717 164 164 164 0
-7.038256 -1.553901 37.308538 158 158 158 0
-6.944040 -1.553272 37.293450 163 163 163 0
-6.847425 -1.552083 37.264899 164 164 164 0
-6.760921 -1.553185 37.291347 164 164 164 0
-6.663595 -1.551796 37.258007 161 161 161 0
-6.564518 -1.549956 37.213823 161 161 161 0
-5.970722 -1.429609 34.324357 141 141 141 0
-5.858015 -1.422661 34.157520 136 136 136 0
-5.747896 -1.416148 34.001158 137 136 137 0
-5.638474 -1.409618 33.844381 135 135 135 0
-5.534441 -1.404261 33.715754 138 138 138 0
-5.441269 -1.401539 33.650395 141 140 141 0
-5.341801 -1.397086 33.543491 141 141 141 0
-5.244395 -1.393042 33.446394 143 143 143 0
-5.154852 -1.390992 33.397160 145 145 145 0
-5.057911 -1.386847 33.297639 147 147 147 0
-4.966553 -1.384121 33.232203 150 150 150 0
-4.882376 -1.383340 33.213443 151 151 151 0
-4.792299 -1.380832 33.153227 153 153 153 0
-4.702930 -1.378445 33.095921 151 151 151 0
-4.616609 -1.376883 33.058426 149 149 149 0
-4.536191 -1.377058 33.062615 147 147 147 0
-4.451370 -1.375878 33.034289 144 144 144 0
-4.369464 -1.375572 33.026939 143 143 143 0
-4.287331 -1.375182 33.017569 141 141 141 0
-4.208928 -1.375996 33.037111 140 140 140 0
-4.124689 -1.374896 33.010719 139 139 139 0
-4.046101 -1.375674 33.029393 137 137 137 0
-3.965435 -1.375763 33.031527 138 138 138 0
-3.886865 -1.376598 33.051570 136 136 136 0
-3.807493 -1.377178 33.065506 135 135 135 0
-3.728075 -1.377767 33.079635 132 132 132 0
-3.651148 -1.379323 33.116989 127 127 127 0
-3.576200 -1.381714 33.174397 121 121 121 0
-3.498141 -1.382986 33.204942 116 116 116 0
-3.422933 -1.385473 33.264657 114 114 114 0
-3.347751 -1.388092 33.327540 111 111 111 0
-2.958370 -1.257307 30.187445 106 106 106 0
-2.897854 -1.263167 30.328144 107 107 107 0
-2.836015 -1.268744 30.462032 104 104 104 0
-2.770217 -1.272802 30.559480 99 99 99 0
-2.703633 -1.276715 30.653431 104 104 104 0
-2.634351 -1.279542 30.721292 107 107 107 0
-2.566541 -1.283270 30.810816 111 111 111 0
-2.500675 -1.288227 30.929811 121 121 121 0
-2.697070 -1.432819 34.401406 121 121 121 0
-2.618921 -1.436182 34.482171 128 128 128 0
-2.536976 -1.437620 34.516678 126 126 126 0
-2.453957 -1.438526 34.538446 122 122 122 0
-2.376595 -1.442933 34.644245 113 113 113 0
-2.243643 -1.412664 33.917505 107 107 107 0
-2.199625 -1.438216 34.531000 116 116 116 0
-2.136263 -1.452659 34.877759 128 128 128 0
-2.062866 -1.461197 35.082760 147 147 147 0
-1.976797 -1.461111 35.080689 148 148 148 0
-1.891714 -1.461779 35.096737 155 155 155 0
-1.802316 -1.459018 35.030445 147 147 147 0
-1.710770 -1.454154 34.913670 153 153 153 0
-1.617842 -1.447543 34.754938 149 149 149 0
-1.527303 -1.442453 34.632715 145 145 145 0
-1.440339 -1.440339 34.581978 146 146 146 0
-1.355516 -1.440235 34.579483 146 146 146 0
-1.266964 -1.435893 34.475222 144 144 144 0
-1.180236 -1.433144 34.409208 143 143 143 0
-1.095661 -1.432787 34.400651 141 141 141 0
-1.009571 -1.430225 34.339145 139 139 139 0
-0.924871 -1.429346 34.318031 138 138 138 0
-0.839597 -1.427314 34.269249 137 137 137 0
-0.756005 -1.428010 34.285949 136 136 136 0
-0.670875 -1.425609 34.228302 132 132 132 0
-0.586886 -1.425295 34.220769 131 131 131 0
-0.502644 -1.424159 34.193485 130 130 130 0
-0.419478 -1.426227 34.243135 128 128 128 0
-0.335375 -1.425342 34.221889 122 122 122 0
-0.222860 -1.262871 30.321028 112 112 112 0
-0.148983 -1.266356 30.404694 105 105 105 0
-0.074722 -1.270277 30.498839 104 104 104 0
0.000000 -1.274751 30.606273 103 103 103 0
0.075018 -1.275310 30.619680 100 100 100 0
0.150870 -1.282399 30.789893 102 102 102 0
0.226794 -1.285167 30.856361 103 103 103 0
0.302737 -1.286633 30.891537 96 96 96 0
0.374260 -1.272485 30.551854 104 104 104 0
0.452501 -1.282085 30.782356 96 96 96 0
0.540250 -1.312037 31.501487 126 126 126 0
0.705711 -1.499636 36.005666 145 145 145 0
0.796668 -1.504817 36.130070 140 140 140 0
0.884780 -1.504127 36.113482 141 141 141 0
0.973216 -1.504061 36.111906 136 136 136 0
1.061315 -1.503530 36.099155 137 137 137 0
1.148554 -1.501955 36.061337 139 139 139 0
1.237062 -1.502147 36.065944 133 133 133 0
1.326738 -1.503637 36.101717 142 142 142 0
1.413029 -1.501343 36.046661 143 143 143 0
1.500490 -1.500490 36.026182 144 144 144 0
1.587974 -1.499754 36.008489 145 145 145 0
1.671844 -1.495860 35.915011 140 140 140 0
1.762317 -1.497970 35.965656 142 142 142 0
1.853873 -1.500754 36.032509 146 146 146 0
1.939908 -1.499020 35.990873 147 147 147 0
2.029740 -1.500242 36.020224 151 151 151 0
2.114364 -1.497675 35.958577 154 154 154 0
2.201904 -1.497295 35.949453 157 157 157 0
2.290529 -1.497653 35.958067 151 151 151 0
2.373520 -1.494438 35.880870 143 143 143 0
2.466747 -1.497668 35.958418 135 135 135 0
2.553011 -1.496593 35.932602 128 127 127 0
2.646568 -1.499722 36.007726 117 117 117 0
2.728314 -1.496172 35.922500 110 110 110 0
2.816148 -1.496079 35.920259 106 106 106 0
2.919588 -1.504030 36.111165 94 94 94 0
3.027484 -1.513742 36.344343 84 84 84 0
3.176113 -1.542683 37.039217 108 108 108 0
3.264705 -1.541666 37.014793 120 120 120 0
3.354649 -1.541325 37.006605 120 120 120 0
3.434214 -1.536359 36.887370 123 123 123 0
3.511873 -1.530817 36.754299 124 124 124 0
3.594053 -1.527473 36.674014 124 124 124 0
3.667421 -1.520638 36.509919 132 132 132 0
3.748606 -1.517293 36.429598 134 134 134 0
3.836107 -1.516600 36.412972 136 136 136 0
3.919627 -1.514401 36.360172 140 140 140 0
4.003101 -1.512283 36.309309 138 138 138 0
4.100835 -1.515526 36.387179 134 134 134 0
4.185459 -1.513889 36.347885 130 130 130 0
4.270401 -1.512434 36.312937 131 131 131 0
4.358583 -1.512161 36.306397 131 131 131 0
4.466075 -1.518466 36.457758 142 142 142 0
4.561973 -1.520658 36.510386 151 151 151 0
4.646211 -1.518954 36.469473 146 146 146 0
4.739204 -1.520122 36.497530 142 142 142 0
4.838844 -1.523340 36.574787 141 141 141 0
4.914163 -1.518923 36.468745 138 138 138 0
4.993688 -1.515941 36.397142 139 139 139 0
5.076224 -1.513962 36.349617 141 141 141 0
5.158664 -1.512022 36.303054 135 135 135 0
5.244231 -1.511050 36.279705 132 132 132 0
5.337814 -1.512381 36.311660 126 126 126 0
5.128675 -1.429303 34.316992 125 125 125 0
5.343430 -1.465134 35.177287 128 128 128 0
5.564783 -1.501608 36.053016 124 124 124 0
5.718812 -1.519059 36.472013 133 133 133 0
5.743348 -1.502106 36.064977 137 137 137 0
5.910070 -1.522291 36.549599 138 138 138 0
5.994988 -1.521116 36.521400 137 137 137 0
6.086113 -1.521528 36.531288 141 141 141 0
6.542982 -1.612039 38.704419 141 141 141 0
6.789848 -1.648963 39.590950 142 142 142 0
6.885260 -1.648583 39.581834 140 140 140 0
6.828825 -1.612361 38.712158 142 142 142 0
7.239237 -1.685850 40.476585 139 139 139 0
6.376096 -1.464779 35.168759 137 137 137 0
6.692488 -1.516964 36.421705 134 134 134 0
8.037598 -1.797884 43.166475 130 130 130 0
8.145484 -1.798354 43.177758 129 129 129 0
6.891549 -1.502004 36.062529 126 126 126 0
8.689726 -1.869941 44.896543 123 123 123 0
-7.320071 -1.464014 37.347299 159 159 159 0
-7.227893 -1.463877 37.343802 166 166 166 0
-7.130109 -1.462586 37.310878 162 162 162 0
-7.047558 -1.464428 37.357847 162 162 162 0
-6.951645 -1.463504 37.334294 157 157 157 0
-6.850727 -1.461488 37.282868 159 159 159 0
-6.761784 -1.462007 37.296106 162 162 162 0
-6.665754 -1.460987 37.270084 159 159 159 0
-6.575852 -1.461301 37.278075 154 154 154 0
-5.958002 -1.342648 34.251236 137 137 137 0
-5.844503 -1.335887 34.078737 136 136 136 0
-5.736602 -1.330227 33.934350 137 137 137 0
-5.627904 -1.324213 33.780939 139 139 139 0
-5.524569 -1.319300 33.655613 142 142 142 0
-5.433258 -1.317154 33.600856 144 144 144 0
-5.335042 -1.313241 33.501047 144 144 144 0
-5.238206 -1.309552 33.406927 146 146 146 0
-5.153534 -1.308834 33.388621 149 149 149 0
-5.057476 -1.305155 33.294773 150 150 150 0
-4.966919 -1.302799 33.234657 152 152 152 0
-4.883322 -1.302219 33.219877 150 150 150 0
-4.797058 -1.300897 33.186153 148 148 148 0
-4.708711 -1.298955 33.136599 146 146 146 0
-4.624308 -1.298051 33.113558 140 140 140 0
-4.541868 -1.297677 33.103995 135 135 135 0
-4.459866 -1.297416 33.097336 135 135 135 0
-4.377559 -1.297054 33.088124 132 132 132 0
-4.294007 -1.296304 33.068978 134 134 134 0
-4.214727 -1.296839 33.082627 132 132 132 0
-4.136224 -1.297639 33.103035 134 134 134 0
-4.050418 -1.296134 33.064640 133 133 133 0
-3.972166 -1.297034 33.087599 133 133 133 0
-3.893948 -1.297983 33.111805 130 130 130 0
-3.813030 -1.298053 33.113589 131 131 131 0
-3.734111 -1.298821 33.133193 126 126 126 0
-3.656829 -1.300206 33.168521 124 124 124 0
-3.580886 -1.302140 33.217863 117 117 117 0
-3.507100 -1.304967 33.289985 114 114 114 0
-3.429312 -1.306405 33.326648 110 110 110 0
-3.354749 -1.309170 33.397204 109 109 109 0
-2.961897 -1.184759 30.223443 108 108 108 0
-2.897372 -1.188665 30.323098 104 104 104 0
-2.838786 -1.195278 30.491791 103 103 103 0
-2.770334 -1.197982 30.560771 104 104 104 0
-2.705414 -1.202406 30.673626 106 106 106 0
-2.633423 -1.203850 30.710470 103 103 103 0
-2.565107 -1.207109 30.793602 111 111 111 0
-2.499648 -1.211951 30.917109 115 115 115 0
-2.702240 -1.351120 34.467345 120 120 120 0
-2.623758 -1.354198 34.545859 126 126 126 0
-2.542644 -1.356077 34.593794 126 126 126 0
-2.459599 -1.357020 34.617860 120 120 120 0
-2.133158 -1.218948 31.095602 113 113 113 0
-2.026382 -1.200819 30.633141 107 107 107 0
-2.207987 -1.358762 34.662284 120 120 120 0
-2.136800 -1.367552 34.886533 128 128 128 0
-2.070559 -1.380373 35.213585 147 147 147 0
-1.981221 -1.378241 35.159209 152 152 152 0
-1.894611 -1.377899 35.150488 149 149 149 0
-1.804718 -1.375024 35.077132 149 149 149 0
-1.710660 -1.368528 34.911424 146 146 146 0
-1.620802 -1.364886 34.818517 145 145 145 0
-1.529609 -1.359653 34.685017 144 144 144 0
-1.444326 -1.359365 34.677686 144 144 144 0
-1.356624 -1.356624 34.607751 146 146 146 0
-1.269383 -1.354009 34.541040 142 142 142 0
-1.182153 -1.351032 34.465109 139 139 139 0
-1.097569 -1.350855 34.460579 140 140 140 0
-1.012713 -1.350285 34.446037 137 137 137 0
-0.926841 -1.348133 34.391138 137 137 137 0
-0.840988 -1.345581 34.326048 136 136 136 0
-0.757483 -1.346637 34.352988 135 135 135 0
-0.672910 -1.345820 34.332147 133 133 133 0
-0.587701 -1.343316 34.268265 131 131 131 0
-0.504214 -1.344570 34.300259 132 132 132 0
-0.420903 -1.346890 34.359440 125 125 125 0
-0.336487 -1.345947 34.335377 121 121 121 0
-0.252458 -1.346444 34.348067 116 116 116 0
-0.149232 -1.193852 30.455417 107 107 107 0
-0.074828 -1.197244 30.541949 106 106 106 0
0.000000 -1.201412 30.648274 103 103 103 0
0.075178 -1.202847 30.684861 99 99 99 0
0.150882 -1.207055 30.792225 103 103 103 0
0.227803 -1.214949 30.993589 106 106 106 0
0.302248 -1.208992 30.841628 98 98 98 0
0.371781 -1.189700 30.349483 102 102 102 0
0.453197 -1.208526 30.829747 109 109 109 0
0.541022 -1.236621 31.546448 125 125 125 0
0.706230 -1.412460 36.032141 138 138 138 0
0.796771 -1.416482 36.134749 145 145 145 0
0.887131 -1.419410 36.209429 140 140 140 0
0.974234 -1.417067 36.149679 146 146 146 0
1.064169 -1.418891 36.196209 146 146 146 0
1.154517 -1.420944 36.248560 142 142 142 0
1.244807 -1.422637 36.291751 151 151 151 0
1.330554 -1.419257 36.205541 146 146 146 0
1.416792 -1.416792 36.142652 145 145 145 0
1.503633 -1.415184 36.101635 144 144 144 0
1.591660 -1.414809 36.092069 149 149 149 0
1.680882 -1.415480 36.109179 149 149 149 0
1.772324 -1.417859 36.169881 148 148 148 0
1.859464 -1.416734 36.141182 155 155 155 0
1.948564 -1.417137 36.151460 158 158 158 0
2.034861 -1.415556 36.111117 158 158 158 0
2.119890 -1.413260 36.052553 153 153 153 0
2.201554 -1.408995 35.943747 154 154 154 0
2.289388 -1.408854 35.940154 153 153 153 0
2.374674 -1.407215 35.898329 146 146 146 0
2.461234 -1.406419 35.878045 137 137 137 0
2.553342 -1.408740 35.937256 129 129 129 0
2.638230 -1.407056 35.894291 121 121 121 0
2.720201 -1.403975 35.815683 111 111 111 0
2.803704 -1.401852 35.761536 107 107 107 0
2.893421 -1.402871 35.787516 102 102 102 0
2.998246 -1.410939 35.993354 72 72 72 0
3.147960 -1.439067 36.710899 76 76 76 0
3.272157 -1.454292 37.099284 109 109 109 0
3.367601 -1.456260 37.149488 121 121 121 0
3.451613 -1.453311 37.074250 122 122 122 0
3.536039 -1.450683 37.007207 127 127 127 0
3.606713 -1.442685 36.803191 124 124 124 0
3.676841 -1.434865 36.603694 129 129 129 0
3.758961 -1.431985 36.530234 129 129 129 0
3.840884 -1.429166 36.458322 136 136 136 0
3.929930 -1.429065 36.455747 133 133 133 0
4.005980 -1.424348 36.335417 131 131 131 0
4.103733 -1.427385 36.412894 128 128 128 0
4.190575 -1.426579 36.392311 126 126 126 0
4.266962 -1.422321 36.283690 135 135 135 0
4.362136 -1.424371 36.335991 139 139 139 0
4.475611 -1.432196 36.535601 148 148 148 0
4.569873 -1.433686 36.573616 151 151 151 0
4.652793 -1.431629 36.521138 149 149 149 0
4.733759 -1.429059 36.455599 146 146 146 0
4.827013 -1.430226 36.485358 145 145 145 0
4.894827 -1.423950 36.325243 146 146 146 0
4.982127 -1.423465 36.312878 140 140 140 0
5.061874 -1.420877 36.246864 136 136 136 0
5.157223 -1.422682 36.292917 135 135 135 0
5.235676 -1.419844 36.220519 128 128 128 0
5.324214 -1.419790 36.219142 125 125 125 0
5.257444 -1.379002 35.178616 125 125 125 0
5.344038 -1.379107 35.181288 126 126 126 0
5.697921 -1.447091 36.915587 129 129 129 0
5.704812 -1.426203 36.382730 130 130 130 0
5.814268 -1.431205 36.510319 133 133 133 0
5.903486 -1.431148 36.508878 137 137 137 0
5.982152 -1.428574 36.443206 138 138 138 0
6.154045 -1.448011 36.939045 136 136 136 0
6.541355 -1.516836 38.694795 140 140 140 0
6.787805 -1.551498 39.579038 143 143 143 0
7.037142 -1.585835 40.454970 143 143 143 0
7.139366 -1.586526 40.472599 140 140 140 0
7.238265 -1.586469 40.471147 140 140 140 0
7.498553 -1.621309 41.359918 137 137 137 0
7.763286 -1.656168 42.249174 137 137 137 0
6.548308 -1.378591 35.168139 134 134 134 0
8.144558 -1.692376 43.172849 131 131 131 0
8.249260 -1.692156 43.167241 127 127 127 0
8.359770 -1.693118 43.191784 128 128 128 0
-7.302459 -1.369211 37.257446 128 128 128 0
-7.219110 -1.370717 37.298425 160 160 160 0
-7.134026 -1.371928 37.331375 165 165 165 0
-7.046187 -1.372634 37.350582 162 162 162 0
-6.959036 -1.373494 37.373984 160 160 160 0
-6.857916 -1.371583 37.321994 153 153 153 0
-6.768712 -1.372036 37.334317 156 156 156 0
-6.672148 -1.370989 37.305834 156 156 156 0
-6.048705 -1.260147 34.289713 146 146 146 0
-5.948363 -1.256696 34.195818 138 138 138 0
-5.832884 -1.249904 34.010987 139 139 139 0
-5.728475 -1.245321 33.886276 142 142 142 0
-5.619229 -1.239536 33.728868 143 143 143 0
-5.518263 -1.235432 33.617196 147 147 147 0
-5.430017 -1.234095 33.580809 146 146 146 0
-5.330486 -1.230112 33.472438 147 147 147 0
-5.237572 -1.227556 33.402882 148 148 148 0
-5.153960 -1.227133 33.391384 147 147 147 0
-5.060198 -1.224242 33.312695 147 147 147 0
-4.970251 -1.222193 33.256952 144 144 144 0
-4.887956 -1.221989 33.251404 139 139 139 0
-4.807280 -1.222190 33.256866 134 134 134 0
-4.716787 -1.219859 33.193437 133 133 133 0
-4.633027 -1.219218 33.175992 126 126 126 0
-4.555122 -1.220122 33.200595 124 124 124 0
-4.472533 -1.219782 33.191338 129 129 129 0
-4.385739 -1.218261 33.149958 128 128 128 0
-4.305857 -1.218639 33.160236 126 126 126 0
-4.227587 -1.219496 33.183571 126 126 126 0
-4.144219 -1.218888 33.167021 126 126 126 0
-4.060645 -1.218193 33.148120 128 128 128 0
-3.983051 -1.219301 33.178271 129 129 129 0
-3.901920 -1.219350 33.179589 126 126 126 0
-3.823828 -1.220371 33.207362 124 124 124 0
-3.740906 -1.219861 33.193489 123 123 123 0
-3.662757 -1.220919 33.222286 120 120 120 0
-3.589824 -1.223804 33.300781 118 118 118 0
-3.510066 -1.224442 33.318138 118 118 118 0
-3.435774 -1.227062 33.389450 112 112 112 0
-3.035339 -1.110490 30.217412 109 109 109 0
-2.963928 -1.111473 30.244163 108 108 108 0
-2.902085 -1.116186 30.372421 107 107 107 0
-2.845550 -1.123243 30.564443 107 107 107 0
-2.773790 -1.124510 30.598900 102 102 102 0
-2.709313 -1.128881 30.717840 105 105 105 0
-2.639366 -1.131157 30.779780 108 108 108 0
-2.571105 -1.134311 30.865605 114 114 114 0
-2.500045 -1.136384 30.922020 116 116 116 0
-2.434680 -1.141256 31.054592 118 118 118 0
-2.358972 -1.141438 31.059536 125 125 125 0
-2.289840 -1.144920 31.154283 126 126 126 0
-2.468409 -1.276763 34.741851 117 117 117 0
-2.146468 -1.149894 31.289621 113 113 113 0
-2.264658 -1.258143 34.235191 111 111 111 0
-2.218698 -1.280018 34.830416 122 122 122 0
-2.148236 -1.288942 35.073240 128 128 128 0
-2.074974 -1.296859 35.288674 141 141 141 0
-1.989413 -1.297443 35.304571 143 143 143 0
-1.897122 -1.293492 35.197066 145 145 145 0
-1.807702 -1.291216 35.135128 149 149 149 0
-1.713293 -1.284970 34.965163 148 148 148 0
-1.622901 -1.281238 34.863613 145 145 145 0
-1.534146 -1.278455 34.787882 144 144 144 0
-1.445568 -1.275501 34.707521 147 147 147 0
-1.360784 -1.275735 34.713888 142 142 142 0
-1.271500 -1.271500 34.598626 143 143 143 0
-1.185202 -1.269860 34.554008 139 139 139 0
-1.098944 -1.268013 34.503746 140 140 140 0
-1.016162 -1.270202 34.563333 138 138 138 0
-0.929594 -1.267628 34.493266 136 136 136 0
-0.842912 -1.264368 34.404573 133 133 133 0
-0.758998 -1.264997 34.421682 133 133 133 0
-0.675140 -1.265888 34.445928 131 131 131 0
-0.590882 -1.266176 34.453764 130 130 130 0
-0.505134 -1.262835 34.362868 129 129 129 0
-0.421657 -1.264971 34.420969 128 128 128 0
-0.337410 -1.265286 34.429548 122 122 122 0
-0.253098 -1.265490 34.435098 117 117 117 0
-0.149520 -1.121399 30.514263 113 113 113 0
-0.074960 -1.124398 30.595877 108 108 108 0
0.000000 -1.127476 30.679625 104 104 104 0
0.075364 -1.130458 30.760765 105 105 105 0
0.151208 -1.134063 30.858867 103 103 103 0
0.226655 -1.133276 30.837434 106 106 106 0
0.300737 -1.127764 30.687456 98 98 98 0
0.371153 -1.113459 30.298206 104 104 104 0
0.453196 -1.132989 30.829627 100 100 100 0
0.539925 -1.156981 31.482490 128 128 128 0
0.703195 -1.318491 35.877319 124 124 124 0
0.797358 -1.328930 36.161348 142 142 142 0
0.890018 -1.335027 36.327273 145 145 145 0
0.975778 -1.330606 36.206965 147 147 147 0
1.066454 -1.333068 36.273958 144 144 144 0
1.157239 -1.335275 36.334023 152 152 152 0
1.243291 -1.332098 36.247557 154 154 154 0
1.330689 -1.330689 36.209211 153 153 153 0
1.418428 -1.329776 36.184380 149 149 149 0
1.506314 -1.329101 36.166004 156 156 156 0
1.598326 -1.331938 36.243211 156 156 156 0
1.686436 -1.331397 36.228492 156 156 156 0
1.783938 -1.337953 36.406889 160 160 160 0
1.868997 -1.334998 36.326466 165 165 165 0
1.949025 -1.328881 36.160014 161 161 161 0
2.033917 -1.326468 36.094364 158 158 158 0
2.115987 -1.322492 35.986167 158 158 158 0
2.202557 -1.321534 35.960110 153 153 153 0
2.289589 -1.320916 35.943305 151 151 151 0
2.369898 -1.316610 35.826115 147 147 147 0
2.457681 -1.316615 35.826255 142 142 142 0
2.542812 -1.315247 35.789046 134 134 134 0
2.640770 -1.320385 35.928837 126 126 126 0
2.346398 -1.135354 30.893977 115 114 115 0
2.419487 -1.134134 30.860798 111 111 111 0
2.507621 -1.139828 31.015723 104 104 104 0
2.556543 -1.127887 30.690797 86 86 86 0
2.646927 -1.134397 30.867956 68 68 68 0
3.241843 -1.350768 36.755587 79 79 79 0
3.375992 -1.368645 37.242048 112 112 112 0
3.458700 -1.365276 37.150378 118 118 118 0
3.538776 -1.361068 37.035857 119 119 119 0
3.624189 -1.359071 36.981524 122 122 122 0
3.697587 -1.352776 36.810223 127 127 127 0
3.771701 -1.347036 36.654039 129 129 129 0
3.858002 -1.345815 36.620807 129 129 129 0
3.940167 -1.343239 36.550713 130 130 130 0
4.011194 -1.337065 36.382715 125 125 125 0
4.108498 -1.339728 36.455175 121 121 121 0
4.195708 -1.339056 36.436894 127 127 127 0
4.285102 -1.339094 36.437938 135 135 135 0
4.374289 -1.339068 36.437228 146 146 146 0
4.477075 -1.343122 36.547551 155 155 155 0
4.569472 -1.343962 36.570401 153 153 153 0
4.650237 -1.341414 36.501071 149 149 149 0
4.725561 -1.337423 36.392459 148 148 148 0
4.813491 -1.337081 36.383153 147 147 147 0
4.883757 -1.331934 36.243096 148 148 148 0
4.963764 -1.329580 36.179038 145 145 145 0
5.056815 -1.330741 36.210632 141 141 141 0
5.146259 -1.330929 36.215760 135 135 135 0
5.234012 -1.330681 36.209007 129 129 129 0
5.327093 -1.331773 36.238730 129 129 129 0
5.421726 -1.333211 36.277857 126 126 126 0
5.212153 -1.261005 34.313053 124 124 124 0
5.697748 -1.356607 36.914465 128 128 128 0
5.516215 -1.292863 35.179942 132 132 132 0
6.020160 -1.389268 37.803205 136 136 136 0
5.899753 -1.340853 36.485797 137 137 137 0
6.348547 -1.421317 38.675279 137 137 137 0
6.072345 -1.339488 36.448648 141 141 141 0
6.541153 -1.421990 38.693600 139 139 139 0
6.032067 -1.292586 35.172400 141 141 141 0
6.883698 -1.454302 39.572855 141 141 141 0
6.982019 -1.454587 39.580605 143 143 143 0
7.237917 -1.487243 40.469203 140 140 140 0
7.337031 -1.487236 40.469007 140 140 140 0
7.763344 -1.552669 42.249489 137 137 137 0
6.783352 -1.338820 36.430464 135 135 135 0
7.974197 -1.553415 42.269795 132 132 132 0
8.419943 -1.619220 44.060405 130 130 130 0
8.529368 -1.619500 44.068034 128 128 128 0
-6.686648 -1.170163 34.115552 115 115 115 0
-7.197951 -1.275586 37.189103 131 131 131 0
-7.126015 -1.279028 37.289458 155 155 155 0
-7.049583 -1.281742 37.368583 166 166 166 0
-6.959985 -1.282103 37.379083 164 164 164 0
-6.865063 -1.281478 37.360886 162 162 162 0
-6.769834 -1.280779 37.340506 159 159 159 0
-6.679806 -1.281059 37.348651 159 159 159 0
-6.062627 -1.178844 34.368636 145 145 145 0
-5.938636 -1.170999 34.139903 141 141 141 0
-5.827039 -1.165408 33.976907 143 143 143 0
-5.725263 -1.161647 33.867274 143 143 143 0
-5.619044 -1.156862 33.727757 145 145 145 0
-5.521769 -1.153803 33.638559 145 145 145 0
-5.434064 -1.152680 33.605841 147 147 147 0
-5.335799 -1.149249 33.505803 144 144 144 0
-5.242246 -1.146741 33.432693 142 142 142 0
-5.162002 -1.147111 33.443483 140 140 140 0
-5.072935 -1.145501 33.396544 135 135 135 0
-4.984624 -1.144012 33.353121 131 131 131 0
-4.903579 -1.144168 33.357682 126 126 126 0
-4.818524 -1.143378 33.334649 124 124 124 0
-4.734807 -1.142885 33.320248 121 121 121 0
-4.651464 -1.142465 33.308014 123 123 123 0
-4.567453 -1.141863 33.290475 124 124 124 0
-4.486635 -1.142052 33.295990 123 123 123 0
-4.401321 -1.141083 33.267729 121 121 121 0
-4.322153 -1.141701 33.285740 126 126 126 0
-4.241363 -1.141905 33.291702 124 124 124 0
-4.162041 -1.142521 33.309651 124 124 124 0
-4.075005 -1.141001 33.265349 126 126 126 0
-3.993464 -1.140990 33.265006 124 124 124 0
-3.915625 -1.142057 33.296130 122 122 122 0
-3.833725 -1.141961 33.293311 121 121 121 0
-3.755111 -1.142860 33.319529 121 121 121 0
-3.674734 -1.143250 33.330918 121 121 121 0
-3.597997 -1.144817 33.376596 118 118 118 0
-3.522747 -1.146941 33.438507 114 114 114 0
-3.444589 -1.148196 33.475111 113 113 113 0
-3.369339 -1.150506 33.542454 109 109 109 0
-3.296308 -1.153708 33.635794 106 106 106 0
-2.907626 -1.043763 30.430416 108 108 108 0
-2.847508 -1.049082 30.585481 111 111 111 0
-2.783102 -1.053066 30.701619 102 102 102 0
-2.708580 -1.053337 30.709521 103 103 103 0
-2.645037 -1.058015 30.845917 109 109 109 0
-2.583213 -1.063676 31.010965 115 115 115 0
-2.511896 -1.065653 31.068601 113 113 113 0
-2.437932 -1.066595 31.096070 121 121 121 0
-2.366046 -1.068537 31.152682 121 121 121 0
-2.293360 -1.070235 31.202183 121 121 121 0
-2.221851 -1.072618 31.271655 118 118 118 0
-2.137231 -1.068616 31.154973 111 111 111 0
-2.048785 -1.062333 30.971809 109 109 109 0
-2.228508 -1.199966 34.984424 115 115 115 0
-2.154102 -1.206297 35.169007 122 122 122 0
-2.079701 -1.213159 35.369063 140 140 140 0
-1.997891 -1.216108 35.455034 146 146 146 0
-1.904604 -1.212020 35.335873 145 145 145 0
-1.813982 -1.209321 35.257178 143 143 143 0
-1.717828 -1.202480 35.057713 146 146 146 0
-1.627464 -1.199184 34.961642 148 148 148 0
-1.536829 -1.195312 34.848735 144 144 144 0
-1.449395 -1.193619 34.799400 144 144 144 0
-1.362153 -1.191884 34.748792 141 141 141 0
-1.275645 -1.190602 34.711434 142 142 142 0
-1.188338 -1.188338 34.645416 137 137 137 0
-1.102927 -1.187767 34.628782 135 135 135 0
-1.017927 -1.187581 34.623354 134 134 134 0
-0.932717 -1.187094 34.609166 135 135 135 0
-0.846118 -1.184566 34.535447 131 131 131 0
-0.761709 -1.184881 34.544638 129 129 129 0
-0.677984 -1.186471 34.590999 130 130 130 0
-0.591716 -1.183431 34.502367 128 128 128 0
-0.506655 -1.182195 34.466318 124 124 124 0
-0.422900 -1.184121 34.522477 126 126 126 0
-0.338914 -1.186199 34.583053 124 124 124 0
