ply
format ascii 1.0
element vertex 1104
property float x
property float y
property float z
property uchar red
property uchar green
property uchar blue
property uchar alpha
end_header
-0.073300 -1.465992 29.918205 92 92 92 0
0.000000 -1.394368 28.456487 91 90 90 0
0.067005 -1.340090 27.348781 89 89 89 0
0.154667 -1.546668 31.564654 95 95 95 0
0.238884 -1.592559 32.501209 95 95 95 0
0.324452 -1.622261 33.107365 91 91 91 0
0.408017 -1.632067 33.307484 83 83 83 0
0.493083 -1.643612 33.543095 75 75 75 0
0.587738 -1.679253 34.270466 114 114 114 0
0.671299 -1.678247 34.249945 131 131 131 0
0.750720 -1.668266 34.046252 133 133 133 0
0.829174 -1.658348 33.843846 129 129 129 0
0.903907 -1.643467 33.540148 133 133 133 0
0.978026 -1.630043 33.266178 131 131 131 0
1.053263 -1.620405 33.069485 135 135 135 0
1.129716 -1.613880 32.936328 137 137 137 0
1.207661 -1.610215 32.861533 141 141 141 0
1.286663 -1.608329 32.823045 146 146 146 0
1.364155 -1.604889 32.752829 149 149 149 0
1.440426 -1.600473 32.662717 150 150 150 0
1.521931 -1.602032 32.694539 153 153 153 0
1.600881 -1.600881 32.671042 153 153 153 0
1.673347 -1.593664 32.523750 154 154 154 0
1.750613 -1.591466 32.478899 161 161 161 0
1.835132 -1.595767 32.566669 158 158 158 0
1.914018 -1.595015 32.551328 149 149 149 0
1.986988 -1.589591 32.440623 146 146 146 0
2.058425 -1.583404 32.314363 142 142 142 0
2.127314 -1.575788 32.158945 141 141 141 0
2.197789 -1.569850 32.037746 144 144 144 0
2.270274 -1.565706 31.953190 148 148 148 0
2.343469 -1.562313 31.883935 155 155 155 0
2.416997 -1.559353 31.823526 160 160 160 0
2.496783 -1.560490 31.846725 161 161 161 0
2.574888 -1.560538 31.847718 159 159 159 0
2.647663 -1.557449 31.784671 158 158 158 0
2.724587 -1.556907 31.773611 156 156 156 0
2.804284 -1.557936 31.794604 154 154 154 0
2.884542 -1.559212 31.820649 153 153 153 0
2.957951 -1.556816 31.771765 153 153 153 0
3.032148 -1.554948 31.733631 152 152 152 0
3.114122 -1.557061 31.776753 151 151 151 0
3.194263 -1.558177 31.799531 152 152 152 0
3.264445 -1.554498 31.724440 153 153 153 0
3.338435 -1.552761 31.688992 151 151 151 0
3.420425 -1.554739 31.729365 150 150 150 0
3.499794 -1.555464 31.744161 148 148 148 0
3.569219 -1.551834 31.670091 148 148 148 0
3.677812 -1.565026 31.939312 146 146 146 0
3.722239 -1.550933 31.651690 145 145 145 0
3.798070 -1.550233 31.637403 145 144 145 0
3.911997 -1.564799 31.934667 143 143 143 0
3.938041 -1.544330 31.516932 142 142 142 0
4.177428 -1.606703 32.789859 142 142 142 0
4.257676 -1.606670 32.789186 145 145 145 0
4.000264 -1.481579 30.236313 145 145 145 0
4.242617 -1.542770 31.485095 145 145 145 0
4.331109 -1.546825 31.567849 145 145 145 0
4.411297 -1.547824 31.588238 145 145 145 0
4.782652 -1.649190 33.656943 141 141 141 0
4.549773 -1.542296 31.475429 139 139 139 0
4.636987 -1.545662 31.544130 137 137 137 0
4.726301 -1.549607 31.624632 134 134 134 0
4.801450 -1.548855 31.609285 133 133 133 0
5.064949 -1.607920 32.814697 129 129 129 0
4.957034 -1.549073 31.613737 126 126 126 0
5.642523 -1.736161 35.431856 125 125 125 0
5.872890 -1.779664 36.319666 122 122 122 0
6.106765 -1.822915 37.202343 116 116 116 0
6.346612 -1.866651 38.094911 113 113 113 0
5.115192 -1.482664 30.258457 110 110 110 0
4.415035 -1.261439 25.743645 107 107 107 0
4.478412 -1.261524 25.745396 108 108 108 0
5.650654 -1.569626 32.033188 112 112 112 0
4.611048 -1.263301 25.781652 111 111 111 0
4.684534 -1.266090 25.838575 112 112 112 0
5.967645 -1.591372 32.476978 112 112 112 0
4.813779 -1.266784 25.852732 109 109 109 0
4.859708 -1.262262 25.760447 108 108 108 0
4.892048 -1.254371 25.599414 107 107 107 0
4.893545 -1.238872 25.283104 111 111 111 0
-6.312145 -1.499134 32.204820 123 123 123 0
-6.224937 -1.497137 32.161904 127 127 127 0
-6.156804 -1.499734 32.217706 122 122 122 0
-6.099258 -1.505012 32.331080 132 132 132 0
-6.032593 -1.508148 32.398459 131 131 131 0
-5.965610 -1.511288 32.465904 137 137 137 0
-5.901873 -1.515346 32.553075 149 149 149 0
-5.831507 -1.517789 32.605573 157 157 157 0
-5.758061 -1.519488 32.642070 160 160 160 0
-5.688046 -1.522153 32.699317 158 158 158 0
-5.595975 -1.518907 32.629590 158 158 158 0
-5.500616 -1.514662 32.538399 156 156 156 0
-5.415861 -1.513255 32.508172 150 150 150 0
-5.322140 -1.509264 32.422421 142 142 142 0
-5.239351 -1.508298 32.401673 136 136 136 0
-5.164359 -1.509582 32.429258 123 123 123 0
-5.101121 -1.514395 32.532659 115 115 115 0
-4.578764 -1.380897 29.664814 115 114 115 0
-4.986118 -1.528004 32.825006 89 89 89 0
-4.937133 -1.537796 33.035350 105 105 105 0
-4.873973 -1.543425 33.156278 155 155 155 0
-4.788882 -1.542182 33.129590 162 162 162 0
-4.696092 -1.538375 33.047796 156 156 156 0
-4.603070 -1.534357 32.961477 160 160 160 0
-4.518260 -1.532981 32.931925 155 155 155 0
-4.434514 -1.531923 32.909192 152 152 152 0
-4.349505 -1.530381 32.876077 149 149 149 0
-4.271536 -1.531305 32.895922 145 145 145 0
-4.194238 -1.532510 32.921807 144 144 144 0
-4.117376 -1.533924 32.952189 141 141 141 0
-4.034910 -1.533266 32.938045 133 133 133 0
-3.966767 -1.538134 33.042624 139 139 139 0
-3.887515 -1.538808 33.057102 148 148 148 0
-3.811465 -1.540805 33.099999 161 161 161 0
-3.731751 -1.541376 33.112256 166 166 166 0
-3.653820 -1.542724 33.141226 167 167 167 0
-3.570474 -1.541795 33.121276 166 166 166 0
-3.487533 -1.541003 33.104257 161 161 161 0
-3.400891 -1.538498 33.050444 158 158 158 0
-3.329963 -1.543154 33.150453 164 164 164 0
-3.262024 -1.549461 33.285955 172 172 172 0
-3.184775 -1.551557 33.330980 171 171 171 0
-3.094766 -1.547383 33.241315 158 158 158 0
-2.883292 -1.480609 31.806859 142 142 142 0
-2.783629 -1.469138 31.560423 130 130 130 0
-2.686659 -1.458472 31.331303 129 129 129 0
-2.606519 -1.456584 31.290746 128 127 128 0
-2.530693 -1.457066 31.301086 123 123 123 0
-2.444652 -1.451512 31.181786 123 123 123 0
-2.369115 -1.452038 31.193093 119 118 119 0
-2.291493 -1.451279 31.176779 121 121 121 0
-2.214074 -1.450600 31.162194 118 118 118 0
-2.141780 -1.453350 31.221276 115 115 115 0
-2.066387 -1.454124 31.237901 113 113 113 0
-1.992422 -1.456001 31.278216 109 108 109 0
-1.919417 -1.458757 31.337418 110 110 110 0
-1.845593 -1.461094 31.387633 108 108 108 0
-1.767213 -1.459871 31.361360 109 109 109 0
-1.704360 -1.471947 31.620780 104 104 104 0
-1.645640 -1.488912 31.985227 107 107 107 0
-1.572958 -1.494310 32.101184 112 112 112 0
-1.495723 -1.495723 32.131528 112 112 112 0
-1.421575 -1.500551 32.235252 118 118 118 0
-1.338004 -1.495416 32.124937 127 127 127 0
-1.254289 -1.489468 31.997163 128 128 128 0
-1.172323 -1.484943 31.899957 134 134 134 0
-1.090425 -1.479862 31.790808 132 132 132 0
-1.010717 -1.477202 31.733656 134 134 134 0
-0.932818 -1.476962 31.728497 136 136 136 0
-0.851272 -1.470379 31.587080 137 137 137 0
-0.771706 -1.466242 31.498207 135 135 135 0
-0.695307 -1.467870 31.533180 136 136 136 0
-0.617852 -1.467399 31.523067 136 136 136 0
-0.540055 -1.465862 31.490060 129 129 129 0
-0.463411 -1.467467 31.524542 122 122 122 0
-0.341353 -1.297140 27.865531 114 114 114 0
-0.274055 -1.301761 27.964791 102 102 102 0
-0.206445 -1.307488 28.087819 97 97 97 0
-0.139062 -1.321090 28.380019 89 89 89 0
-0.066089 -1.255689 26.975060 87 87 87 0
0.000000 -1.414604 30.388909 94 93 93 0
0.074948 -1.424016 30.591115 95 95 95 0
0.134824 -1.280830 27.515135 98 98 98 0
0.235235 -1.489825 32.004826 98 98 98 0
0.324942 -1.543473 33.157314 97 97 97 0
0.407598 -1.548874 33.273337 74 74 74 0
0.491082 -1.555095 33.406973 72 72 72 0
0.585416 -1.588986 34.135039 84 84 84 0
0.673928 -1.600579 34.384075 122 122 122 0
0.754048 -1.591880 34.197207 134 134 134 0
0.831675 -1.580183 33.945927 133 133 133 0
0.910426 -1.572555 33.782058 132 132 132 0
0.980884 -1.553066 33.363389 128 128 128 0
1.055346 -1.542428 33.134876 129 129 129 0
1.132203 -1.536562 33.008846 138 138 138 0
1.209818 -1.532436 32.920215 141 141 141 0
1.288005 -1.529506 32.857276 146 146 146 0
1.366319 -1.527063 32.804787 148 148 148 0
1.441968 -1.522077 32.697681 151 151 151 0
1.521631 -1.521631 32.688092 151 151 151 0
1.601608 -1.521527 32.685874 154 154 154 0
1.676128 -1.516497 32.577799 154 154 154 0
1.753098 -1.514040 32.525018 157 157 157 0
1.835406 -1.516205 32.571537 157 157 157 0
1.914629 -1.515748 32.561720 148 148 148 0
1.983704 -1.507615 32.387010 145 145 145 0
2.059150 -1.504763 32.325742 140 140 140 0
2.127332 -1.497011 32.159212 141 141 141 0
2.196306 -1.490351 32.016124 143 143 143 0
2.272128 -1.488636 31.979286 148 148 148 0
2.343133 -1.483984 31.879358 154 154 154 0
2.417708 -1.481821 31.832890 161 161 161 0
2.496204 -1.482121 31.839338 161 161 161 0
2.575351 -1.482778 31.853450 160 160 160 0
2.648377 -1.479975 31.793241 159 159 159 0
2.724917 -1.479241 31.777458 156 156 156 0
2.804402 -1.480101 31.795945 155 155 155 0
2.885137 -1.481557 31.827210 155 155 155 0
2.957283 -1.478641 31.764586 156 156 156 0
3.033136 -1.477682 31.743970 155 155 155 0
3.112623 -1.478496 31.761458 159 159 159 0
3.194332 -1.480300 31.800220 160 160 160 0
3.263601 -1.476391 31.716240 159 159 159 0
3.338259 -1.475045 31.687322 157 157 157 0
3.419362 -1.476543 31.719501 156 155 156 0
3.498890 -1.477309 31.735963 156 156 156 0
3.566355 -1.473060 31.644679 154 154 154 0
3.637896 -1.470639 31.592668 154 154 154 0
3.717108 -1.471355 31.608060 155 155 155 0
3.795964 -1.471904 31.619859 155 155 155 0
3.911877 -1.486513 31.933690 154 154 154 0
3.882929 -1.446582 31.075865 150 150 150 0
3.959848 -1.446867 31.082006 150 150 150 0
4.036913 -1.447195 31.089050 153 153 153 0
4.337335 -1.526099 32.784092 150 150 150 0
4.301488 -1.485968 31.921985 150 150 150 0
4.329352 -1.468887 31.555047 149 149 149 0
4.406615 -1.468872 31.554706 147 147 147 0
4.481405 -1.468046 31.536980 143 143 143 0
4.550616 -1.465452 31.481256 139 139 139 0
5.328576 -1.687382 36.248814 137 137 137 0
4.725177 -1.471777 31.617112 135 135 135 0
4.800226 -1.471037 31.601226 133 133 133 0
4.879201 -1.471505 31.611277 129 129 129 0
5.553420 -1.648672 35.417220 125 125 125 0
5.642115 -1.649234 35.429296 123 123 123 0
5.873426 -1.690835 36.322978 120 120 120 0
6.106563 -1.731712 37.201115 116 116 116 0
6.345900 -1.773119 38.090637 113 113 113 0
5.392568 -1.484910 31.899249 107 107 107 0
6.690451 -1.815980 39.011377 107 107 107 0
6.790637 -1.817213 39.037867 107 107 107 0
5.680760 -1.499089 32.203853 112 112 112 0
7.087228 -1.844621 39.626658 112 112 112 0
4.684154 -1.202688 25.836480 113 113 113 0
4.752563 -1.203983 25.864287 110 110 110 0
7.479920 -1.869980 40.171430 108 108 108 0
4.876220 -1.203223 25.847974 106 106 106 0
4.862433 -1.184439 25.444440 107 107 107 0
4.928343 -1.185298 25.462893 115 115 115 0
-5.776552 -1.299724 29.472205 122 122 122 0
-6.233758 -1.420350 32.207481 125 125 125 0
-6.153037 -1.419932 32.197997 128 128 128 0
-6.091746 -1.424044 32.291258 125 125 125 0
-6.022553 -1.426394 32.344535 133 133 133 0
-5.964555 -1.431493 32.460165 141 141 141 0
-5.895580 -1.434060 32.518367 150 150 150 0
-5.829808 -1.437487 32.596074 156 156 156 0
-5.756166 -1.439041 32.631326 159 159 159 0
-5.685068 -1.441285 32.682194 162 162 162 0
-5.591271 -1.437755 32.602163 162 162 162 0
-5.492760 -1.432894 32.491925 154 154 154 0
-5.401316 -1.429760 32.420862 148 148 148 0
-5.313020 -1.427378 32.366858 144 143 143 0
-5.234928 -1.427708 32.374322 137 137 137 0
-5.150206 -1.426211 32.340384 133 133 133 0
-5.092693 -1.432320 32.478910 118 118 118 0
-5.000749 -1.428785 32.398763 111 111 111 0
-4.967906 -1.442295 32.705109 100 100 100 0
-4.910613 -1.449033 32.857899 87 87 87 0
-4.861460 -1.458438 33.071156 138 138 138 0
-4.785791 -1.460072 33.108204 159 159 159 0
-4.696340 -1.457485 33.049546 155 155 155 0
-4.605600 -1.454400 32.979594 159 159 159 0
-4.518225 -1.452287 32.931667 157 157 157 0
-4.430888 -1.450109 32.882284 151 151 151 0
-4.346494 -1.448831 32.853320 150 150 150 0
-4.263515 -1.447986 32.834158 146 146 146 0
-4.185764 -1.448918 32.855293 145 145 145 0
-4.111266 -1.451035 32.903291 141 141 141 0
-4.029817 -1.450734 32.896463 143 143 143 0
-3.950077 -1.451049 32.903597 133 133 133 0
-3.879479 -1.454805 32.988766 137 137 137 0
-3.805414 -1.457393 33.047453 139 139 139 0
-3.727220 -1.458477 33.072048 149 149 149 0
-3.647021 -1.458808 33.079555 164 164 164 0
-3.572976 -1.461672 33.144488 171 171 171 0
-3.490239 -1.461030 33.129940 163 163 163 0
-3.413756 -1.463038 33.175476 173 173 173 0
-3.340356 -1.466498 33.253914 178 178 178 0
-3.260505 -1.467227 33.270462 165 165 165 0
-3.175177 -1.465466 33.230525 159 159 159 0
-2.921540 -1.383887 31.380668 141 141 141 0
-2.849836 -1.386407 31.437799 134 134 134 0
-2.752800 -1.376400 31.210882 130 130 130 0
-2.670482 -1.373391 31.142644 128 127 128 0
-2.590699 -1.371547 31.100831 124 123 124 0
-2.509812 -1.368988 31.042820 122 122 122 0
-2.429796 -1.366761 30.992302 118 117 117 0
-2.352369 -1.365891 30.972594 119 119 119 0
-2.280822 -1.368493 31.031589 116 115 115 0
-2.202161 -1.366858 30.994522 113 113 114 0
-2.127470 -1.367659 31.012677 115 115 115 0
-2.050854 -1.367236 31.003090 111 111 111 0
-1.976267 -1.368185 31.024600 109 108 109 0
-1.907285 -1.373245 31.139351 110 110 110 0
-1.830669 -1.373002 31.133834 108 108 108 0
-1.758348 -1.376099 31.204050 108 108 108 0
-1.686235 -1.379647 31.284515 104 104 104 0
-1.610572 -1.380490 31.303635 102 101 101 0
-1.543903 -1.389512 31.508214 99 99 99 0
-1.476930 -1.399197 31.727818 109 109 109 0
-1.401330 -1.401330 31.776190 108 107 108 0
-1.324158 -1.402050 31.792506 117 117 117 0
-1.245547 -1.401240 31.774149 121 121 121 0
-1.165623 -1.398748 31.717643 125 124 125 0
-1.086352 -1.396738 31.672060 129 129 129 0
-1.008725 -1.396696 31.671111 133 133 133 0
-0.928396 -1.392595 31.578111 134 134 134 0
-0.847568 -1.386929 31.449636 137 137 137 0
-0.770606 -1.387091 31.453320 140 140 140 0
-0.694359 -1.388719 31.490218 138 138 138 0
-0.616995 -1.388239 31.479350 137 137 137 0
-0.539322 -1.386828 31.447340 130 130 130 0
-0.462735 -1.388204 31.478540 124 124 124 0
-0.387047 -1.393368 31.595644 117 117 117 0
-0.273073 -1.228828 27.864582 107 107 107 0
-0.205813 -1.234876 28.001729 104 104 104 0
-0.137538 -1.237841 28.068949 94 94 94 0
-0.065541 -1.179734 26.751349 90 90 90 0
0.000000 -1.213294 27.512329 95 95 95 0
0.066707 -1.200725 27.227329 87 87 87 0
0.134940 -1.214457 27.538700 95 95 95 0
0.236588 -1.419529 32.188869 99 99 99 0
0.323353 -1.455089 32.995211 93 93 93 0
0.405146 -1.458525 33.073128 72 72 72 0
0.490491 -1.471473 33.366731 60 60 60 0
0.580627 -1.493041 33.855796 68 68 68 0
0.672588 -1.513322 34.315696 104 104 104 0
0.755034 -1.510068 34.241906 128 128 128 0
0.835071 -1.503127 34.084513 132 132 132 0
0.913831 -1.495359 33.908374 134 134 134 0
0.989527 -1.484290 33.657380 129 129 129 0
1.060535 -1.468433 33.297791 130 130 130 0
1.135344 -1.459728 33.100416 130 130 130 0
1.211590 -1.453908 32.968427 136 136 136 0
1.289651 -1.450858 32.899265 143 143 143 0
1.366917 -1.447324 32.819127 149 149 149 0
1.442575 -1.442575 32.711448 148 148 148 0
1.522560 -1.442425 32.708051 151 151 151 0
1.601397 -1.441257 32.681569 154 154 154 0
1.677002 -1.437430 32.594782 152 152 152 0
1.753098 -1.434353 32.525018 153 153 153 0
1.834781 -1.435915 32.560435 152 152 152 0
1.912789 -1.434592 32.530420 147 147 147 0
1.983422 -1.428064 32.382404 145 145 145 0
2.055666 -1.423153 32.271051 142 142 142 0
2.127179 -1.418119 32.156894 144 144 144 0
2.199502 -1.413965 32.062708 144 144 144 0
2.272236 -1.410353 31.980804 149 149 149 0
2.345024 -1.407015 31.905093 152 152 152 0
2.419396 -1.404810 31.855109 158 158 158 0
2.496324 -1.404182 31.840868 159 159 159 0
2.575538 -1.404839 31.855754 160 160 160 0
2.647821 -1.401787 31.786563 158 158 158 0
2.724630 -1.401238 31.774113 157 157 157 0
2.803529 -1.401765 31.786044 156 156 156 0
2.886752 -1.404366 31.845032 157 157 157 0
2.958037 -1.401175 31.772686 157 157 157 0
3.032646 -1.399683 31.738839 157 157 157 0
3.112746 -1.400735 31.762709 161 161 161 0
3.193778 -1.402146 31.794701 161 161 161 0
3.264224 -1.398953 31.722292 161 161 161 0
3.337291 -1.397006 31.678134 159 159 159 0
3.418283 -1.398389 31.709492 159 159 159 0
3.498187 -1.399275 31.729591 159 159 159 0
3.566372 -1.395537 31.644824 158 158 158 0
3.636955 -1.392876 31.584499 158 158 158 0
3.717386 -1.394020 31.610428 159 159 159 0
3.733523 -1.371498 31.099730 158 158 158 0
3.911681 -1.408205 31.932087 155 155 155 0
3.882942 -1.370450 31.075967 151 151 151 0
4.069241 -1.408584 31.940671 151 151 151 0
4.037248 -1.371141 31.091630 152 152 152 0
4.175370 -1.391790 31.559863 154 154 154 0
4.238683 -1.387205 31.455900 149 149 149 0
4.327197 -1.390885 31.539334 151 150 151 0
4.409401 -1.392442 31.574655 147 147 147 0
4.295279 -1.333018 30.227156 144 144 144 0
4.550787 -1.388376 31.482440 139 139 139 0
4.946898 -1.484069 33.652369 136 136 136 0
5.160910 -1.522892 34.532687 133 133 133 0
4.722292 -1.370988 31.088164 130 130 130 0
4.879418 -1.394119 31.612685 127 127 127 0
4.959819 -1.394949 31.631499 121 121 121 0
5.055579 -1.400006 31.746179 121 121 121 0
6.156203 -1.678964 38.071754 118 118 118 0
6.107260 -1.640756 37.205359 116 116 116 0
6.346401 -1.679930 38.093646 111 111 111 0
4.351428 -1.135155 25.740477 109 109 109 0
5.498697 -1.413951 32.062376 108 108 108 0
5.587023 -1.416428 32.118557 111 111 111 0
5.650367 -1.412592 32.031560 111 111 111 0
4.606026 -1.135732 25.753570 113 113 113 0
7.210655 -1.753943 39.771955 112 112 112 0
7.343615 -1.762468 39.965254 110 110 110 0
4.811589 -1.139587 25.840975 108 108 108 0
7.550890 -1.765143 40.025921 108 108 108 0
4.847902 -1.118747 25.368406 108 108 108 0
4.895406 -1.115409 25.292721 118 118 118 0
-5.773729 -1.226917 29.457803 125 125 125 0
-6.227456 -1.340085 32.174919 123 123 123 0
-6.146634 -1.339651 32.164492 126 126 126 0
-6.092071 -1.345003 32.292982 125 125 125 0
-6.024156 -1.347509 32.353149 135 135 135 0
-5.960424 -1.351029 32.437683 144 144 144 0
-5.899466 -1.355283 32.539803 153 153 153 0
-5.827336 -1.357051 32.582254 160 160 160 0
-5.754151 -1.358619 32.619901 158 158 158 0
-5.674233 -1.358619 32.619911 158 158 158 0
-5.576838 -1.354375 32.518005 154 154 154 0
-5.478559 -1.349790 32.407921 149 149 149 0
-5.389939 -1.347485 32.352573 146 146 146 0
-5.305177 -1.346090 32.319079 143 143 143 0
-5.218847 -1.344248 32.274871 136 136 136 0
-5.150796 -1.347131 32.344089 128 128 128 0
-5.078880 -1.349077 32.390815 122 122 122 0
-4.544865 -1.226392 29.445189 111 111 111 0
-4.898920 -1.343252 32.250957 102 102 102 0
-4.888016 -1.362234 32.706700 85 85 85 0
-4.846113 -1.373065 32.966755 112 112 112 0
-4.780321 -1.377381 33.070365 159 159 159 0
-4.696910 -1.376680 33.053553 157 157 157 0
-4.601579 -1.372401 32.950799 158 158 158 0
-4.514057 -1.370339 32.901292 155 155 155 0
-4.429382 -1.369082 32.871109 154 154 154 0
-4.341466 -1.366758 32.815315 151 151 151 0
-4.257776 -1.365702 32.789961 146 146 146 0
-4.179083 -1.366239 32.802849 145 145 145 0
-4.104507 -1.368169 32.849193 141 141 141 0
-4.020986 -1.367135 32.824378 141 141 141 0
-3.947795 -1.369643 32.884586 137 137 137 0
-3.864408 -1.368645 32.860616 136 136 136 0
-3.797538 -1.373578 32.979056 135 135 135 0
-3.720375 -1.374921 33.011314 138 138 138 0
-3.647799 -1.378057 33.086611 143 143 143 0
-3.569667 -1.379190 33.113798 151 151 151 0
-3.483840 -1.377332 33.069197 154 154 154 0
-3.413233 -1.381547 33.170392 167 167 167 0
-3.336746 -1.383529 33.217980 165 165 165 0
-3.258715 -1.384954 33.252194 157 157 157 0
-3.003571 -1.309249 31.434551 145 145 145 0
-2.914590 -1.303895 31.306012 135 135 135 0
-2.827671 -1.299200 31.193286 130 130 130 0
-2.737774 -1.292838 31.040525 128 128 128 0
-2.651869 -1.288051 30.925583 127 127 127 0
-2.569264 -1.284632 30.843503 124 124 124 0
-2.496304 -1.285975 30.875744 121 120 120 0
-2.416470 -1.283750 30.822320 120 120 120 0
-2.336687 -1.281409 30.766116 118 118 118 0
-2.261947 -1.281770 30.774784 115 114 115 0
-2.190981 -1.284368 30.837175 114 114 114 0
-2.114648 -1.283894 30.825779 111 111 111 0
-2.040708 -1.284890 30.849706 112 111 112 0
-1.966872 -1.286032 30.877115 110 110 110 0
-1.896350 -1.289518 30.960818 105 105 105 0
-1.824646 -1.292458 31.031393 107 107 107 0
-1.561501 -1.154153 27.710746 104 104 104 0
-1.678926 -1.297352 31.148907 105 104 105 0
-1.606640 -1.300613 31.227209 106 106 106 0
-1.537251 -1.306664 31.372479 105 104 105 0
-1.459141 -1.305547 31.345662 103 103 103 0
-1.382104 -1.305320 31.340221 108 108 108 0
-1.313652 -1.313652 31.540270 110 110 110 0
-1.236600 -1.313887 31.545907 115 115 115 0
-1.160474 -1.315204 31.577528 120 119 120 0
-1.080110 -1.311562 31.490077 125 125 125 0
-1.003416 -1.312159 31.504426 128 128 128 0
-0.925315 -1.310862 31.473284 132 132 132 0
-0.845787 -1.307125 31.383550 136 135 136 0
-0.768656 -1.306715 31.373715 139 139 139 0
-0.693558 -1.310054 31.453875 139 139 139 0
-0.616263 -1.309559 31.441982 134 134 134 0
-0.538739 -1.308367 31.413381 129 129 129 0
-0.462529 -1.310500 31.464580 125 125 125 0
-0.386436 -1.313882 31.545795 117 117 117 0
-0.273146 -1.160871 27.872062 111 111 111 0
-0.205800 -1.166200 28.000000 105 105 105 0
-0.137545 -1.169135 28.070468 96 96 96 0
-0.071881 -1.221972 29.339059 91 91 91 0
0.000000 -1.092945 26.241168 92 92 92 0
0.074685 -1.269641 30.483587 96 96 96 0
0.149379 -1.269725 30.485588 91 91 91 0
0.207019 -1.173108 28.165860 95 95 95 0
0.322015 -1.368564 32.858668 97 97 97 0
0.406632 -1.382549 33.194448 70 70 70 0
0.492167 -1.394474 33.480780 75 75 75 0
0.579217 -1.406671 33.773612 66 66 66 0
0.671708 -1.427380 34.270823 84 84 84 0
0.758433 -1.432596 34.396074 123 123 123 0
0.840969 -1.429647 34.325266 133 133 133 0
0.916361 -1.416195 34.002275 137 137 137 0
0.992399 -1.405898 33.755054 135 135 135 0
1.065783 -1.393717 33.462583 131 131 131 0
1.140300 -1.384649 33.244886 127 127 127 0
1.213944 -1.375804 33.032503 134 134 134 0
1.290608 -1.371271 32.923671 138 138 138 0
1.368276 -1.368276 32.851766 143 143 143 0
1.444108 -1.363880 32.746223 146 146 146 0
1.524934 -1.364415 32.759063 149 149 149 0
1.603198 -1.362719 32.718333 152 152 152 0
1.677349 -1.357854 32.601526 152 152 152 0
1.754885 -1.356047 32.558157 149 149 149 0
1.835364 -1.356573 32.570792 150 150 150 0
1.913233 -1.355207 32.537971 148 148 148 0
1.982722 -1.348251 32.370970 145 145 145 0
2.056390 -1.344562 32.282412 140 140 140 0
2.128680 -1.340280 32.179593 142 142 142 0
2.198887 -1.335038 32.053743 145 145 145 0
2.272240 -1.332003 31.980853 149 149 149 0
2.345867 -1.329324 31.916554 152 152 152 0
2.419180 -1.326647 31.852273 155 155 155 0
2.498386 -1.327268 31.867168 157 157 157 0
2.576411 -1.327242 31.866559 158 158 158 0
2.648867 -1.324433 31.799119 156 156 156 0
2.725847 -1.323983 31.788304 157 157 157 0
2.805556 -1.324846 31.809027 157 157 157 0
2.885550 -1.325793 31.831769 157 157 157 0
2.956092 -1.322462 31.751793 159 159 159 0
3.033486 -1.322289 31.747633 159 159 159 0
3.112504 -1.322814 31.760248 160 160 160 0
3.195757 -1.325070 31.814407 160 160 160 0
3.263579 -1.320973 31.716028 161 161 161 0
3.337869 -1.319623 31.683619 163 163 163 0
3.417270 -1.320309 31.700091 162 162 162 0
3.498761 -1.321754 31.734790 162 162 162 0
3.565676 -1.317750 31.638652 160 160 160 0
3.636180 -1.315214 31.577766 160 160 160 0
3.717472 -1.316605 31.611156 159 159 159 0
3.834288 -1.330263 31.939089 156 156 156 0
3.867406 -1.314918 31.570662 152 152 152 0
3.936014 -1.312005 31.500715 148 148 148 0
4.177208 -1.365626 32.788133 148 148 148 0
4.101413 -1.315548 31.585776 150 150 150 0
3.887747 -1.223920 29.385846 150 150 150 0
4.244792 -1.312027 31.501239 149 149 149 0
4.331616 -1.314955 31.571545 147 147 147 0
4.699679 -1.401659 33.653269 144 144 144 0
4.782490 -1.401764 33.655809 140 140 140 0
4.988701 -1.437422 34.511937 138 138 138 0
5.075347 -1.438015 34.526170 133 133 133 0
4.646110 -1.294817 31.088054 131 131 131 0
4.802249 -1.316746 31.614544 129 129 129 0
5.600418 -1.511224 36.283887 126 126 126 0
5.554291 -1.475358 35.422773 121 121 121 0
5.781692 -1.512135 36.305761 120 120 120 0
5.450699 -1.403968 33.708711 119 119 119 0
5.223234 -1.325298 31.819881 114 114 114 0
5.041149 -1.260287 30.259000 111 111 111 0
5.115887 -1.260436 30.262568 113 113 113 0
6.690197 -1.624762 39.009892 111 111 111 0
4.486504 -1.074233 25.791920 110 110 110 0
5.494568 -1.297329 31.148346 111 111 111 0
4.612318 -1.074102 25.788752 114 114 114 0
5.494500 -1.262250 30.306125 112 112 112 0
7.346253 -1.665151 39.979609 112 112 112 0
4.820239 -1.078211 25.887428 111 111 111 0
4.851305 -1.071067 25.715904 107 107 107 0
4.840834 -1.055054 25.331419 107 107 107 0
7.781592 -1.674520 40.204559 120 120 120 0
-5.764665 -1.152933 29.411557 122 122 122 0
-6.225912 -1.260944 32.166946 121 121 121 0
-6.149046 -1.261343 32.177112 126 126 126 0
-6.082928 -1.263985 32.244515 128 128 128 0
-6.023626 -1.268132 32.350298 136 136 136 0
-5.959090 -1.271273 32.430422 146 146 146 0
-5.899381 -1.275542 32.539333 160 160 160 0
-5.829958 -1.277799 32.596913 161 161 161 0
-5.749015 -1.277559 32.590786 158 158 158 0
-5.660978 -1.275713 32.543707 155 155 155 0
-5.561545 -1.271210 32.428833 153 152 153 0
-5.460519 -1.266207 32.301207 149 149 149 0
-5.376567 -1.265075 32.272310 145 145 145 0
-5.291188 -1.263567 32.233860 142 142 142 0
-5.211610 -1.263421 32.230118 133 133 133 0
-5.140257 -1.265294 32.277910 129 129 129 0
-5.071604 -1.267901 32.344413 124 124 124 0
-4.993198 -1.268114 32.349842 113 113 113 0
-4.901042 -1.264785 32.264924 110 110 110 0
-4.865708 -1.276251 32.557431 94 94 94 0
-4.826793 -1.287145 32.835325 91 91 91 0
-4.771900 -1.294075 33.012107 144 144 144 0
-4.690830 -1.294022 33.010765 155 155 155 0
-4.600894 -1.291479 32.945893 156 156 156 0
-4.510404 -1.288687 32.874663 156 156 156 0
-4.424925 -1.287251 32.838032 153 153 153 0
-4.340310 -1.286018 32.806574 152 152 152 0
-4.251919 -1.283598 32.744855 149 149 149 0
-4.172818 -1.283944 32.753674 146 146 146 0
-4.099456 -1.286104 32.808773 142 142 142 0
-4.018027 -1.285769 32.800224 142 142 142 0
-3.943732 -1.287749 32.850743 140 140 140 0
-3.865372 -1.288457 32.868808 138 138 138 0
-3.794030 -1.291585 32.948587 139 139 139 0
-3.703224 -1.288078 32.859126 143 143 143 0
-3.633810 -1.292021 32.959726 144 144 144 0
-3.558481 -1.293993 33.010026 152 152 152 0
-3.480785 -1.295176 33.040200 154 154 154 0
-3.402840 -1.296320 33.069392 156 156 156 0
-3.337380 -1.302392 33.224291 157 157 157 0
-3.061660 -1.224664 31.241429 143 143 143 0
-2.983078 -1.223827 31.220074 135 135 135 0
-2.897027 -1.219801 31.117367 132 132 132 0
-2.807440 -1.214028 30.970105 129 130 130 0
-2.722197 -1.209865 30.863910 128 128 128 0
-2.637290 -1.205618 30.755571 125 125 125 0
-2.557463 -1.203512 30.701839 122 122 122 0
-2.483741 -1.204238 30.720363 123 123 123 0
-2.397176 -1.198588 30.576223 119 119 119 0
-2.318206 -1.196493 30.522791 120 120 120 0
-2.247361 -1.198592 30.576336 112 112 112 0
-2.173703 -1.199284 30.593992 112 112 112 0
-2.099374 -1.199642 30.603121 112 111 112 0
-2.027438 -1.201445 30.649095 109 109 109 0
-1.954049 -1.202492 30.675812 109 109 109 0
-1.883520 -1.205453 30.751340 106 106 106 0
-1.815654 -1.210436 30.878463 105 105 105 0
-1.741324 -1.211356 30.901930 104 103 103 0
-1.670370 -1.214815 30.990174 110 110 110 0
-1.595582 -1.215681 31.012282 107 106 107 0
-1.522163 -1.217730 31.064550 105 105 105 0
-1.451821 -1.222586 31.188422 102 101 102 0
-1.376154 -1.223248 31.205307 106 106 106 0
-1.302323 -1.225716 31.268257 106 106 106 0
-1.229775 -1.229775 31.371805 111 110 111 0
-1.152603 -1.229443 31.363342 117 117 117 0
-1.075548 -1.229197 31.357072 122 122 122 0
-0.998821 -1.229318 31.360149 128 128 128 0
-0.921868 -1.229157 31.356045 131 131 131 0
-0.843321 -1.226649 31.292056 134 134 134 0
-0.767716 -1.228345 31.335329 137 137 137 0
-0.692675 -1.231422 31.413821 136 136 136 0
-0.615462 -1.230924 31.401126 131 131 131 0
-0.538586 -1.231054 31.404429 127 127 127 0
-0.462450 -1.233201 31.459210 123 123 123 0
-0.340941 -1.091012 27.831934 118 118 118 0
-0.273314 -1.093258 27.889232 113 113 113 0
-0.205315 -1.095012 27.933979 109 109 109 0
-0.137681 -1.101452 28.098262 99 98 99 0
-0.070082 -1.121314 28.604936 91 91 91 0
0.000000 -1.052796 26.857045 95 95 95 0
0.066722 -1.067547 27.233335 88 88 88 0
0.133598 -1.068783 27.264876 89 89 89 0
0.231945 -1.237040 31.557154 101 101 101 0
0.320458 -1.281831 32.699763 94 94 94 0
0.577188 -1.319287 33.655281 56 56 56 0
0.671157 -1.342314 34.242696 66 66 66 0
0.759962 -1.351043 34.465394 105 105 105 0
0.840711 -1.345138 34.314741 131 131 131 0
0.921300 -1.340072 34.185512 126 126 126 0
0.994712 -1.326283 33.833746 135 135 135 0
1.069782 -1.316655 33.588143 128 128 128 0
1.143335 -1.306668 33.333369 132 132 132 0
1.219061 -1.300332 33.171737 128 128 128 0
1.294550 -1.294550 33.024237 135 135 135 0
1.371134 -1.290479 32.920388 136 136 136 0
1.447185 -1.286386 32.815976 142 142 142 0
1.525082 -1.284280 32.762244 147 146 147 0
1.604580 -1.283664 32.746525 150 150 150 0
1.680911 -1.280694 32.670764 152 152 152 0
1.756918 -1.277759 32.595884 149 149 149 0
1.836054 -1.277255 32.583028 150 150 150 0
1.914173 -1.276115 32.553961 145 145 145 0
1.980197 -1.267326 32.329744 143 143 143 0
2.052717 -1.263211 32.224758 141 141 141 0
2.127274 -1.260607 32.158338 142 142 142 0
2.198167 -1.256095 32.043248 146 146 146 0
2.273479 -1.254333 31.998291 147 147 147 0
2.347225 -1.251854 31.935040 152 152 152 0
2.420680 -1.249383 31.872021 153 153 153 0
2.498552 -1.249276 31.869283 157 157 157 0
2.575619 -1.248785 31.856759 159 159 159 0
2.650223 -1.247164 31.815398 159 159 159 0
2.725672 -1.246022 31.786267 157 157 157 0
2.807511 -1.247783 31.831193 157 157 157 0
2.886434 -1.248188 31.841524 155 155 155 0
2.958125 -1.245526 31.773635 158 158 158 0
3.032836 -1.244240 31.740827 157 157 157 0
3.113647 -1.245459 31.771908 161 161 161 0
3.194478 -1.246626 31.801671 160 160 160 0
3.263960 -1.243413 31.719730 160 160 160 0
3.337489 -1.241856 31.680008 160 160 160 0
3.418182 -1.242975 31.708553 161 161 161 0
3.497326 -1.243494 31.721775 159 159 159 0
3.565156 -1.240054 31.634039 157 157 157 0
3.637680 -1.238359 31.590797 156 156 156 0
3.720149 -1.240050 31.633921 153 153 153 0
3.631720 -1.185868 30.251729 148 148 148 0
3.911910 -1.251811 31.933958 145 145 145 0
3.989370 -1.251567 31.927731 147 147 147 0
4.025024 -1.238469 31.593593 146 146 146 0
3.926791 -1.185446 30.240978 147 147 147 0
3.888046 -1.152014 29.388104 146 146 146 0
4.247622 -1.235672 31.522238 145 145 145 0
4.333991 -1.238283 31.588854 145 145 145 0
4.414203 -1.239075 31.609045 140 140 140 0
4.783369 -1.319550 33.661992 139 139 139 0
4.561125 -1.236915 31.553962 136 136 136 0
4.644447 -1.238519 31.594877 131 131 131 0
5.290933 -1.387786 35.402697 129 129 129 0
4.807395 -1.240618 31.648417 127 127 127 0
5.600937 -1.422460 36.287250 124 124 124 0
5.554112 -1.388528 35.421634 123 123 123 0
5.643102 -1.389071 35.435494 120 120 120 0
5.146212 -1.247567 31.825676 118 118 118 0
6.107859 -1.458593 37.209013 115 115 115 0
6.055684 -1.424867 36.348644 113 113 113 0
5.404781 -1.253283 31.971493 113 113 113 0
5.191621 -1.186656 30.271843 112 112 112 0
4.486146 -1.010962 25.789858 112 112 112 0
5.689641 -1.264365 32.254200 111 111 111 0
4.615810 -1.011684 25.808275 114 114 114 0
4.684593 -1.012885 25.838902 111 111 111 0
7.186044 -1.533023 39.107722 112 112 112 0
4.825898 -1.015979 25.917819 111 111 111 0
6.050135 -1.257171 32.070685 107 107 107 0
4.824189 -0.989577 25.244315 107 107 107 0
7.790757 -1.577875 40.251911 127 127 127 0
-5.758109 -1.079645 29.378107 124 124 124 0
-6.214762 -1.180018 32.109335 124 124 124 0
-6.139380 -1.180650 32.126528 124 124 124 0
-6.079208 -1.184261 32.224799 134 134 134 0
-6.020007 -1.188159 32.330866 139 139 139 0
-5.961287 -1.192257 32.442376 141 141 141 0
-5.901439 -1.196238 32.550682 164 164 164 0
-5.824416 -1.196798 32.565926 161 161 161 0
-5.744680 -1.196808 32.566212 154 154 154 0
-5.646850 -1.192996 32.462489 151 151 151 0
-5.543192 -1.187827 32.321819 149 149 149 0
-5.448802 -1.184522 32.231895 145 145 145 0
-5.358043 -1.181921 32.161123 142 142 142 0
-5.277774 -1.181591 32.152141 137 137 137 0
-5.201237 -1.182099 32.165966 134 134 134 0
-5.131851 -1.184273 32.225122 126 126 126 0
-5.059875 -1.185908 32.269609 122 122 122 0
-4.996672 -1.189684 32.372349 121 121 121 0
-4.874358 -1.179280 32.089259 112 112 112 0
-4.840631 -1.190319 32.389634 104 103 104 0
-4.799047 -1.199762 32.646576 82 82 82 0
-4.763354 -1.211022 32.952986 126 126 126 0
-4.686391 -1.211998 32.979525 154 154 154 0
-4.595938 -1.209457 32.910407 155 155 155 0
-4.504156 -1.206470 32.829125 157 157 157 0
-4.425629 -1.206990 32.843260 159 159 159 0
-4.333547 -1.203763 32.755460 156 156 156 0
-4.245990 -1.201695 32.699195 149 149 149 0
-4.168932 -1.202577 32.723172 148 148 148 0
-4.094256 -1.204193 32.767157 144 143 144 0
-4.011360 -1.203408 32.745798 144 144 144 0
-3.936656 -1.205099 32.791803 143 143 143 0
-3.858248 -1.205703 32.808235 143 143 143 0
-3.781856 -1.206975 32.842863 139 139 139 0
-3.703580 -1.207689 32.862288 142 142 142 0
-3.627880 -1.209293 32.905946 145 145 145 0
-3.553783 -1.211517 32.966446 150 150 150 0
-3.475394 -1.212347 32.989024 145 145 145 0
-3.402753 -1.215269 33.068538 148 148 148 0
-3.115043 -1.139650 31.010880 144 144 144 0
-3.056903 -1.146339 31.192893 138 138 138 0
-2.964515 -1.140198 31.025793 133 133 133 0
-2.875853 -1.135205 30.889934 133 133 133 0
-2.788206 -1.130354 30.757922 133 133 133 0
-2.706636 -1.127765 30.687480 131 131 131 0
-2.620750 -1.123178 30.562677 127 126 127 0
-2.543421 -1.122098 30.533266 122 122 122 0
-2.466766 -1.121257 30.510402 124 124 124 0
-2.382310 -1.116708 30.386609 121 121 121 0
-2.311791 -1.118608 30.438326 117 117 117 0
-2.236987 -1.118494 30.435199 116 116 116 0
-2.166393 -1.120548 30.491106 114 113 114 0
-2.088622 -1.118905 30.446392 113 112 113 0
-2.018517 -1.121398 30.514238 110 110 110 0
-1.947327 -1.123458 30.570290 109 109 110 0
-1.876337 -1.125802 30.634067 111 111 111 0
-1.801799 -1.126124 30.642843 104 104 104 0
-1.729551 -1.127968 30.693014 107 106 107 0
-1.657699 -1.130250 30.755090 109 109 109 0
-1.583997 -1.131426 30.787115 107 107 107 0
-1.510779 -1.133084 30.832229 103 103 103 0
-1.277940 -1.008900 27.453059 101 101 101 0
-1.365130 -1.137608 30.955322 98 97 98 0
-1.295990 -1.143521 31.116207 102 102 102 0
-1.222063 -1.145684 31.175081 106 106 106 0
-1.145633 -1.145633 31.173678 111 111 111 0
-1.071104 -1.147611 31.227515 121 121 121 0
-0.996300 -1.149577 31.281018 129 129 129 0
-0.919234 -1.149043 31.266463 132 131 131 0
-0.842638 -1.149052 31.266730 133 133 133 0
-0.767109 -1.150664 31.310573 134 134 134 0
-0.692198 -1.153663 31.392192 132 132 132 0
-0.615089 -1.153293 31.382112 128 128 128 0
-0.538417 -1.153752 31.394602 125 125 125 0
-0.462331 -1.155827 31.451063 122 122 122 0
-0.340619 -1.021857 27.805643 118 118 118 0
-0.272891 -1.023343 27.846057 115 115 115 0
-0.204990 -1.024950 27.889798 110 110 110 0
-0.137374 -1.030302 28.035438 104 104 104 0
-0.068067 -1.021010 27.782579 91 91 91 0
0.000000 -0.989313 26.920072 84 84 84 0
0.071360 -1.070401 29.126571 87 87 87 0
0.151027 -1.132702 30.821815 97 97 97 0
0.205914 -1.029568 28.015456 97 97 97 0
0.319577 -1.198412 32.609850 86 86 86 0
0.659931 -1.237370 33.669944 59 59 59 0
0.754916 -1.258193 34.236540 81 81 81 0
0.844157 -1.266235 34.455368 129 129 129 0
0.922100 -1.257409 34.215201 125 125 125 0
0.997783 -1.247229 33.938204 130 130 130 0
1.073219 -1.238330 33.696050 131 131 131 0
1.148657 -1.230704 33.488556 129 129 129 0
1.225143 -1.225143 33.337234 128 128 128 0
1.296644 -1.215603 33.077641 132 132 132 0
1.374755 -1.213019 33.007321 134 134 134 0
1.451101 -1.209251 32.904790 142 142 142 0
1.528455 -1.206675 32.834692 143 143 143 0
1.605883 -1.204412 32.773118 148 148 148 0
1.681405 -1.201003 32.680360 150 150 150 0
1.757229 -1.198110 32.601645 149 149 149 0
1.836514 -1.197726 32.591189 148 148 148 0
1.912381 -1.195238 32.523491 145 145 145 0
1.980846 -1.188508 32.340346 141 141 141 0
2.054144 -1.185083 32.247165 144 144 144 0
2.126805 -1.181558 32.151245 145 145 145 0
2.200801 -1.179001 32.081654 147 147 147 0
2.273346 -1.175869 31.996425 149 149 149 0
2.348909 -1.174454 31.957942 150 150 150 0
2.421347 -1.171620 31.880808 152 152 152 0
2.498723 -1.171276 31.871463 157 157 157 0
2.578594 -1.172088 31.893559 158 158 158 0
2.650374 -1.169282 31.817211 158 158 158 0
2.727452 -1.168908 31.807020 156 156 156 0
2.805887 -1.169119 31.812775 156 156 156 0
2.886442 -1.170179 31.841609 156 156 156 0
2.958344 -1.167767 31.775985 156 156 156 0
3.033744 -1.166825 31.750332 157 157 157 0
3.114355 -1.167883 31.779131 157 157 157 0
3.194139 -1.168588 31.798301 161 161 161 0
3.264251 -1.165804 31.722557 160 160 160 0
3.337051 -1.164088 31.675851 159 159 159 0
3.420021 -1.165916 31.725611 159 159 159 0
3.497910 -1.165970 31.727076 158 158 158 0
3.566934 -1.163131 31.649816 154 154 154 0
3.677679 -1.173727 31.938163 150 150 150 0
3.721464 -1.162958 31.645105 147 147 147 0
3.733902 -1.143031 31.102890 146 146 146 0
3.809141 -1.142742 31.095029 145 145 145 0
3.989715 -1.173445 31.930489 144 144 144 0
3.960758 -1.142526 31.089149 146 146 146 0
4.147728 -1.173885 31.942459 144 144 144 0
4.001266 -1.111463 30.243887 145 145 145 0
4.250194 -1.159144 31.541325 144 144 144 0
4.338425 -1.162078 31.621174 142 142 142 0
4.821525 -1.268822 34.525776 137 137 137 0
4.418531 -1.142724 31.094517 137 137 137 0
4.565143 -1.160630 31.581757 134 134 134 0
5.075760 -1.268940 34.528980 133 133 133 0
5.162322 -1.269424 34.542137 128 128 128 0
5.247668 -1.269597 34.546862 129 129 129 0
5.601790 -1.333760 36.292776 125 125 125 0
5.555505 -1.302071 35.430516 122 122 122 0
5.066501 -1.169193 31.814765 122 122 122 0
6.015756 -1.367217 37.203191 118 118 118 0
5.234442 -1.171890 31.888163 118 118 118 0
6.202373 -1.368170 37.229129 115 115 115 0
6.443826 -1.400832 38.117869 115 115 115 0
5.494395 -1.177370 32.037286 114 114 114 0
4.494766 -0.949598 25.839412 113 113 113 0
4.550965 -0.948118 25.799119 113 113 113 0
4.612390 -0.947751 25.789154 113 113 113 0
4.691146 -0.950908 25.875048 113 113 113 0
5.891131 -1.178226 32.060578 113 113 113 0
5.974915 -1.179259 32.088693 109 109 109 0
7.554267 -1.471611 40.043824 107 107 107 0
7.302014 -1.404234 38.210435 112 112 112 0
7.848682 -1.490256 40.551187 128 128 128 0
-6.281733 -1.099303 32.049661 123 123 123 0
-6.211091 -1.100700 32.090370 125 125 125 0
-6.136934 -1.101501 32.113730 126 126 126 0
-6.079318 -1.105331 32.225380 130 130 130 0
-6.016103 -1.108229 32.309897 131 131 131 0
-5.958524 -1.112258 32.427343 144 144 144 0
-5.901771 -1.116551 32.552514 162 162 162 0
-5.819458 -1.116061 32.538208 157 157 157 0
-5.727849 -1.113748 32.470800 148 148 148 0
-5.625290 -1.109212 32.338544 149 149 149 0
-5.517212 -1.103442 32.170330 146 146 146 0
-5.434368 -1.102625 32.146514 144 143 144 0
-5.349116 -1.101289 32.107539 141 141 141 0
-5.269035 -1.100992 32.098905 135 135 135 0
-5.193451 -1.101641 32.117815 132 132 132 0
-5.127933 -1.104478 32.200523 130 130 130 0
-5.053088 -1.105363 32.226328 127 127 127 0
-4.986322 -1.108072 32.305296 120 120 120 0
-4.441129 -1.002835 29.237186 114 114 114 0
-4.811563 -1.104293 32.195136 112 112 112 0
-4.802917 -1.120681 32.672908 92 92 92 0
-4.755457 -1.128414 32.898355 97 97 97 0
-4.683124 -1.130409 32.956539 148 148 148 0
-4.592322 -1.127939 32.884511 156 156 156 0
-4.498039 -1.124510 32.784543 161 161 161 0
-4.417062 -1.124343 32.779681 156 156 156 0
-4.329656 -1.122503 32.726047 161 161 161 0
-4.240238 -1.120063 32.654893 160 160 160 0
-4.167525 -1.122026 32.712124 156 156 156 0
-4.084841 -1.121329 32.691802 148 148 148 0
-4.006237 -1.121746 32.703976 145 145 145 0
-3.930053 -1.122872 32.736798 145 145 145 0
-3.854329 -1.124179 32.774905 142 142 142 0
-3.781307 -1.126347 32.838102 144 144 144 0
-3.703271 -1.127082 32.859545 141 141 141 0
-3.625873 -1.128049 32.887737 145 145 145 0
-3.548927 -1.129204 32.921403 149 149 149 0
-3.469205 -1.129509 32.930283 145 145 145 0
-3.229691 -1.076564 31.386697 142 142 142 0
-3.128033 -1.068109 31.140195 138 138 138 0
-3.038845 -1.063596 31.008620 139 139 139 0
-2.949626 -1.058840 30.869976 134 134 134 0
-2.863075 -1.054817 30.752688 134 134 134 0
-2.777591 -1.050980 30.640827 131 131 131 0
-2.691463 -1.046680 30.515458 130 130 130 0
-2.610105 -1.044042 30.438546 129 129 129 0
-2.534703 -1.043701 30.428603 127 127 127 0
-2.455984 -1.041933 30.377043 129 129 129 0
-2.376264 -1.039616 30.309493 127 127 127 0
-2.302519 -1.039847 30.316252 123 123 123 0
-2.230021 -1.040676 30.340418 118 118 118 0
-2.158071 -1.041827 30.373978 119 118 119 0
-2.082062 -1.041031 30.350763 117 117 117 0
-2.009895 -1.042168 30.383906 118 117 118 0
-1.941396 -1.045367 30.477178 117 117 117 0
-1.865408 -1.044628 30.455637 116 115 115 0
-1.791247 -1.044894 30.463388 116 115 115 0
-1.718472 -1.046026 30.496391 117 116 116 0
-1.647665 -1.048514 30.568922 117 116 117 0
-1.576432 -1.050955 30.640076 110 110 110 0
-1.335409 -0.934786 27.253246 105 105 105 0
-1.272108 -0.937343 27.327784 102 102 102 0
-1.205699 -0.937766 27.340111 101 101 101 0
-1.288524 -1.061137 30.936951 103 103 103 0
-1.076606 -0.942031 27.464450 104 104 104 0
-1.013235 -0.945686 27.571016 110 110 110 0
-1.068397 -1.068397 31.148597 118 118 118 0
-0.994360 -1.070849 31.220092 123 123 123 0
-0.917053 -1.069895 31.192268 130 130 130 0
-0.841755 -1.071325 31.233956 130 130 130 0
-0.765996 -1.072395 31.265159 130 130 130 0
-0.691582 -1.075794 31.364251 130 130 130 0
-0.615277 -1.076734 31.391674 127 127 127 0
-0.538388 -1.076775 31.392866 125 125 125 0
-0.462778 -1.079815 31.481498 124 124 124 0
-0.386468 -1.082110 31.548398 117 117 117 0
-0.272794 -0.954779 27.836131 115 115 115 0
-0.204937 -0.956372 27.882557 111 111 111 0
-0.137194 -0.960358 27.998765 99 99 99 0
-0.070079 -0.981101 28.603536 88 88 88 0
0.000000 -1.025285 29.891695 94 94 94 0
0.065589 -0.918247 26.771041 91 91 91 0
0.133971 -0.937796 27.340983 97 97 97 0
0.229295 -1.070044 31.196607 90 90 90 0
0.316111 -1.106389 32.256229 97 97 97 0
0.663926 -1.032774 30.110032 72 72 72 0
0.846255 -1.184757 34.541032 120 120 120 0
0.927836 -1.180883 34.428064 124 124 124 0
1.003246 -1.170454 34.124015 130 130 130 0
1.075737 -1.158486 33.775097 132 132 132 0
1.153654 -1.153654 33.634216 134 134 134 0
1.230549 -1.148512 33.484322 129 129 129 0
1.305341 -1.142173 33.299517 132 132 132 0
1.377051 -1.134042 33.062447 135 135 135 0
1.453778 -1.130716 32.965493 132 132 132 0
1.529257 -1.126821 32.851931 141 141 141 0
1.607483 -1.125238 32.805783 144 144 144 0
1.683281 -1.122187 32.716823 147 147 147 0
1.757938 -1.118688 32.614804 144 144 144 0
1.839153 -1.119485 32.638036 145 145 145 0
1.913090 -1.115969 32.535536 142 142 142 0
1.979997 -1.108798 32.326487 143 143 143 0
2.056370 -1.107276 32.282102 142 142 142 0
2.130694 -1.104804 32.210034 142 142 142 0
2.202704 -1.101352 32.109391 144 144 144 0
2.277015 -1.099249 32.048071 149 149 149 0
2.350324 -1.096818 31.977195 150 150 150 0
2.423913 -1.094670 31.914582 153 153 153 0
2.500566 -1.093998 31.894979 153 153 153 0
2.578457 -1.093891 31.891859 154 154 154 0
2.651207 -1.091674 31.827217 152 152 152 0
2.729265 -1.091706 31.828159 155 155 155 0
2.806863 -1.091558 31.823843 154 154 154 0
2.887843 -1.092697 31.857061 155 155 155 0
2.959401 -1.090306 31.787335 154 154 154 0
3.035856 -1.089795 31.772435 156 156 156 0
3.115048 -1.090267 31.786201 157 157 157 0
3.194812 -1.090911 31.804995 156 156 156 0
3.265604 -1.088535 31.735703 157 157 157 0
3.366626 -1.096111 31.956584 159 159 159 0
3.422292 -1.088911 31.746681 155 155 155 0
3.501279 -1.089287 31.757636 153 153 153 0
3.571233 -1.086897 31.687960 151 151 151 0
3.638735 -1.083879 31.599960 148 148 148 0
3.724442 -1.086295 31.670421 147 147 147 0
3.632403 -1.037829 30.257415 146 146 146 0
3.913258 -1.095712 31.944962 145 145 145 0
3.990388 -1.095401 31.935882 144 144 144 0
4.070752 -1.095972 31.952529 144 144 144 0
4.148759 -1.095899 31.950394 146 146 146 0
4.182820 -1.084435 31.616175 142 142 142 0
4.255187 -1.083139 31.578386 141 141 141 0
4.500918 -1.125229 32.805523 142 142 142 0
4.427130 -1.087365 31.701612 139 139 139 0
4.661520 -1.125194 32.804504 136 136 136 0
4.568585 -1.084071 31.605569 135 135 135 0
5.076686 -1.184560 34.535278 135 135 135 0
4.741577 -1.088231 31.726843 129 129 129 0
5.379642 -1.214758 35.415682 128 128 128 0
4.900594 -1.089021 31.749878 126 126 126 0
5.556013 -1.215378 35.433759 124 124 124 0
5.069467 -1.091885 31.833385 122 122 122 0
5.150760 -1.092585 31.853801 118 118 118 0
5.965075 -1.246434 36.339173 117 117 117 0
6.202451 -1.276975 37.229600 115 115 115 0
5.421006 -1.099914 32.067470 114 114 114 0
4.422982 -0.884596 25.789985 113 113 113 0
5.601146 -1.104451 32.199744 115 115 115 0
5.650538 -1.098716 32.032528 113 113 113 0
5.782223 -1.108919 32.330013 113 113 113 0
4.691146 -0.887514 25.875048 114 114 114 0
4.754795 -0.887562 25.876437 113 113 113 0
4.808043 -0.885692 25.821927 110 110 110 0
6.045064 -1.099102 32.043804 110 110 110 0
4.850395 -0.870584 25.381451 107 107 107 0
7.856456 -1.392283 40.591352 140 140 140 0
-6.283680 -1.021098 32.059592 124 124 124 0
-6.206876 -1.021385 32.068590 125 125 125 0
-6.130471 -1.021745 32.079914 131 131 131 0
-6.079860 -1.026470 32.228252 132 132 132 0
-6.013827 -1.028681 32.297675 135 135 135 0
-5.963471 -1.033668 32.454263 140 140 140 0
-5.893620 -1.035366 32.507556 154 154 154 0
-5.805812 -1.033912 32.461909 155 155 155 0
-5.717053 -1.032246 32.409598 151 151 151 0
-5.599305 -1.025225 32.189166 149 149 149 0
-5.497473 -1.020959 32.055235 145 145 145 0
-5.416513 -1.020502 32.040891 144 144 144 0
-5.339359 -1.020760 32.048972 143 143 143 0
-5.261909 -1.020967 32.055493 139 139 139 0
-5.186292 -1.021542 32.073546 137 137 137 0
-5.115371 -1.023074 32.121637 130 130 130 0
-5.041662 -1.024088 32.153456 125 125 125 0
-4.971518 -1.025869 32.209378 127 127 127 0
-4.453481 -0.933794 29.318508 115 115 115 0
-4.813312 -1.025788 32.206838 113 113 113 0
-4.754461 -1.030133 32.343273 106 106 106 0
-4.739742 -1.044350 32.789637 88 88 88 0
-4.675770 -1.048017 32.904787 149 149 149 0
-4.595800 -1.048165 32.909417 157 157 157 0
-4.503774 -1.045519 32.826340 161 161 161 0
-4.412248 -1.042895 32.743957 159 159 159 0
-4.326275 -1.041511 32.700491 160 160 160 0
-4.237982 -1.039505 32.637522 163 163 163 0
-4.165135 -1.041284 32.693364 162 162 162 0
-4.086733 -1.041716 32.706950 156 156 156 0
-4.003343 -1.040869 32.680349 150 150 150 0
-3.924042 -1.041072 32.686735 146 146 146 0
-3.853584 -1.043679 32.768574 145 145 145 0
-3.778972 -1.045248 32.817824 138 138 138 0
-3.692942 -1.043657 32.767895 140 140 140 0
-3.618977 -1.045482 32.825189 139 139 139 0
-3.529365 -1.042767 32.739940 140 140 140 0
-3.313806 -1.001848 31.455211 140 140 140 0
-3.216563 -0.995603 31.259115 140 140 140 0
-3.117857 -0.988589 31.038893 137 137 137 0
-3.024589 -0.982991 30.863150 137 137 137 0
-2.935362 -0.978454 30.720690 136 136 136 0
-2.846744 -0.973886 30.577275 134 133 134 0
-2.762959 -0.970769 30.479412 136 136 136 0
-2.678970 -0.967406 30.373806 135 135 135 0
-2.602581 -0.966673 30.350794 135 135 135 0
-2.524593 -0.965286 30.307244 136 136 136 0
-2.446709 -0.963855 30.262323 133 132 133 0
-2.369206 -0.962490 30.219460 133 133 133 0
-2.297168 -0.963328 30.245790 130 129 129 0
-2.224227 -0.963832 30.261599 127 127 127 0
-2.150624 -0.964073 30.269161 124 123 124 0
-2.075126 -0.963451 30.249646 121 121 121 0
-2.005086 -0.965412 30.311197 121 121 121 0
-1.933733 -0.966867 30.356881 120 120 120 0
-1.860119 -0.967262 30.369289 118 118 118 0
-1.786965 -0.967940 30.390567 118 118 118 0
-1.713491 -0.968495 30.408008 120 120 120 0
-1.643936 -0.971417 30.499735 119 119 119 0
-1.573062 -0.973800 30.574578 116 116 116 0
-1.499797 -0.974868 30.608096 112 112 112 0
-1.268870 -0.868174 27.258225 108 108 108 0
-1.201943 -0.868070 27.254947 106 106 106 0
-1.138469 -0.870594 27.334182 102 102 102 0
-1.211273 -0.984159 30.899824 103 103 103 0
-1.009306 -0.874732 27.464117 107 107 107 0
-1.065154 -0.989072 31.054052 112 113 113 0
-0.992374 -0.992374 31.157741 119 119 119 0
-0.916173 -0.992520 31.162330 126 126 126 0
-0.840845 -0.993726 31.200174 125 125 125 0
-0.765649 -0.995344 31.250984 128 128 128 0
-0.691136 -0.998308 31.344044 128 128 128 0
