ply
format ascii 1.0
element vertex 1139
property float x
property float y
property float z
property uchar red
property uchar green
property uchar blue
property uchar alpha
end_header
2.016673 3.208344 37.415093 136 136 136 0
2.111209 3.212710 37.466004 134 134 134 0
2.203404 3.213297 37.472849 134 134 134 0
2.292902 3.210063 37.435133 133 133 133 0
2.382014 3.206557 37.394256 131 131 131 0
2.476718 3.210560 37.440937 131 131 131 0
2.566431 3.208038 37.411524 133 133 133 0
2.655436 3.204837 37.374187 129 129 129 0
2.748929 3.207083 37.400390 128 128 128 0
2.846257 3.213516 37.475404 128 128 128 0
2.936810 3.212136 37.459311 129 129 129 0
3.029523 3.213130 37.470908 130 130 130 0
3.126305 3.218255 37.530674 130 130 130 0
3.224270 3.224270 37.600820 130 130 130 0
3.312672 3.220653 37.558635 130 130 130 0
3.407797 3.223592 37.592908 131 131 131 0
3.506317 3.229502 37.661833 132 132 132 0
3.602464 3.232981 37.702401 131 131 131 0
3.689280 3.228120 37.645719 132 132 132 0
3.787593 3.233311 37.706255 129 129 129 0
3.887492 3.239577 37.779324 128 128 128 0
3.982519 3.241585 37.802740 124 124 124 0
4.076047 3.242310 37.811193 123 123 123 0
4.175062 3.247270 37.869043 122 122 122 0
4.274633 3.252438 37.929306 124 124 124 0
4.370185 3.254393 37.952102 124 124 124 0
4.470543 3.259771 38.014824 127 127 127 0
4.570567 3.264691 38.072195 129 129 129 0
4.664314 3.265020 38.076035 129 129 129 0
4.761593 3.267760 38.107984 129 129 129 0
4.858546 3.270175 38.136156 131 131 131 0
4.950156 3.268971 38.122111 129 129 129 0
5.053187 3.275214 38.194917 129 129 129 0
5.154255 3.279980 38.250500 124 124 124 0
5.252193 3.282621 38.281289 116 116 116 0
5.354196 3.287664 38.340107 108 108 108 0
5.461401 3.295673 38.433504 99 99 99 0
5.575484 3.307490 38.571316 89 89 89 0
5.688019 3.318011 38.694008 70 69 70 0
6.673163 3.538799 41.268787 85 85 85 0
6.791385 3.547738 41.373043 88 88 88 0
6.921097 3.562329 41.543199 92 91 92 0
7.035261 3.568611 41.616450 91 90 91 0
7.165719 3.582860 41.782621 91 91 91 0
7.288357 3.592852 41.899150 87 87 87 0
7.405179 3.599740 41.979471 87 87 87 0
7.537678 3.613955 42.145252 83 83 83 0
7.687731 3.636089 42.403369 82 82 82 0
7.893327 3.683553 42.956883 78 78 78 0
7.973783 3.672137 42.823756 78 78 78 0
8.282145 3.764611 43.902174 76 76 76 0
8.565893 3.843670 44.824139 75 75 75 0
7.986094 3.538143 41.261140 77 76 77 0
-6.440667 2.898300 32.860546 146 146 146 0
-6.362599 2.899412 32.873153 146 146 146 0
-6.290828 2.903459 32.919035 145 145 145 0
-6.211186 2.903931 32.924390 144 144 144 0
-6.133968 2.905564 32.942901 143 143 143 0
-6.056761 2.907245 32.961965 140 140 140 0
-5.982565 2.910437 32.998151 135 135 135 0
-5.905689 2.912395 33.020348 128 128 128 0
-5.836910 2.918455 33.089061 121 121 121 0
-5.762867 2.922017 33.129447 121 121 121 0
-5.689625 2.926093 33.175659 120 120 120 0
-5.615718 2.929940 33.219272 121 121 121 0
-5.545687 2.935952 33.287438 119 119 119 0
-5.476691 2.942700 33.363944 116 116 116 0
-5.403367 2.947291 33.415996 112 112 112 0
-5.327038 2.950360 33.450791 113 113 113 0
-5.256053 2.956530 33.520745 107 107 107 0
-5.191962 2.966836 33.637593 105 105 105 0
-4.670944 2.712161 30.750124 102 102 102 0
-5.051628 2.981289 33.801458 97 97 97 0
-4.553904 2.732342 30.978940 95 95 95 0
-4.478480 2.732632 30.982222 91 91 91 0
-4.432893 2.751451 31.195591 86 86 86 0
-4.345731 2.744672 31.118730 91 91 91 0
-4.119743 2.648406 30.027279 86 86 86 0
-4.226668 2.766547 31.366740 92 92 92 0
-4.204677 2.803118 31.781383 91 91 91 0
-4.150517 2.819219 31.963934 96 96 96 0
-4.113192 2.847594 32.285650 76 76 76 0
-4.224604 2.982074 33.810359 60 60 60 0
-3.964523 2.854456 32.363451 72 72 72 0
-3.954182 2.905113 32.937793 78 78 78 0
-4.281483 3.211113 36.407173 132 132 132 0
-4.189922 3.209302 36.386640 147 147 147 0
-4.100597 3.209163 36.385066 147 147 147 0
-4.019680 3.215744 36.459678 150 150 150 0
-3.923131 3.209834 36.392681 146 146 146 0
-3.833131 3.209133 36.384730 151 151 151 0
-3.748380 3.212897 36.427407 145 145 145 0
-3.665577 3.218556 36.491560 147 147 147 0
-3.574360 3.216924 36.473064 145 145 145 0
-3.482697 3.214797 36.448949 148 148 148 0
-3.400024 3.221076 36.520131 141 141 141 0
-3.308301 3.218887 36.495321 139 139 139 0
-3.218601 3.218601 36.492076 138 138 138 0
-3.131918 3.221402 36.523827 140 140 140 0
-3.044122 3.223188 36.544079 138 138 138 0
-2.961601 3.230837 36.630810 141 141 141 0
-2.870573 3.229394 36.614448 143 143 143 0
-2.788380 3.238119 36.713364 157 157 157 0
-2.704431 3.245317 36.794977 171 171 171 0
-2.616347 3.247879 36.824022 166 166 166 0
-2.522930 3.243767 36.777406 163 163 163 0
-2.432220 3.242960 36.768255 155 155 155 0
-2.333878 3.231524 36.638592 148 148 148 0
-2.233607 3.216393 36.467046 148 148 148 0
-2.143511 3.215267 36.454272 144 144 144 0
-2.051601 3.211202 36.408187 142 142 142 0
-1.958403 3.204660 36.334009 143 143 143 0
-1.866250 3.199286 36.273079 143 143 143 0
-1.777337 3.199206 36.272179 137 137 137 0
-1.684777 3.192208 36.192836 136 136 136 0
-1.593278 3.186556 36.128757 134 134 134 0
-1.502961 3.182742 36.085508 135 135 135 0
-1.412236 3.177531 36.026427 135 135 135 0
-1.322267 3.173442 35.980062 133 133 133 0
-1.233120 3.170880 35.951022 131 131 131 0
-1.144847 3.170345 35.944957 131 131 131 0
-1.055606 3.166819 35.904974 131 131 131 0
-0.967573 3.166603 35.902533 129 129 129 0
-0.878378 3.162162 35.852172 130 129 130 0
-0.790297 3.161189 35.841147 128 128 128 0
-0.703225 3.164513 35.878829 126 126 126 0
-0.614354 3.159535 35.822391 127 127 127 0
-0.527136 3.162814 35.859566 127 127 127 0
-0.439959 3.167703 35.914995 125 125 125 0
-0.352181 3.169633 35.936877 122 122 122 0
-0.264201 3.170411 35.945707 121 121 121 0
-0.176126 3.170274 35.944155 119 119 119 0
-0.088237 3.176516 36.014915 119 119 119 0
0.000000 3.180094 36.055485 117 117 117 0
0.088348 3.180530 36.060425 118 118 118 0
0.177051 3.186912 36.132792 118 118 118 0
0.266555 3.198663 36.266025 118 118 118 0
0.354973 3.194759 36.221753 118 118 118 0
0.444587 3.201030 36.292855 120 120 120 0
0.535100 3.210600 36.401358 119 119 119 0
0.624156 3.209944 36.393926 117 117 117 0
0.714271 3.214218 36.442381 119 119 119 0
0.804841 3.219364 36.500730 121 121 121 0
0.896508 3.227428 36.592154 117 117 117 0
0.986944 3.230000 36.621317 115 115 115 0
1.078048 3.234145 36.668306 119 119 119 0
1.171224 3.243391 36.773140 117 117 117 0
1.263517 3.249044 36.837237 119 119 119 0
1.352549 3.246118 36.804063 120 120 120 0
1.451705 3.266336 37.033285 125 125 125 0
1.551588 3.285717 37.253024 126 126 126 0
1.646382 3.292763 37.332917 135 135 135 0
1.741516 3.299715 37.411737 140 140 140 0
1.835297 3.303535 37.455047 140 140 140 0
1.927098 3.303597 37.455745 137 137 137 0
2.012672 3.293464 37.340863 133 133 133 0
2.107966 3.299424 37.408440 134 134 134 0
2.198357 3.297536 37.387025 135 135 135 0
2.287131 3.293469 37.340916 132 132 132 0
2.376572 3.290639 37.308827 135 135 135 0
2.471666 3.295555 37.364569 133 133 133 0
2.560153 3.291625 37.320015 132 132 132 0
2.650954 3.290839 37.311100 128 128 128 0
2.744599 3.293519 37.341484 127 127 127 0
2.844329 3.303091 37.450016 128 128 128 0
2.934002 3.300752 37.423494 127 127 127 0
3.025053 3.300058 37.415624 131 131 131 0
3.124292 3.308074 37.506505 129 129 129 0
3.220022 3.312023 37.551276 130 130 130 0
3.308591 3.308591 37.512367 130 130 130 0
3.405476 3.313436 37.567298 130 130 130 0
3.504082 3.319656 37.637825 131 131 131 0
3.601014 3.324013 37.687218 131 131 131 0
3.686165 3.317549 37.613929 131 131 131 0
3.784696 3.323147 37.677407 130 130 130 0
3.887406 3.332063 37.778487 128 128 128 0
3.979452 3.331634 37.773628 125 125 125 0
4.073935 3.333219 37.791602 124 124 124 0
4.173138 3.338510 37.851591 123 123 123 0
4.271169 3.342654 37.898569 123 123 123 0
4.369522 3.346868 37.946350 126 126 126 0
4.465770 3.349327 37.974234 126 126 126 0
4.565872 3.354518 38.033085 127 127 127 0
4.661069 3.355970 38.049542 128 128 128 0
4.761808 3.361276 38.109711 128 128 128 0
4.859948 3.364579 38.147155 130 130 130 0
4.948731 3.361402 38.111139 130 130 130 0
5.051735 3.367823 38.183938 130 130 130 0
5.153720 3.373344 38.246527 126 126 126 0
5.247059 3.373109 38.243870 121 121 121 0
5.339966 3.372610 38.238207 113 113 113 0
5.456063 3.386522 38.395938 106 106 106 0
5.571578 3.399607 38.544294 94 94 94 0
5.688019 3.412811 38.694008 77 76 77 0
6.650078 3.627315 41.126022 83 82 83 0
6.754101 3.629069 41.145906 86 85 85 0
6.891041 3.648198 41.362790 89 89 89 0
7.013317 3.659122 41.486644 90 90 90 0
7.141002 3.672515 41.638497 89 89 89 0
7.257844 3.680034 41.723737 91 91 91 0
7.385620 3.692810 41.868592 88 88 88 0
7.510449 3.703783 41.993006 85 85 85 0
7.640916 3.717202 42.145153 81 81 81 0
7.888400 3.786432 42.930067 82 81 81 0
7.936847 3.759559 42.625387 80 79 79 0
8.278535 3.870484 43.883036 79 79 79 0
8.564064 3.952645 44.814567 77 76 76 0
8.852467 4.034036 45.737367 77 77 77 0
-6.445976 2.981264 32.887634 145 145 145 0
-6.367075 2.982048 32.896278 146 146 146 0
-6.293463 2.985360 32.932824 144 144 144 0
-6.213148 2.985538 32.934787 144 144 144 0
-6.135523 2.987031 32.951253 139 139 139 0
-6.062166 2.990668 32.991379 133 133 133 0
-5.987065 2.993532 33.022972 128 128 128 0
-5.915153 2.998091 33.073264 124 124 124 0
-5.842395 3.002342 33.120152 119 119 119 0
-5.771664 3.007769 33.180018 119 119 119 0
-5.697077 3.011312 33.219108 123 123 123 0
-5.623892 3.015710 33.267624 120 120 120 0
-5.551712 3.020784 33.323599 118 118 118 0
-5.480485 3.026536 33.387054 115 115 115 0
-5.410889 3.033377 33.462517 116 116 116 0
-5.338433 3.038800 33.522340 108 108 108 0
-5.265765 3.044270 33.582686 109 109 109 0
-5.196495 3.051910 33.666958 106 106 106 0
-4.683360 2.794908 30.831862 101 101 101 0
-4.625150 2.805419 30.947809 95 95 95 0
-4.565204 2.815209 31.055811 95 95 95 0
-4.490533 2.816097 31.065604 93 93 93 0
-4.451813 2.839950 31.328732 86 86 86 0
-4.406160 2.860139 31.551447 85 85 85 0
-4.291699 2.835587 31.280606 85 85 85 0
-4.269273 2.872056 31.682915 92 92 92 0
-4.208209 2.883402 31.808080 92 92 92 0
-4.134099 2.886069 31.837493 99 99 99 0
-4.112829 2.926436 32.282803 82 82 82 0
-3.910246 2.836845 31.294486 66 66 66 0
-4.035535 2.986296 32.943143 71 71 71 0
-4.363230 3.294684 36.345109 106 106 106 0
-4.280743 3.299740 36.400878 145 145 145 0
-4.184299 3.294023 36.337814 150 150 150 0
-4.096283 3.294837 36.346791 150 150 150 0
-4.014041 3.300433 36.408531 146 146 146 0
-3.920214 3.296543 36.365620 148 148 148 0
-3.830627 3.296121 36.360955 149 149 149 0
-3.747703 3.301548 36.420826 146 146 146 0
-3.660055 3.302976 36.436583 148 148 148 0
-3.564958 3.297586 36.377124 148 148 148 0
-3.482960 3.304346 36.451696 148 148 148 0
-3.396334 3.306957 36.480491 146 146 146 0
-3.305568 3.305568 36.465170 142 142 142 0
-3.212583 3.301821 36.423839 140 140 140 0
-3.125083 3.303659 36.444119 139 139 139 0
-3.041877 3.310278 36.517130 144 144 144 0
-2.948573 3.305976 36.469670 139 139 139 0
-2.862801 3.310114 36.515320 143 143 143 0
-2.778849 3.316691 36.587872 146 146 146 0
-2.697697 3.327160 36.703362 153 153 153 0
-2.611127 3.331438 36.750561 165 165 165 0
-2.522661 3.333516 36.773478 166 166 166 0
-2.430534 3.330731 36.742760 162 162 162 0
-2.343822 3.335438 36.794687 157 157 157 0
-2.246435 3.324724 36.676497 152 152 152 0
-2.148195 3.311800 36.533923 149 149 149 0
-2.058293 3.311167 36.526936 147 147 147 0
-1.964060 3.303192 36.438967 146 146 146 0
-1.871271 3.297001 36.370669 142 142 142 0
-1.782495 3.297616 36.377452 144 144 144 0
-1.691300 3.293585 36.332979 140 140 140 0
-1.598179 3.285145 36.239877 139 139 139 0
-1.508882 3.284036 36.227650 133 133 133 0
-1.421229 3.286593 36.255850 131 131 131 0
-1.329470 3.279359 36.176052 132 132 132 0
-1.238897 3.274229 36.119455 131 132 132 0
-1.148951 3.270091 36.073815 131 131 131 0
-1.059822 3.267785 36.048376 127 127 127 0
-0.970230 3.263500 36.001108 125 125 125 0
-0.882213 3.264190 36.008710 125 125 125 0
-0.793844 3.263583 36.002017 123 123 123 0
-0.706410 3.267146 36.041327 123 123 123 0
-0.617149 3.262074 35.985375 125 125 125 0
-0.529144 3.263052 35.996165 124 124 124 0
-0.441375 3.266177 36.030636 124 124 124 0
-0.353234 3.267410 36.044238 120 120 120 0
-0.264765 3.265433 36.022428 121 121 121 0
-0.176614 3.267359 36.043671 119 119 119 0
-0.088542 3.276061 36.139673 119 119 119 0
0.000000 3.273387 36.110173 118 117 117 0
0.088709 3.282228 36.207695 118 118 118 0
0.177862 3.290438 36.298271 117 117 117 0
0.266626 3.288385 36.275618 117 117 117 0
0.356038 3.293355 36.330441 114 114 114 0
0.445752 3.298567 36.387945 117 117 117 0
0.536324 3.307334 36.484652 120 120 120 0
0.626962 3.313941 36.557545 123 123 123 0
0.716172 3.312297 36.539406 119 119 119 0
0.807810 3.320997 36.635376 118 118 118 0
0.900277 3.331026 36.746008 119 119 119 0
0.990393 3.331321 36.749268 120 120 120 0
1.082255 3.336953 36.811393 120 120 120 0
1.176023 3.347142 36.923800 122 122 122 0
1.268396 3.352190 36.979478 120 120 120 0
1.360444 3.355762 37.018890 132 132 132 0
1.459790 3.375765 37.239550 138 138 138 0
1.555822 3.386200 37.354661 138 138 138 0
1.645846 3.383128 37.320768 139 139 139 0
1.737813 3.384162 37.332178 138 138 138 0
1.831151 3.387629 37.370425 136 136 136 0
1.921597 3.385670 37.348815 135 135 135 0
2.008882 3.378575 37.270544 135 135 135 0
2.101887 3.381297 37.300575 134 134 134 0
2.195454 3.384659 37.337660 133 133 133 0
2.282392 3.377940 37.263540 133 133 133 0
2.372118 3.375707 37.238907 130 130 130 0
2.466131 3.379513 37.280890 131 131 131 0
2.557195 3.379151 37.276897 128 128 128 0
2.646844 3.377007 37.253254 128 128 128 0
2.743140 3.383206 37.321638 126 126 126 0
2.840982 3.390849 37.405951 127 127 127 0
2.931644 3.389713 37.393419 129 129 129 0
3.024886 3.391539 37.413559 130 130 130 0
3.124199 3.399864 37.505392 130 130 130 0
3.220710 3.404750 37.559298 129 129 129 0
3.307542 3.399418 37.500473 130 130 130 0
3.405402 3.405402 37.566487 131 131 131 0
3.501708 3.409558 37.612332 130 130 130 0
3.598368 3.413836 37.659531 132 131 132 0
3.687530 3.410965 37.627856 130 130 130 0
3.786111 3.416734 37.691493 130 130 130 0
3.886283 3.423630 37.767571 128 128 128 0
3.978607 3.423453 37.765615 126 126 126 0
4.072278 3.424416 37.776235 124 124 124 0
4.172554 3.430767 37.846296 123 123 123 0
4.271902 3.436095 37.905072 124 124 124 0
4.367555 3.438288 37.929266 125 125 125 0
4.463558 3.440659 37.955424 127 127 127 0
4.561269 3.444223 37.994740 128 128 128 0
4.659864 3.448300 38.039709 129 129 129 0
4.758456 3.452213 38.082880 129 128 129 0
4.855121 3.454605 38.109270 128 128 128 0
4.948883 3.454881 38.112306 130 130 130 0
5.048431 3.459110 38.158963 129 129 129 0
5.148678 3.463656 38.209110 127 127 127 0
5.243068 3.464170 38.214784 123 123 123 0
5.338961 3.465641 38.231015 117 117 117 0
5.449267 3.476257 38.348114 109 109 109 0
5.563099 3.488723 38.485640 99 99 99 0
5.673619 3.498732 38.596047 85 85 85 0
6.611118 3.706233 40.885085 82 82 82 0
6.727378 3.715119 40.983115 84 83 83 0
6.857334 3.731196 41.160468 86 85 86 0
6.993717 3.750254 41.370701 90 90 90 0
7.112582 3.759508 41.472784 87 87 87 0
7.227988 3.766698 41.552103 88 88 88 0
7.402175 3.803895 41.962441 88 88 88 0
7.508005 3.805427 41.979343 87 87 87 0
7.775332 3.887666 42.886553 84 84 84 0
7.886786 3.890815 42.921287 83 83 83 0
8.327377 4.054118 44.722754 80 80 80 0
8.273797 3.975721 43.857923 79 78 79 0
8.557534 4.059343 44.780396 76 76 76 0
8.346079 3.908923 43.121047 77 77 77 0
-6.449513 3.063519 32.905677 146 146 146 0
-6.370287 3.064189 32.912875 143 143 143 0
-6.294728 3.066662 32.939446 142 142 142 0
-6.218783 3.069010 32.964662 139 139 139 0
-6.140739 3.070370 32.979266 137 137 137 0
-6.068517 3.074715 33.025943 129 129 129 0
-5.993283 3.077632 33.057268 123 123 123 0
-5.918333 3.080776 33.091044 121 121 121 0
-5.850135 3.087571 33.164031 119 119 119 0
-5.778048 3.092476 33.216717 120 120 120 0
-5.704748 3.096863 33.263839 117 117 117 0
-5.629175 3.100126 33.298878 121 121 121 0
-5.557724 3.105787 33.359686 118 118 118 0
-5.488031 3.112614 33.433023 115 115 115 0
-5.423727 3.122752 33.541914 110 110 110 0
-5.346970 3.125921 33.575952 107 107 107 0
-5.269673 3.128868 33.607609 106 106 106 0
-5.208202 3.141455 33.742806 99 99 99 0
-4.686463 2.872348 30.852288 98 98 98 0
-4.633708 2.886572 31.005074 91 91 91 0
-4.569609 2.894086 31.085774 93 93 93 0
-4.515346 2.908189 31.237258 90 90 90 0
-4.440062 2.909006 31.246041 89 89 89 0
-4.408662 2.939108 31.569370 88 88 88 0
-4.349744 2.951612 31.703674 87 87 87 0
-4.342915 3.000559 32.229422 94 93 94 0
-4.422884 3.112400 33.430716 91 91 91 0
-4.194068 3.007068 32.299329 94 94 94 0
-4.141393 3.026402 32.507007 65 65 65 0
-4.082147 3.041600 32.670245 69 69 69 0
-4.034008 3.065846 32.930674 81 81 81 0
-4.365836 3.385751 36.366817 142 142 142 0
-4.274888 3.384286 36.351086 149 149 149 0
-4.183261 3.382211 36.328793 152 152 152 0
-4.092932 3.381118 36.317057 147 147 147 0
-4.011137 3.387183 36.382198 148 148 148 0
-3.920124 3.385562 36.364787 147 147 147 0
-3.826261 3.381347 36.319515 149 149 149 0
-3.739603 3.383450 36.342107 148 148 148 0
-3.660411 3.392576 36.440126 145 145 145 0
-3.563131 3.384974 36.358477 148 148 148 0
-3.477192 3.388033 36.391333 146 146 146 0
-3.389170 3.389170 36.403544 149 149 149 0
-3.301980 3.391223 36.425595 149 149 149 0
-3.210464 3.388824 36.399823 142 142 142 0
-3.119830 3.387244 36.382862 144 144 144 0
-3.035622 3.392754 36.442045 142 142 142 0
-2.944191 3.390281 36.415478 139 139 139 0
-2.859389 3.395524 36.471798 140 140 140 0
-2.766451 3.391134 36.424637 138 138 138 0
-2.681414 3.396457 36.481819 140 140 140 0
-2.604790 3.413173 36.661359 147 147 147 0
-2.517549 3.416674 36.698968 157 157 157 0
-2.429112 3.418751 36.721275 159 159 159 0
-2.340226 3.420330 36.738235 163 163 163 0
-2.244563 3.411736 36.645927 164 164 164 0
-2.152470 3.408077 36.606632 164 164 164 0
-2.065598 3.412727 36.656575 153 153 153 0
-1.971812 3.405857 36.582780 152 152 152 0
-1.878009 3.398302 36.501628 145 145 145 0
-1.787344 3.395953 36.476399 141 141 141 0
-1.697685 3.395371 36.470148 143 143 143 0
-1.604658 3.387611 36.386795 141 141 141 0
-1.513856 3.383913 36.347075 139 139 139 0
-1.424312 3.382741 36.334493 136 136 136 0
-1.334296 3.380215 36.307362 136 136 136 0
-1.244245 3.377236 36.275361 134 134 134 0
-1.155621 3.377969 36.283230 132 131 132 0
-1.064857 3.372047 36.219619 132 132 132 0
-0.975580 3.370187 36.199644 128 128 128 0
-0.886099 3.367175 36.167294 125 125 125 0
-0.797978 3.369242 36.189499 127 127 127 0
-0.709207 3.368731 36.184006 130 130 130 0
-0.620317 3.367436 36.170098 128 128 128 0
-0.530226 3.358097 36.069787 124 124 124 0
-0.443444 3.370178 36.199546 125 125 125 0
-0.354402 3.366820 36.163479 124 124 124 0
-0.265814 3.366971 36.165102 119 119 119 0
-0.177503 3.372557 36.225097 120 120 120 0
-0.088798 3.374310 36.243934 120 120 120 0
0.000000 3.379083 36.295203 121 121 121 0
0.088897 3.378102 36.284661 119 119 119 0
0.178340 3.388451 36.395822 118 118 118 0
0.267488 3.388176 36.392864 123 123 123 0
0.357194 3.393344 36.448374 122 122 122 0
0.447403 3.400261 36.522669 119 119 119 0
0.539640 3.417717 36.710172 119 119 119 0
0.628305 3.410800 36.635880 124 124 124 0
0.718661 3.413637 36.666353 122 122 122 0
0.811354 3.425718 36.796108 121 121 121 0
0.901568 3.425959 36.798705 125 125 125 0
0.995317 3.438369 36.931996 120 120 120 0
1.088273 3.446198 37.016090 125 125 125 0
1.180772 3.451486 37.072894 133 133 133 0
1.274207 3.458561 37.148886 135 135 135 0
1.368632 3.467200 37.241678 144 144 144 0
1.462486 3.473404 37.308317 143 143 143 0
1.554767 3.475361 37.329334 140 140 140 0
1.643015 3.468586 37.256565 137 137 137 0
1.734877 3.469755 37.269116 135 135 135 0
1.825281 3.468033 37.250628 138 138 138 0
1.916441 3.467845 37.248608 137 137 137 0
2.003535 3.460652 37.171341 135 135 135 0
2.098339 3.466821 37.237607 137 137 137 0
2.187362 3.463324 37.200042 133 133 133 0
2.276233 3.459874 37.162991 133 132 133 0
2.368980 3.462355 37.189633 129 129 129 0
2.463470 3.467106 37.240669 131 131 131 0
2.553589 3.465585 37.224329 126 126 126 0
2.645666 3.466735 37.236679 124 124 124 0
2.739987 3.470650 37.278728 124 124 124 0
2.840862 3.482348 37.404377 127 127 127 0
2.930793 3.480317 37.382562 128 128 128 0
3.023941 3.482114 37.401869 130 130 130 0
3.121422 3.488649 37.472058 129 129 129 0
3.219804 3.495788 37.548739 130 130 130 0
3.306139 3.489814 37.484572 130 130 130 0
3.403371 3.495354 37.544081 130 130 130 0
3.501708 3.501708 37.612332 131 131 131 0
3.598447 3.506179 37.660357 131 131 131 0
3.685833 3.501542 37.610544 131 131 131 0
3.785004 3.508052 37.680474 130 130 130 0
3.885194 3.515176 37.756989 128 128 128 0
3.977244 3.514774 37.752676 127 127 127 0
4.070827 3.515714 37.762775 126 125 126 0
4.172517 3.523458 37.845955 124 124 124 0
4.267948 3.525696 37.869991 125 125 125 0
4.365882 3.529862 37.914741 126 126 126 0
4.460766 3.531439 37.931681 127 127 127 0
4.559924 3.536268 37.983540 129 129 129 0
4.656898 3.539242 38.015494 132 132 132 0
4.755673 3.543442 38.060606 130 130 130 0
4.849773 3.544065 38.067288 129 128 128 0
4.947410 3.547200 38.100961 129 129 129 0
5.045799 3.550747 38.139068 129 129 129 0
5.145948 3.555382 38.188852 129 129 129 0
5.241357 3.556635 38.202313 124 124 124 0
5.338090 3.558727 38.224778 120 120 120 0
5.441491 3.565115 38.293393 111 111 111 0
5.552800 3.576380 38.414392 104 104 104 0
5.652567 3.579959 38.452834 91 91 91 0
5.789941 3.606849 38.741660 75 75 75 0
6.587024 3.792529 40.736081 80 80 80 0
6.707185 3.804075 40.860095 82 82 82 0
6.827798 3.815534 40.983180 85 85 85 0
6.954251 3.829877 41.137242 88 87 88 0
7.076198 3.841365 41.260631 88 87 87 0
7.207209 3.857379 41.432645 88 88 88 0
7.329001 3.868084 41.547625 86 86 86 0
7.456674 3.881556 41.692333 87 87 87 0
7.612196 3.908966 41.986742 86 85 86 0
7.553283 3.826997 41.106303 84 84 84 0
7.848159 3.924079 42.149080 84 84 84 0
8.268610 4.080613 43.830426 80 80 80 0
8.145818 3.968475 42.625943 78 78 78 0
7.627209 3.668784 39.406920 79 79 79 0
-6.451993 3.145347 32.918331 145 145 145 0
-6.373600 3.146461 32.929990 141 141 141 0
-6.300107 3.150054 32.967595 138 138 138 0
-6.222369 3.151590 32.983668 135 135 135 0
-6.146991 3.154377 33.012839 129 129 129 0
-6.075263 3.159137 33.062654 124 124 124 0
-6.000338 3.162340 33.096182 124 124 124 0
-5.927355 3.166669 33.141485 123 123 123 0
-5.857732 3.172938 33.207099 120 120 120 0
-5.787990 3.179318 33.273871 119 119 119 0
-5.711614 3.182185 33.303870 119 119 119 0
-5.639093 3.187313 33.357542 117 117 117 0
-5.566706 3.192670 33.413604 115 115 115 0
-5.497457 3.200012 33.490449 112 112 112 0
-5.426739 3.206709 33.560537 108 108 108 0
-5.358594 3.215157 33.648943 105 105 105 0
-4.828870 2.942593 30.796363 104 104 104 0
-4.765132 2.949844 30.872254 100 100 100 0
-4.714015 2.965267 31.033673 99 99 99 0
-4.643166 2.968581 31.068356 95 95 95 0
-4.588382 2.982448 31.213480 89 89 89 0
-4.509569 2.980901 31.197294 91 91 91 0
-4.476917 3.010341 31.505401 89 89 89 0
-4.437232 3.036001 31.773951 93 93 93 0
-4.359790 3.036282 31.776892 91 91 91 0
-4.275966 3.032049 31.732590 93 93 93 0
-4.070114 2.939526 30.764275 93 93 93 0
-4.173984 3.071422 32.144659 95 95 95 0
-4.174448 3.130836 32.766466 63 63 63 0
-4.082093 3.121601 32.669814 66 66 66 0
-4.437272 3.461072 36.222630 123 123 123 0
-4.361180 3.471143 36.328031 146 146 146 0
-4.267956 3.467714 36.292140 148 148 148 0
-4.176864 3.465908 36.273243 149 149 149 0
-4.093053 3.470197 36.318124 146 146 146 0
-4.008315 3.473873 36.356598 149 149 149 0
-3.915583 3.470630 36.322662 149 149 149 0
-3.827284 3.471258 36.329229 148 148 148 0
-3.742427 3.475111 36.369551 149 149 149 0
-3.657966 3.479529 36.415790 151 151 151 0
-3.562053 3.473001 36.347476 148 148 148 0
-3.474858 3.474858 36.366906 148 148 148 0
-3.389290 3.478482 36.404835 147 147 147 0
-3.296492 3.474681 36.365054 147 147 147 0
-3.207842 3.475162 36.370088 145 145 145 0
-3.121269 3.477985 36.399633 144 144 144 0
-3.032098 3.477994 36.399731 140 140 140 0
-2.942745 3.477790 36.397588 143 143 143 0
-2.851594 3.475380 36.372371 139 139 139 0
-2.767632 3.481859 36.440180 142 142 142 0
-2.678625 3.482212 36.443874 137 137 137 0
-2.589375 3.482263 36.444410 140 140 140 0
-2.502849 3.486111 36.484679 147 147 147 0
-2.421765 3.498105 36.610209 145 145 145 0
-2.333444 3.500166 36.631771 154 154 154 0
-2.242228 3.497875 36.607798 159 159 159 0
-2.152288 3.497469 36.603544 163 163 163 0
-2.066171 3.503508 36.666752 165 165 165 0
-1.974627 3.500475 36.635011 156 156 156 0
-1.879335 3.490194 36.527406 156 156 156 0
-1.792560 3.495492 36.582852 149 149 149 0
-1.702609 3.494829 36.575920 150 150 150 0
-1.608061 3.484132 36.463966 143 143 143 0
-1.517807 3.482027 36.441935 141 141 141 0
-1.428389 3.481699 36.438503 139 139 139 0
-1.337937 3.478637 36.406455 135 135 135 0
-1.247168 3.474255 36.360596 134 134 134 0
-1.159133 3.477398 36.393492 131 131 131 0
-1.070899 3.480423 36.425150 133 133 133 0
-0.979057 3.471203 36.328653 134 134 134 0
-0.889019 3.467175 36.286501 130 130 130 0
-0.801256 3.472108 36.338126 127 127 127 0
-0.712171 3.471834 36.335258 130 130 130 0
-0.622008 3.465471 36.268671 127 127 127 0
-0.533274 3.466278 36.277114 129 129 129 0
-0.445184 3.472435 36.341554 125 125 125 0
-0.356093 3.471902 36.335972 125 125 125 0
-0.266753 3.467792 36.292952 122 122 122 0
-0.178068 3.472325 36.340397 121 121 121 0
-0.089214 3.479336 36.413772 123 123 123 0
0.000000 3.482613 36.448070 122 122 122 0
0.089235 3.480156 36.422351 119 119 119 0
0.178512 3.480992 36.431107 120 120 120 0
0.269090 3.498175 36.610940 121 121 121 0
0.358173 3.492183 36.548221 119 119 119 0
0.449356 3.504975 36.682108 124 124 124 0
0.540599 3.513893 36.775437 127 127 127 0
0.631174 3.516541 36.803154 123 123 123 0
0.723201 3.525605 36.898014 130 130 130 0
0.815395 3.533380 36.979383 136 136 136 0
0.907026 3.537403 37.021487 131 131 131 0
0.997842 3.537805 37.025693 136 136 136 0
1.092669 3.551175 37.165617 144 144 144 0
1.187974 3.563921 37.299021 152 152 152 0
1.276966 3.557262 37.229322 149 149 149 0
1.368344 3.557695 37.233862 139 139 139 0
1.459820 3.558312 37.240313 139 139 139 0
1.551791 3.559992 37.257895 137 137 137 0
1.640625 3.554689 37.202392 137 137 137 0
1.732539 3.556264 37.218876 135 135 135 0
1.823016 3.554880 37.204400 135 135 135 0
1.911686 3.550275 37.156200 135 135 135 0
2.000854 3.546968 37.121587 134 134 134 0
2.093359 3.549608 37.149222 137 137 137 0
2.183298 3.547860 37.130924 134 134 134 0
2.274109 3.547610 37.128308 131 131 131 0
2.364790 3.547185 37.123860 129 129 129 0
2.459116 3.552057 37.174847 127 127 127 0
2.552288 3.554972 37.205362 122 122 122 0
2.645556 3.557817 37.235131 123 123 123 0
2.741003 3.563304 37.292556 125 125 125 0
2.839721 3.572552 37.389350 128 128 128 0
2.928622 3.569258 37.354869 128 128 128 0
3.022797 3.572396 37.387715 128 128 128 0
3.119852 3.578654 37.453209 128 128 128 0
3.218185 3.585978 37.529859 130 130 130 0
3.306098 3.581606 37.484105 130 130 130 0
3.403345 3.587310 37.543795 130 130 130 0
3.501860 3.594015 37.613968 131 131 131 0
3.598585 3.598585 37.661800 132 132 132 0
3.685276 3.593144 37.604859 130 130 130 0
3.785462 3.600805 37.685033 131 131 131 0
3.882750 3.605411 37.733238 129 129 129 0
3.976992 3.607039 37.750279 127 127 127 0
4.068246 3.605945 37.738828 125 125 125 0
4.167712 3.612017 37.802374 126 126 126 0
4.268025 3.618543 37.870677 125 125 125 0
4.363151 3.620487 37.891020 126 126 126 0
4.460801 3.624400 37.931978 128 128 128 0
4.559231 3.628776 37.977766 130 130 130 0
4.655000 3.630900 38.000000 133 133 133 0
4.752662 3.634389 38.036511 132 132 132 0
4.849928 3.637446 38.068507 129 129 129 0
4.941907 3.636498 38.058584 129 129 129 0
5.037984 3.638544 38.079999 131 131 131 0
5.141157 3.645548 38.153299 129 129 129 0
5.235400 3.646082 38.158894 127 127 127 0
5.328909 3.646095 38.159030 122 122 122 0
5.435001 3.654570 38.247721 115 115 115 0
5.541858 3.663262 38.338690 107 107 107 0
5.652480 3.674112 38.452248 96 96 96 0
5.772691 3.690737 38.626234 81 81 81 0
6.393033 3.835820 40.144635 72 71 71 0
6.543724 3.866746 40.468298 80 80 80 0
6.664903 3.879571 40.602519 83 83 83 0
6.804199 3.902408 40.841532 84 84 84 0
6.938526 3.921776 41.044224 87 87 87 0
7.038550 3.921478 41.041106 87 87 87 0
7.179658 3.943756 41.274264 89 88 89 0
7.311859 3.960590 41.450449 87 86 87 0
7.501376 4.007584 41.942275 85 85 85 0
7.551677 3.979938 41.652936 84 84 84 0
7.550617 3.926321 41.091794 85 85 85 0
7.821345 4.013585 42.005073 85 85 85 0
8.266642 4.187001 43.819995 83 83 83 0
8.547313 4.273656 44.726911 81 80 81 0
8.663722 4.277028 44.762193 78 78 78 0
-6.454832 3.227416 32.932817 141 141 141 0
-6.380377 3.230571 32.965007 137 138 138 0
-6.305662 3.233673 32.996660 132 132 132 0
-6.228430 3.235548 33.015797 129 129 129 0
-6.155407 3.239688 33.058042 125 125 125 0
-6.082045 3.243757 33.099564 123 123 123 0
-6.008474 3.247824 33.141057 123 123 123 0
-5.930933 3.249827 33.161495 122 122 122 0
-5.862794 3.257108 33.235794 122 122 122 0
-5.793461 3.263922 33.305323 118 118 118 0
-5.718208 3.267548 33.342323 118 118 118 0
-5.648280 3.274365 33.411892 118 118 118 0
-5.573505 3.278533 33.454414 111 111 111 0
-5.501813 3.284664 33.516982 108 108 108 0
-4.972423 3.013589 30.750912 108 108 108 0
-5.371751 3.305693 33.731562 105 105 105 0
-5.294654 3.309159 33.766927 102 102 102 0
-4.767328 3.026875 30.886480 101 101 101 0
-4.717179 3.043342 31.054505 94 94 94 0
-4.651421 3.050112 31.123590 95 95 95 0
-4.593677 3.062451 31.249501 94 94 94 0
-4.574247 3.101184 31.644737 92 92 92 0
-4.471425 3.083741 31.466749 92 92 92 0
-4.418962 3.101026 31.643124 91 91 91 0
-4.376037 3.125741 31.895312 88 88 88 0
-4.269424 3.105035 31.684034 91 91 91 0
-4.247438 3.146251 32.104598 94 94 94 0
-4.165864 3.144048 32.082126 74 74 74 0
-4.112553 3.163503 32.280638 72 72 72 0
-4.108244 3.222152 32.879103 91 91 91 0
-4.438183 3.550546 36.230065 141 141 141 0
-4.356453 3.556288 36.288654 150 150 150 0
-4.262791 3.552325 36.248219 152 152 152 0
-4.175563 3.553671 36.261947 148 148 148 0
-4.087990 3.554774 36.273201 150 150 150 0
-4.006534 3.561364 36.340445 146 146 146 0
-3.909785 3.554350 36.268874 151 151 151 0
-3.821979 3.555329 36.278870 147 147 147 0
-3.737553 3.559574 36.322184 146 146 146 0
-3.652435 3.563351 36.360723 147 147 147 0
-3.561778 3.561778 36.344678 152 152 152 0
-3.472456 3.561494 36.341772 150 150 150 0
-3.386240 3.564463 36.372074 149 149 149 0
-3.297280 3.564627 36.373746 153 153 153 0
-3.202751 3.558612 36.312371 150 150 150 0
-3.118498 3.563998 36.367322 143 143 143 0
-3.031544 3.566523 36.393087 145 145 145 0
-2.938606 3.561946 36.346389 145 145 145 0
-2.847328 3.559160 36.317962 144 144 144 0
-2.765139 3.567922 36.407366 144 144 144 0
-2.675780 3.567706 36.405165 141 141 141 0
-2.586234 3.567219 36.400197 138 138 138 0
-2.495930 3.565614 36.383817 142 142 142 0
-2.413607 3.575713 36.486872 141 141 141 0
-2.328716 3.582640 36.557551 148 148 148 0
-2.234650 3.575440 36.484084 153 153 153 0
-2.149790 3.582983 36.561054 156 156 156 0
-2.061731 3.585619 36.587948 159 159 159 0
-1.969693 3.581261 36.543477 159 159 159 0
-1.879297 3.579613 36.526659 158 158 158 0
-1.792995 3.585991 36.591741 163 163 163 0
-1.704672 3.588783 36.620231 153 153 153 0
-1.610632 3.579182 36.522269 153 153 153 0
-1.520205 3.576953 36.499525 148 148 148 0
-1.434511 3.586277 36.594660 145 145 145 0
-1.342384 3.579690 36.527451 139 139 139 0
-1.251723 3.576350 36.493372 146 146 146 0
-1.160934 3.572104 36.450040 136 136 136 0
-1.073001 3.576670 36.496635 133 133 133 0
-0.984161 3.578766 36.518019 135 135 135 0
-0.892659 3.570635 36.435048 130 130 130 0
-0.804270 3.574533 36.474828 133 133 133 0
-0.715315 3.576573 36.495648 134 134 134 0
-0.624471 3.568408 36.412328 128 128 128 0
-0.535844 3.572290 36.451940 132 132 132 0
-0.446872 3.574976 36.479346 127 127 127 0
-0.357354 3.573538 36.464673 125 125 125 0
-0.268172 3.575625 36.485967 125 125 125 0
-0.178882 3.577638 36.506506 129 129 129 0
-0.089582 3.583267 36.563944 123 123 123 0
0.000000 3.583781 36.569197 121 121 121 0
0.089691 3.587659 36.608769 125 125 125 0
0.179846 3.596914 36.703202 126 126 126 0
0.270124 3.601650 36.751526 123 123 123 0
0.359904 3.599043 36.724927 127 127 127 0
0.450524 3.604193 36.777478 127 127 127 0
0.543529 3.623529 36.974787 133 133 133 0
0.634502 3.625728 36.997225 139 139 139 0
0.726511 3.632556 37.066897 135 135 135 0
0.818667 3.638519 37.127745 146 146 146 0
0.910306 3.641224 37.155349 151 151 151 0
1.001775 3.642818 37.171614 147 147 147 0
1.095520 3.651732 37.262573 149 149 149 0
1.189120 3.658831 37.335010 147 147 147 0
1.275067 3.643049 37.173965 144 144 144 0
1.365675 3.641800 37.161225 139 139 139 0
1.455560 3.638900 37.131632 138 138 138 0
1.548895 3.644458 37.188346 138 138 138 0
1.636331 3.636292 37.105022 135 135 135 0
1.729124 3.640262 37.145526 136 136 136 0
1.818381 3.636762 37.109819 135 135 135 0
1.907254 3.632865 37.070053 133 133 133 0
1.998640 3.633892 37.080527 133 133 133 0
2.088330 3.631879 37.059985 133 133 133 0
2.179002 3.631670 37.057855 134 133 134 0
2.268936 3.630298 37.043855 131 131 131 0
2.363096 3.635533 37.097272 126 126 126 0
2.457825 3.641222 37.155326 123 123 123 0
2.551507 3.645010 37.193983 122 122 122 0
2.643305 3.645937 37.203442 124 124 124 0
2.739198 3.652264 37.267998 126 126 126 0
2.837773 3.661643 37.363700 126 126 126 0
2.926596 3.658245 37.329029 129 129 129 0
3.020682 3.661433 37.361560 128 128 128 0
3.118322 3.668614 37.434840 129 129 129 0
3.217064 3.676645 37.516786 131 131 131 0
3.304220 3.671355 37.462810 129 129 129 0
3.400888 3.676635 37.516687 129 129 129 0
3.500079 3.684294 37.594834 131 131 131 0
3.594616 3.686786 37.620260 131 131 131 0
3.683567 3.683567 37.587422 131 131 131 0
3.783598 3.691315 37.666477 129 129 129 0
3.882140 3.697276 37.727305 129 129 129 0
3.974800 3.697489 37.729476 127 127 127 0
4.066599 3.696908 37.723554 126 126 126 0
4.170765 3.707347 37.830068 126 126 126 0
4.265324 3.708977 37.846707 124 124 124 0
4.361299 3.711744 37.874936 126 126 126 0
4.456928 3.714106 37.899044 129 129 129 0
4.558132 3.720924 37.968616 129 129 129 0
4.651956 3.721564 37.975148 131 131 131 0
4.751779 3.726885 38.029441 131 131 131 0
4.846326 3.727943 38.040235 130 130 130 0
4.940174 3.728433 38.045239 131 131 131 0
5.037814 3.731714 38.078716 131 131 131 0
5.135366 3.734812 38.110325 130 130 130 0
5.233821 3.738444 38.147386 128 128 128 0
5.328638 3.739395 38.157095 124 124 124 0
5.434908 3.748212 38.247065 116 116 116 0
5.536059 3.753260 38.298572 110 110 110 0
5.645402 3.763601 38.404096 100 100 100 0
5.759386 3.776646 38.537207 87 87 87 0
6.360910 3.914406 39.942920 74 74 74 0
6.511414 3.946312 40.268486 79 79 79 0
6.643199 3.966089 40.470298 83 82 82 0
6.757877 3.975222 40.563488 84 83 84 0
6.902512 4.001456 40.831185 83 82 83 0
7.021959 4.012548 40.944369 86 86 86 0
7.136376 4.020494 41.025446 87 87 87 0
7.283316 4.046287 41.288640 88 87 88 0
7.397430 4.053386 41.361084 87 87 87 0
7.530993 4.070807 41.538846 86 86 86 0
7.710800 4.112426 41.963535 83 83 83 0
7.816498 4.113946 41.979045 84 84 84 0
8.262635 4.292278 43.798754 81 81 81 0
8.542796 4.380921 44.703275 81 81 81 0
8.658478 4.384040 44.735097 80 80 80 0
-6.462065 3.311808 32.969717 135 135 135 0
-6.389067 3.315845 33.009904 132 132 132 0
-6.312839 3.318287 33.034216 128 128 128 0
-6.235537 3.320221 33.053472 126 126 126 0
-6.164791 3.325742 33.108435 127 127 127 0
-6.091894 3.330235 33.153163 125 125 125 0
-6.018300 3.334464 33.195257 124 124 124 0
-5.938569 3.335361 33.204187 123 123 123 0
-5.869045 3.342095 33.271231 120 120 120 0
-5.802672 3.350839 33.358277 117 117 117 0
-5.725893 3.353737 33.387132 115 115 115 0
-5.654731 3.360058 33.450051 112 112 112 0
-5.581383 3.365245 33.501697 110 110 110 0
-5.512270 3.373180 33.580690 108 108 108 0
-5.449223 3.385123 33.699585 103 103 103 0
-5.381898 3.394736 33.795281 101 101 101 0
-4.844042 3.103215 30.893127 101 101 101 0
-4.784755 3.113888 30.999382 98 98 98 0
-4.725766 3.125103 31.111030 100 100 100 0
-4.668273 3.137692 31.236353 93 93 93 0
-4.604264 3.146247 31.321522 94 94 94 0
-4.557622 3.167161 31.529727 92 92 92 0
-4.482376 3.168576 31.543811 99 99 99 0
-4.464883 3.211582 31.971949 97 97 97 0
-4.436968 3.248494 32.339417 95 95 95 0
-4.295637 3.202202 31.878565 92 92 92 0
-4.258447 3.233265 32.187806 92 92 92 0
-4.182355 3.235407 32.209127 73 73 73 0
-4.198724 3.310533 32.957021 66 66 66 0
-4.518134 3.632225 36.159532 130 130 130 0
-4.436201 3.637685 36.213888 150 150 150 0
-4.352159 3.641603 36.252888 154 154 154 0
-4.257996 3.637038 36.207449 149 149 149 0
-4.171617 3.639070 36.227679 149 149 149 0
-4.085974 3.641847 36.255318 145 145 145 0
-4.003456 3.647593 36.312524 147 147 147 0
-3.909983 3.643393 36.270711 147 147 147 0
-3.822229 3.644451 36.281243 144 144 144 0
-3.738225 3.649220 36.328719 149 148 149 0
-3.652886 3.652886 36.365219 148 148 148 0
-3.556894 3.645816 36.294835 150 150 150 0
-3.471216 3.649227 36.328791 153 153 153 0
-3.384053 3.651215 36.348580 153 152 152 0
-3.293675 3.649748 36.333977 151 151 151 0
-3.202145 3.646888 36.305504 151 151 151 0
-3.115251 3.649294 36.329462 150 150 150 0
-3.029742 3.653513 36.371458 151 151 151 0
-2.937943 3.650171 36.338191 150 150 150 0
-2.847234 3.648018 36.316758 147 147 147 0
-2.759883 3.650167 36.338152 144 144 144 0
-2.673415 3.653667 36.372989 145 145 145 0
-2.582301 3.650839 36.344835 143 143 143 0
-2.493738 3.651545 36.351871 138 138 138 0
-2.404641 3.651492 36.351334 142 142 142 0
-2.319904 3.658311 36.419221 145 145 145 0
-2.229060 3.655658 36.392812 144 144 144 0
-2.142800 3.660616 36.442171 150 150 150 0
-2.055648 3.664417 36.480008 151 151 151 0
-1.967715 3.667106 36.506778 153 153 153 0
-1.876452 3.663549 36.471367 154 154 154 0
-1.788657 3.666746 36.503198 159 159 159 0
-1.702222 3.673217 36.567614 156 156 156 0
-1.610011 3.667247 36.508183 153 153 153 0
-1.520011 3.665908 36.494850 148 148 148 0
-1.433654 3.673738 36.572799 146 146 146 0
-1.345128 3.676682 36.602109 143 143 143 0
-1.253270 3.670292 36.538493 143 143 143 0
-1.163657 3.669994 36.535533 142 142 142 0
-1.077485 3.681407 36.649152 142 142 142 0
-0.984819 3.670688 36.542441 138 138 138 0
-0.895698 3.672362 36.559101 136 136 136 0
-0.807027 3.676456 36.599856 136 136 136 0
-0.717478 3.677075 36.606020 135 135 135 0
-0.627031 3.672609 36.561558 134 134 134 0
-0.537268 3.671332 36.548852 132 132 132 0
-0.448724 3.679541 36.630568 131 131 131 0
-0.358794 3.677635 36.611599 129 129 129 0
-0.268901 3.674975 36.585118 126 126 126 0
-0.179688 3.683600 36.670978 130 130 130 0
-0.089972 3.688857 36.723319 129 129 129 0
0.000000 3.684429 36.679229 126 126 126 0
0.089899 3.685850 36.693383 127 127 127 0
0.180343 3.697027 36.804647 129 129 129 0
0.270827 3.701305 36.847235 132 132 132 0
0.361509 3.705468 36.888677 132 132 132 0
0.452943 3.714130 36.974909 142 142 142 0
0.544889 3.723412 37.067313 140 140 140 0
0.636142 3.725976 37.092845 150 150 150 0
0.728362 3.732856 37.161337 154 154 154 0
0.820652 3.738528 37.217796 149 149 149 0
0.911184 3.735854 37.191178 149 149 149 0
1.002375 3.736124 37.193863 144 144 144 0
1.093451 3.735958 37.192212 140 140 140 0
1.183974 3.734071 37.173433 141 141 141 0
1.273367 3.729145 37.124394 138 138 138 0
1.363127 3.725880 37.091889 139 139 139 0
1.452067 3.720921 37.042516 140 140 140 0
1.543656 3.722935 37.062564 136 136 136 0
1.633223 3.720119 37.034533 136 136 136 0
1.724553 3.721404 37.047330 136 136 136 0
1.813614 3.717909 37.012530 136 136 136 0
1.904248 3.717818 37.011632 136 136 136 0
1.993878 3.715863 36.992163 134 134 134 0
2.083495 3.714056 36.974173 133 133 133 0
2.175128 3.715844 36.991980 130 130 130 0
2.267671 3.718980 37.023195 126 126 126 0
2.359516 3.720775 37.041061 122 122 122 0
2.454772 3.727617 37.109174 121 121 121 0
2.549857 3.733719 37.169922 121 121 121 0
2.642623 3.736122 37.193843 125 125 125 0
2.738948 3.743229 37.264598 125 125 125 0
2.837016 3.752182 37.353731 126 126 126 0
2.926879 3.750064 37.332642 128 128 128 0
3.021137 3.753534 37.367192 128 128 128 0
3.117257 3.759045 37.422047 129 129 129 0
3.215518 3.766750 37.498757 130 130 130 0
3.302973 3.761719 37.448674 129 129 129 0
3.399906 3.767464 37.505862 131 131 131 0
3.498330 3.774514 37.576047 130 130 130 0
3.593072 3.777332 37.604104 131 131 131 0
3.682074 3.774126 37.572181 130 130 130 0
3.782564 3.782564 37.656183 129 129 129 0
3.881190 3.788780 37.718073 128 128 128 0
3.974012 3.789174 37.721995 127 127 127 0
4.066145 3.788908 37.719338 126 126 126 0
4.167620 3.797165 37.801538 127 127 127 0
4.266284 3.802557 37.855226 126 126 126 0
4.361644 3.804838 37.877934 128 128 128 0
4.454883 3.805213 37.881662 129 129 129 0
4.555540 3.811779 37.947025 130 130 130 0
4.650505 3.813414 37.963309 132 132 132 0
4.747694 3.816773 37.996748 132 132 132 0
4.844580 3.819765 38.026532 131 131 131 0
4.939430 3.821068 38.039506 131 131 131 0
5.044423 3.830025 38.128666 131 131 131 0
5.135671 3.828409 38.112584 131 130 131 0
5.233821 3.831905 38.147386 129 129 129 0
5.324296 3.829757 38.126003 124 124 124 0
5.433334 3.840805 38.235988 118 118 118 0
5.533168 3.845083 38.278575 112 112 112 0
5.635227 3.850739 38.334880 105 105 105 0
5.751730 3.865917 38.485981 91 91 91 0
5.874418 3.884696 38.672931 74 74 74 0
6.338366 3.998046 39.801357 76 76 76 0
6.470390 4.019485 40.014780 80 80 80 0
6.611142 4.045624 40.275007 81 81 81 0
6.734256 4.060360 40.421707 82 82 82 0
6.868764 4.081440 40.631556 84 83 84 0
6.989081 4.093605 40.752661 84 84 84 0
7.111405 4.106586 40.881891 87 87 87 0
7.246744 4.126618 41.081315 87 87 87 0
7.177507 4.031203 40.131435 86 86 86 0
7.500336 4.155592 41.369751 85 85 85 0
7.544021 4.124065 41.055897 84 83 84 0
7.812293 4.214526 41.956460 84 84 84 0
7.907901 4.210700 41.918372 85 85 85 0
8.541655 4.489844 44.697305 83 83 83 0
8.653830 4.491228 44.711085 80 80 80 0
-6.467718 3.395552 32.998562 132 132 132 0
-6.395917 3.400361 33.045295 129 129 129 0
-6.319303 3.402702 33.068042 129 129 129 0
-6.245671 3.406730 33.107189 128 128 128 0
-6.171615 3.410629 33.145087 126 126 126 0
-6.096609 3.414101 33.178827 127 127 127 0
-6.027102 3.420788 33.243808 123 123 123 0
-5.949008 3.422717 33.262554 121 121 121 0
-5.876919 3.428203 33.315865 120 120 120 0
-5.809777 3.436769 33.399118 115 115 115 0
-5.739536 3.443721 33.466679 112 112 112 0
-5.665224 3.448397 33.512123 107 107 107 0
-5.596867 3.456889 33.594641 104 104 104 0
-5.527867 3.465230 33.675707 104 104 104 0
-5.452556 3.469808 33.720199 105 105 105 0
-5.392203 3.484193 33.859987 100 100 100 0
-4.860977 3.190016 31.001127 102 102 102 0
-4.797222 3.198148 31.080154 98 98 98 0
-4.743061 3.213041 31.224891 93 93 93 0
-4.678466 3.221239 31.304558 92 92 92 0
-4.614666 3.230266 31.392287 95 95 95 0
-4.564400 3.249234 31.576616 94 94 94 0
-4.504759 3.262067 31.701327 93 93 93 0
-4.451578 3.280110 31.876677 93 93 93 0
-4.389030 3.291772 31.990012 89 89 89 0
-4.356482 3.326768 32.330110 96 96 96 0
-4.260732 3.313902 32.205077 92 92 92 0
-4.221071 3.344999 32.507282 71 71 71 0
-4.599264 3.714790 36.100975 101 101 101 0
-4.516125 3.719162 36.143459 143 143 143 0
-4.434963 3.725369 36.203780 152 152 152 0
-4.347760 3.726651 36.216241 148 148 148 0
-4.257922 3.725682 36.206823 149 149 149 0
-4.167004 3.723706 36.187618 148 148 148 0
-4.085043 3.729822 36.247054 146 146 146 0
-3.999628 3.732986 36.277802 149 149 149 0
-3.906528 3.728959 36.238666 148 148 148 0
-3.818802 3.729993 36.248718 144 144 144 0
-3.735868 3.735868 36.305810 146 146 146 0
-3.646368 3.735304 36.300327 148 147 148 0
-3.556343 3.734160 36.289211 148 148 148 0
-3.469823 3.736732 36.314209 150 150 150 0
-3.381632 3.737594 36.322582 153 153 153 0
-3.290605 3.735281 36.300110 150 150 150 0
-3.200640 3.734080 36.288436 154 154 154 0
-3.113835 3.736602 36.312944 156 156 156 0
-3.027873 3.740314 36.349017 153 153 153 0
-2.934673 3.735038 36.297743 149 149 149 0
-2.844166 3.732968 36.277630 149 149 149 0
-2.759861 3.739167 36.337868 152 152 152 0
-2.669014 3.736620 36.313118 149 149 149 0
-2.579579 3.735942 36.306532 143 143 143 0
-2.489313 3.733969 36.287361 143 143 143 0
-2.403126 3.738197 36.328441 140 140 140 0
-2.314119 3.738192 36.328401 140 140 140 0
-2.223961 3.736254 36.309560 142 142 142 0
-2.138931 3.743130 36.376385 145 145 145 0
-2.051669 3.746526 36.409385 146 146 146 0
-1.961262 3.744228 36.387052 148 148 148 0
-1.873024 3.746047 36.404737 148 148 148 0
-1.787786 3.754350 36.485419 150 150 150 0
-1.697598 3.752585 36.468267 150 150 150 0
-1.606551 3.748618 36.429723 150 150 150 0
-1.517492 3.749099 36.434389 148 148 148 0
-1.431961 3.758897 36.529608 140 140 140 0
-1.344240 3.763872 36.577957 142 142 142 0
-1.255237 3.765711 36.595826 154 154 154 0
-1.165375 3.765058 36.589488 152 152 152 0
-1.078580 3.775031 36.686408 151 151 151 0
-0.987632 3.770959 36.646834 154 154 154 0
-0.897183 3.768170 36.619730 143 143 143 0
-0.808412 3.772592 36.662698 146 146 146 0
-0.719181 3.775701 36.692916 141 141 141 0
-0.628712 3.772271 36.659584 139 139 139 0
-0.538796 3.771572 36.652791 141 141 141 0
-0.450254 3.782135 36.755443 137 137 137 0
-0.360273 3.782862 36.762510 136 136 136 0
-0.270008 3.780111 36.735770 138 138 138 0
-0.180084 3.781772 36.751914 134 134 134 0
-0.090136 3.785710 36.790183 141 141 141 0
0.000000 3.786269 36.795616 141 141 141 0
0.090292 3.792279 36.854027 135 135 135 0
0.180820 3.797219 36.902035 144 144 144 0
0.271552 3.801735 36.945918 139 139 139 0
0.362283 3.803971 36.967644 138 138 138 0
0.454632 3.818910 37.112830 148 148 148 0
0.545753 3.820269 37.126032 147 147 147 0
0.636363 3.818177 37.105705 145 145 145 0
0.727786 3.820879 37.131959 143 143 143 0
0.820051 3.826903 37.190505 141 141 141 0
0.909592 3.820287 37.126212 142 142 142 0
0.999436 3.816029 37.084835 140 140 140 0
1.090754 3.817638 37.100463 142 142 142 0
1.178150 3.806329 36.990568 143 143 143 0
1.270538 3.811614 37.041927 140 140 140 0
1.359311 3.806072 36.988061 136 136 136 0
1.449485 3.804898 36.976656 136 136 136 0
1.540253 3.805331 36.980864 134 134 134 0
1.630317 3.804073 36.968635 134 134 134 0
1.719732 3.801512 36.943749 136 136 136 0
1.810580 3.802218 36.950617 139 139 139 0
1.900236 3.800472 36.933649 138 138 138 0
1.990879 3.800768 36.936523 137 137 137 0
2.080679 3.799501 36.924211 133 133 133 0
2.174131 3.804730 36.975025 127 127 127 0
2.266376 3.807512 37.002057 122 122 122 0
2.359025 3.810733 37.033362 119 119 119 0
2.453922 3.817212 37.096322 121 121 121 0
2.548381 3.822572 37.148416 122 122 122 0
2.641833 3.826103 37.182727 124 124 124 0
2.737291 3.832207 37.242055 127 127 127 0
2.836699 3.843270 37.349564 128 128 128 0
2.924347 3.838205 37.300342 128 128 128 0
3.020323 3.844048 37.357119 129 129 129 0
3.117257 3.850729 37.422047 129 129 129 0
3.215206 3.858247 37.495109 130 129 129 0
3.302239 3.852612 37.440354 130 130 130 0
3.398467 3.857719 37.489985 129 129 129 0
3.498355 3.866603 37.576313 129 129 129 0
3.591756 3.868044 37.590325 131 130 130 0
3.681873 3.865967 37.570137 129 129 129 0
3.782282 3.874533 37.653382 129 129 129 0
3.877140 3.877140 37.678721 128 128 128 0
3.974167 3.881744 37.723463 129 129 129 0
4.063608 3.878899 37.695809 126 126 126 0
4.168605 3.890698 37.810478 128 128 128 0
4.265660 3.894733 37.849693 126 126 126 0
4.357721 3.894133 37.843861 128 128 128 0
4.454669 3.897836 37.879841 130 130 130 0
4.556286 3.905388 37.953234 130 130 130 0
4.649293 3.905406 37.953413 131 131 131 0
4.744833 3.907509 37.973852 131 131 131 0
4.843773 3.912278 38.020196 131 131 131 0
4.934675 3.910497 38.002890 132 132 132 0
5.034181 3.915474 38.051252 131 131 131 0
5.135173 3.921405 38.108887 131 131 131 0
5.228964 3.921723 38.111984 129 129 129 0
5.322214 3.921632 38.111093 125 125 125 0
5.431821 3.933387 38.225340 121 121 121 0
5.532979 3.938731 38.277268 113 113 113 0
5.633221 3.943255 38.321233 106 106 106 0
5.739393 3.951713 38.403432 95 95 95 0
5.860581 3.970071 38.581836 78 78 78 0
6.323676 4.086068 39.709114 81 80 80 0
6.039646 3.843411 37.350931 81 81 81 0
6.134999 3.845820 37.374348 79 79 79 0
6.713846 4.146787 40.299196 80 80 80 0
6.826623 4.155336 40.382269 84 84 84 0
