ply
format ascii 1.0
element vertex 1123
property float x
property float y
property float z
property uchar red
property uchar green
property uchar blue
property uchar alpha
end_header
-3.057528 -0.174716 35.656298 145 145 145 0
-2.953022 -0.173707 35.450442 146 146 146 0
-2.850922 -0.172783 35.261873 139 139 139 0
-2.761929 -0.172621 35.228691 139 139 139 0
-2.675613 -0.172620 35.228615 139 139 139 0
-2.585146 -0.172343 35.172052 142 142 142 0
-2.497326 -0.172229 35.148859 142 142 142 0
-2.412198 -0.172300 35.163236 144 144 144 0
-2.320590 -0.171896 35.080721 143 143 143 0
-2.233181 -0.171783 35.057787 143 143 143 0
-2.145255 -0.171620 35.024579 146 146 146 0
-2.058952 -0.171579 35.016189 142 142 142 0
-1.972141 -0.171491 34.998063 136 136 136 0
-1.886711 -0.171519 35.003922 131 131 131 0
-1.802059 -0.171625 35.025436 122 122 122 0
-1.720973 -0.172097 35.121902 116 116 116 0
-1.465145 -0.154226 31.474657 109 109 109 0
-1.378099 -0.153122 31.249416 104 104 104 0
-1.305857 -0.153630 31.353108 104 104 104 0
-1.393082 -0.174135 35.537797 115 115 115 0
-1.317670 -0.175689 35.854966 133 133 133 0
-1.234031 -0.176290 35.977580 144 144 144 0
-1.147262 -0.176502 36.020771 149 149 149 0
-1.059296 -0.176549 36.030483 146 146 146 0
-0.971036 -0.176552 36.031035 145 145 145 0
-0.881865 -0.176373 35.994507 146 146 146 0
-0.794646 -0.176588 36.038362 146 146 146 0
-0.705613 -0.176403 36.000654 147 147 147 0
-0.616841 -0.176240 35.967383 148 148 148 0
-0.528247 -0.176082 35.935147 146 146 146 0
-0.440122 -0.176049 35.928337 149 149 149 0
-0.352084 -0.176042 35.926934 150 150 150 0
-0.263680 -0.175787 35.874851 150 150 150 0
-0.175571 -0.175571 35.830760 151 151 151 0
-0.087790 -0.175580 35.832649 152 152 152 0
0.000000 -0.175460 35.808196 155 155 155 0
0.087450 -0.174901 35.693991 153 153 153 0
0.174814 -0.174814 35.676270 153 153 153 0
0.262390 -0.174927 35.699382 153 153 153 0
0.349244 -0.174622 35.637138 153 153 153 0
0.435208 -0.174083 35.527203 152 152 152 0
0.523009 -0.174336 35.578848 150 150 150 0
0.610834 -0.174524 35.617157 143 143 143 0
0.696920 -0.174230 35.557149 136 136 136 0
0.783060 -0.174013 35.512913 124 124 124 0
0.766965 -0.153393 31.304688 115 115 115 0
0.843884 -0.153434 31.312967 109 109 109 0
0.923123 -0.153854 31.398740 107 107 107 0
0.997914 -0.153525 31.331665 104 104 104 0
1.081187 -0.154455 31.521489 94 94 94 0
1.145218 -0.152696 31.162399 64 64 64 0
1.952889 -0.185989 37.957031 59 59 59 0
2.024821 -0.184075 37.566258 87 87 87 0
2.104159 -0.182970 37.340881 113 113 113 0
2.181344 -0.181779 37.097695 117 117 117 0
2.264288 -0.181143 36.967962 126 126 126 0
2.347631 -0.180587 36.854482 130 130 130 0
2.433438 -0.180255 36.786671 134 134 134 0
2.523369 -0.180241 36.783809 133 133 133 0
2.608659 -0.179908 36.715822 131 131 131 0
2.688003 -0.179200 36.571468 129 129 129 0
2.775478 -0.179063 36.543490 129 129 129 0
2.864347 -0.179022 36.535044 126 126 126 0
2.941115 -0.178249 36.377424 128 128 128 0
3.024496 -0.177912 36.308471 131 131 131 0
3.112687 -0.177868 36.299558 139 139 139 0
3.197010 -0.177612 36.247278 144 144 144 0
3.277009 -0.177136 36.150130 145 145 145 0
3.370038 -0.177370 36.198044 147 147 147 0
3.459721 -0.177422 36.208491 146 146 146 0
3.547376 -0.177369 36.197714 143 143 143 0
3.631319 -0.177137 36.150508 144 144 144 0
3.728954 -0.177569 36.238617 144 144 144 0
3.816166 -0.177496 36.223691 143 143 143 0
3.903440 -0.177429 36.210021 145 145 145 0
3.987447 -0.177220 36.167318 145 145 145 0
4.081274 -0.177447 36.213609 148 148 148 0
4.168595 -0.177387 36.201431 146 146 146 0
4.252743 -0.177198 36.162783 146 146 146 0
4.337073 -0.177023 36.127222 146 146 146 0
4.430625 -0.177225 36.168368 145 145 145 0
4.513839 -0.177013 36.125159 143 143 143 0
4.599079 -0.176888 36.099525 143 143 143 0
4.689405 -0.176959 36.114015 144 144 144 0
4.774299 -0.176826 36.086917 144 144 144 0
4.862287 -0.176810 36.083760 144 144 144 0
4.945120 -0.176611 36.043152 144 144 144 0
5.031611 -0.176548 36.030155 141 141 141 0
5.119208 -0.176524 36.025394 139 139 139 0
5.207946 -0.176541 36.028684 135 135 135 0
5.420817 -0.180694 36.876307 132 132 132 0
5.512760 -0.180746 36.886983 128 128 128 0
5.734698 -0.184990 37.753114 122 122 122 0
5.425178 -0.172228 35.148544 116 116 116 0
5.786565 -0.180830 36.904114 111 111 111 0
6.017126 -0.185142 37.784154 110 110 110 0
6.254056 -0.189517 38.676907 110 110 110 0
6.205741 -0.185246 37.805307 117 117 117 0
6.154290 -0.181009 36.940517 118 118 118 0
5.949457 -0.172448 35.193473 117 117 117 0
6.488546 -0.185387 37.834090 117 117 117 0
6.889021 -0.194057 39.603457 115 115 115 0
6.469262 -0.179702 36.673821 112 112 112 0
7.403800 -0.202844 41.396702 110 110 110 0
7.506862 -0.202888 41.405749 110 110 110 0
6.770679 -0.180551 36.847231 107 107 107 0
8.212624 -0.216122 44.106464 103 103 103 0
8.157498 -0.211883 43.241442 102 102 102 0
7.086939 -0.181716 37.084974 100 100 100 0
8.548821 -0.216426 44.168540 96 96 96 0
-6.705348 -0.083817 34.210957 132 132 132 0
-6.616839 -0.083757 34.186717 137 137 137 0
-6.517832 -0.083562 34.106919 133 133 133 0
-6.430012 -0.083507 34.084349 134 134 134 0
-6.335805 -0.083366 34.026879 133 133 133 0
-6.248034 -0.083307 34.002904 131 131 131 0
-6.165305 -0.083315 34.006095 128 128 128 0
-6.084638 -0.083351 34.020900 132 132 132 0
-6.001530 -0.083355 34.022279 128 128 128 0
-5.921553 -0.083402 34.041696 130 130 130 0
-5.840699 -0.083439 34.056555 127 127 127 0
-5.756099 -0.083422 34.049686 129 129 129 0
-5.674348 -0.083446 34.059715 127 127 127 0
-5.591648 -0.083457 34.064258 128 128 128 0
-5.514153 -0.083548 34.101132 129 129 129 0
-5.423352 -0.083436 34.055588 128 128 128 0
-5.342924 -0.083483 34.074768 124 124 124 0
-5.268417 -0.083626 34.132926 121 121 121 0
-5.198711 -0.083850 34.224564 118 118 118 0
-4.673603 -0.076616 31.272020 118 118 118 0
-4.612284 -0.076871 31.376080 117 117 117 0
-4.973901 -0.084303 34.409557 115 115 115 0
-4.912620 -0.084700 34.571571 112 112 112 0
-4.404096 -0.077265 31.536671 114 114 114 0
-4.348392 -0.077650 31.693819 121 121 121 0
-4.280322 -0.077824 31.764910 113 113 113 0
-4.216259 -0.078079 31.868928 113 113 113 0
-4.554476 -0.085934 35.074902 118 118 118 0
-4.086948 -0.078595 32.079652 118 118 118 0
-3.980672 -0.078052 31.858123 115 115 115 0
-3.940338 -0.078807 32.166023 126 126 126 0
-4.221332 -0.086150 35.163117 112 112 112 0
-4.121364 -0.085862 35.045615 124 124 124 0
-4.100570 -0.087246 35.610686 134 134 134 0
-4.048443 -0.088010 35.922299 144 144 144 0
-3.976733 -0.088372 36.070145 149 149 149 0
-3.900960 -0.088658 36.187013 161 161 161 0
-3.824343 -0.088938 36.301309 169 169 169 0
-3.739205 -0.089029 36.338243 169 169 169 0
-3.631982 -0.088585 36.157109 157 157 157 0
-3.529714 -0.088243 36.017490 153 153 153 0
-3.437478 -0.088140 35.975694 150 150 150 0
-3.342536 -0.087961 35.902646 147 147 147 0
-3.242489 -0.087635 35.769320 147 147 147 0
-3.151128 -0.087531 35.727076 139 139 139 0
-3.067933 -0.087655 35.777640 148 148 148 0
-2.967840 -0.087289 35.628332 150 150 150 0
-2.868776 -0.086933 35.482701 146 146 146 0
-2.770463 -0.086577 35.337539 143 143 143 0
-2.682061 -0.086518 35.313504 143 143 143 0
-2.592566 -0.086419 35.273003 144 144 144 0
-2.502423 -0.086290 35.220597 145 145 145 0
-2.417508 -0.086340 35.240642 144 144 144 0
-2.325927 -0.086145 35.161412 144 144 144 0
-2.236661 -0.086025 35.112422 146 146 146 0
-2.148052 -0.085922 35.070245 144 144 144 0
-2.061523 -0.085897 35.059916 143 143 143 0
-1.974593 -0.085852 35.041582 139 139 139 0
-1.889110 -0.085869 35.048419 132 132 132 0
-1.804602 -0.085933 35.074863 125 125 125 0
-1.724219 -0.086211 35.188140 117 117 117 0
-1.464486 -0.077078 31.460493 114 114 114 0
-1.383532 -0.076863 31.372611 107 107 107 0
-1.301734 -0.076573 31.254126 102 102 102 0
-1.397288 -0.087331 35.645104 117 117 117 0
-1.319220 -0.087948 35.897144 136 136 136 0
-1.232338 -0.088024 35.928215 152 152 152 0
-1.148554 -0.088350 36.061354 161 161 161 0
-1.059076 -0.088256 36.022981 153 153 153 0
-0.969096 -0.088100 35.959048 149 149 149 0
-0.879283 -0.087928 35.889089 145 145 145 0
-0.792506 -0.088056 35.941313 145 145 145 0
-0.704094 -0.088012 35.923146 143 143 143 0
-0.615764 -0.087966 35.904588 145 145 145 0
-0.527784 -0.087964 35.903656 145 145 145 0
-0.439262 -0.087852 35.858108 148 148 148 0
-0.351529 -0.087882 35.870275 147 147 147 0
-0.263194 -0.087731 35.808681 151 151 151 0
-0.175268 -0.087634 35.768901 150 150 150 0
-0.087620 -0.087620 35.763436 149 149 149 0
0.000000 -0.087611 35.759586 154 154 154 0
0.087383 -0.087383 35.666453 153 153 153 0
0.174803 -0.087402 35.674122 152 152 152 0
0.262131 -0.087377 35.664091 154 154 154 0
0.348829 -0.087207 35.594766 153 153 153 0
0.435060 -0.087012 35.515069 152 152 152 0
0.522864 -0.087144 35.568954 152 152 152 0
0.610224 -0.087175 35.581592 149 149 149 0
0.696231 -0.087029 35.522003 138 138 138 0
0.687751 -0.076417 31.190533 127 127 127 0
0.765019 -0.076502 31.225253 114 114 114 0
0.842995 -0.076636 31.279975 109 109 109 0
0.921222 -0.076768 31.334077 113 113 113 0
1.002576 -0.077121 31.478062 103 103 103 0
1.090143 -0.077867 31.782594 93 93 93 0
1.159264 -0.077284 31.544594 82 82 82 0
2.058738 -0.093579 38.195501 58 58 58 0
2.144059 -0.093220 38.048956 103 103 103 0
2.205565 -0.091899 37.509615 109 109 109 0
2.278297 -0.091132 37.196679 114 114 114 0
2.355522 -0.090597 36.978371 121 121 121 0
2.441965 -0.090443 36.915569 124 124 124 0
2.527636 -0.090273 36.846000 126 126 126 0
2.615439 -0.090188 36.811242 127 127 127 0
2.694956 -0.089832 36.666066 128 128 128 0
2.782483 -0.089758 36.635717 127 127 127 0
2.869339 -0.089667 36.598715 130 130 130 0
2.950797 -0.089418 36.497180 125 125 125 0
3.030939 -0.089145 36.385819 125 125 125 0
3.118344 -0.089096 36.365525 131 131 131 0
3.201401 -0.088928 36.297064 135 135 135 0
3.282715 -0.088722 36.213077 143 143 143 0
3.368764 -0.088652 36.184359 150 150 150 0
3.459654 -0.088709 36.207789 149 149 149 0
3.546692 -0.088667 36.190739 147 147 147 0
3.631919 -0.088583 36.156490 147 147 147 0
3.725128 -0.088694 36.201439 144 144 144 0
3.814217 -0.088703 36.205191 142 142 142 0
3.898113 -0.088593 36.160600 144 144 144 0
3.983987 -0.088533 36.135938 144 144 144 0
4.078764 -0.088669 36.191339 144 144 144 0
4.164935 -0.088616 36.169650 144 144 144 0
4.250360 -0.088549 36.142520 145 145 145 0
4.332195 -0.088412 36.086590 148 148 148 0
4.425727 -0.088515 36.128384 145 145 145 0
4.508197 -0.088396 36.080004 144 144 144 0
4.592178 -0.088311 36.045352 143 143 143 0
4.681642 -0.088333 36.054233 142 142 142 0
4.769538 -0.088325 36.050927 142 142 142 0
4.855789 -0.088287 36.035537 141 141 141 0
4.941860 -0.088247 36.019386 140 140 140 0
5.032569 -0.088291 36.037017 141 141 141 0
5.118974 -0.088258 36.023745 140 140 140 0
5.205923 -0.088236 36.014687 136 136 136 0
5.292769 -0.088213 36.005232 131 131 131 0
5.389505 -0.088353 36.062260 126 126 126 0
5.483146 -0.088438 36.097077 120 120 120 0
5.581630 -0.088597 36.162164 114 114 114 0
5.786427 -0.090413 36.903233 106 106 106 0
5.878685 -0.090441 36.914820 104 104 104 0
6.112517 -0.092614 37.801591 107 107 107 0
6.206851 -0.092640 37.812067 111 111 111 0
6.300904 -0.092660 37.820555 113 113 113 0
6.544826 -0.094853 38.715324 111 111 111 0
6.640779 -0.094868 38.721745 112 112 112 0
6.890829 -0.097054 39.613850 111 111 111 0
6.989309 -0.097074 39.621936 111 111 111 0
7.247055 -0.099275 40.520295 110 110 110 0
7.347953 -0.099297 40.529249 108 108 108 0
7.612368 -0.101498 41.427853 105 105 105 0
7.881896 -0.103709 42.330267 103 103 103 0
8.159166 -0.105963 43.250284 100 100 100 0
8.096759 -0.103805 42.369225 96 96 96 0
8.726008 -0.110456 45.084000 93 93 93 0
-6.731899 0.000000 34.346421 133 133 133 0
-6.638677 0.000000 34.299543 135 135 135 0
-6.543114 0.000000 34.239214 138 138 138 0
-6.449121 0.000000 34.185639 137 137 137 0
-6.354811 0.000000 34.128955 135 135 135 0
-6.267287 0.000000 34.107685 133 133 133 0
-6.181551 0.000000 34.095704 130 130 130 0
-6.103323 0.000000 34.125375 129 129 129 0
-6.014093 0.000000 34.093499 130 130 130 0
-5.932646 0.000000 34.105465 130 130 130 0
-5.853170 0.000000 34.129269 130 130 130 0
-5.774349 0.000000 34.157637 129 129 129 0
-5.685171 0.000000 34.124678 129 129 129 0
-5.608026 0.000000 34.164033 132 132 132 0
-5.525424 0.000000 34.170834 129 129 129 0
-5.442391 0.000000 34.175137 128 128 128 0
-5.360005 0.000000 34.183705 127 127 127 0
-5.280325 0.000000 34.210074 122 122 122 0
-5.211738 0.000000 34.310324 119 119 119 0
-5.130876 0.000000 34.331724 116 116 116 0
-5.058478 0.000000 34.411415 116 116 116 0
-4.558417 0.000000 31.535228 114 114 114 0
-4.475310 0.000000 31.494086 114 114 114 0
-4.418753 0.000000 31.641628 118 118 118 0
-4.353992 0.000000 31.734639 111 111 111 0
-4.274725 0.000000 31.723376 110 110 110 0
-4.217063 0.000000 31.875001 117 117 117 0
-4.549078 0.000000 35.033330 114 114 114 0
-4.099754 0.000000 32.180175 113 113 113 0
-4.006451 0.000000 32.064437 114 114 114 0
-3.968448 0.000000 32.395494 118 118 118 0
-4.238125 0.000000 35.302998 122 122 122 0
-4.147348 0.000000 35.266568 120 120 120 0
-4.115948 0.000000 35.744227 134 134 134 0
-4.055915 0.000000 35.988600 151 151 151 0
-3.989392 0.000000 36.184964 159 159 159 0
-3.905994 0.000000 36.233714 172 172 172 0
-3.823340 0.000000 36.291786 172 172 172 0
-3.738074 0.000000 36.327249 175 175 175 0
-3.635287 0.000000 36.190020 164 164 164 0
-3.539507 0.000000 36.117422 158 158 158 0
-3.443533 0.000000 36.039070 157 157 157 0
-3.348920 0.000000 35.971209 157 157 157 0
-3.256793 0.000000 35.927111 148 148 148 0
-3.166171 0.000000 35.897634 143 143 143 0
-3.078716 0.000000 35.903398 145 145 145 0
-2.994270 0.000000 35.945622 151 151 151 0
-2.880039 0.000000 35.622009 151 151 151 0
-2.776834 0.000000 35.418805 147 147 147 0
-2.691983 0.000000 35.444152 145 145 145 0
-2.596593 0.000000 35.327800 141 141 141 0
-2.508069 0.000000 35.300050 144 144 144 0
-2.420562 0.000000 35.285160 148 148 148 0
-2.331906 0.000000 35.251784 147 147 147 0
-2.240424 0.000000 35.171496 143 143 143 0
-2.152340 0.000000 35.140241 146 146 146 0
-2.064901 0.000000 35.117361 142 142 142 0
-1.978573 0.000000 35.112207 140 140 140 0
-1.892266 0.000000 35.106973 134 134 134 0
-1.807085 0.000000 35.123134 124 124 124 0
-1.725186 0.000000 35.207868 116 116 116 0
-1.469337 0.000000 31.564713 113 113 113 0
-1.386201 0.000000 31.433126 99 99 99 0
-1.460630 0.000000 35.069148 102 102 102 0
-1.398724 0.000000 35.681745 118 118 118 0
-1.321005 0.000000 35.945722 146 146 146 0
-1.235528 0.000000 36.021210 156 156 156 0
-1.149052 0.000000 36.076995 157 157 157 0
-1.058958 0.000000 36.018991 159 159 159 0
-0.968194 0.000000 35.925555 152 152 152 0
-0.879399 0.000000 35.893850 153 153 153 0
-0.790679 0.000000 35.858461 147 147 147 0
-0.703155 0.000000 35.875231 146 146 146 0
-0.614492 0.000000 35.830432 146 146 146 0
-0.526455 0.000000 35.813277 147 147 147 0
-0.438449 0.000000 35.791727 148 148 148 0
-0.351165 0.000000 35.833158 151 151 151 0
-0.262840 0.000000 35.760564 152 152 152 0
-0.175178 0.000000 35.750696 148 148 148 0
-0.087551 0.000000 35.735086 150 150 150 0
0.000000 0.000000 35.726820 150 150 150 0
0.087304 0.000000 35.634338 149 149 149 0
0.174633 0.000000 35.639483 149 149 149 0
0.262040 0.000000 35.651692 152 152 152 0
0.348692 0.000000 35.580817 152 152 152 0
0.434833 0.000000 35.496535 150 150 150 0
0.522362 0.000000 35.534836 153 152 152 0
0.609727 0.000000 35.552571 150 150 150 0
0.695536 0.000000 35.486520 142 142 142 0
0.783105 0.000000 35.514985 127 127 127 0
0.871996 0.000000 35.591664 117 117 117 0
0.843579 0.000000 31.301635 111 111 111 0
0.920921 0.000000 31.323856 105 105 105 0
1.001586 0.000000 31.446960 105 105 105 0
1.081129 0.000000 31.519796 93 93 93 0
1.151306 0.000000 31.328042 83 83 83 0
2.058753 0.000000 38.195796 58 58 58 0
2.191142 0.000000 38.884502 108 108 108 0
2.271642 0.000000 38.633365 119 119 119 0
2.299719 0.000000 37.546434 108 108 108 0
2.371868 0.000000 37.234971 107 107 107 0
2.453376 0.000000 37.088074 112 112 112 0
2.533998 0.000000 36.938748 117 117 117 0
2.621328 0.000000 36.894124 120 120 120 0
2.704057 0.000000 36.789888 124 124 124 0
2.787006 0.000000 36.695274 127 127 127 0
2.877759 0.000000 36.706105 123 123 123 0
2.958810 0.000000 36.596294 123 123 123 0
3.041447 0.000000 36.511965 126 126 126 0
3.125009 0.000000 36.443254 125 125 125 0
3.209583 0.000000 36.389827 131 131 131 0
3.286638 0.000000 36.256346 135 135 135 0
3.373215 0.000000 36.232174 143 143 143 0
3.462141 0.000000 36.233816 153 153 153 0
3.548471 0.000000 36.208890 154 154 154 0
3.632291 0.000000 36.160190 150 150 150 0
3.722189 0.000000 36.172878 147 147 147 0
3.812660 0.000000 36.190413 145 145 145 0
3.898149 0.000000 36.160939 145 145 145 0
3.982190 0.000000 36.119638 145 145 145 0
4.077758 0.000000 36.182418 144 144 144 0
4.163684 0.000000 36.158784 146 146 146 0
4.248853 0.000000 36.129698 146 146 146 0
4.332655 0.000000 36.090421 146 146 146 0
4.423219 0.000000 36.107908 144 144 144 0
4.504099 0.000000 36.047213 145 145 145 0
4.590714 0.000000 36.033862 145 145 145 0
4.681468 0.000000 36.052894 143 143 143 0
4.762917 0.000000 36.000884 144 144 144 0
4.848801 0.000000 35.983683 143 143 143 0
4.940388 0.000000 36.008657 144 143 144 0
5.023003 0.000000 35.968511 141 141 141 0
5.114227 0.000000 35.990335 141 141 141 0
5.204586 0.000000 36.005441 134 134 134 0
5.291214 0.000000 35.994650 129 129 129 0
5.384361 0.000000 36.027842 123 123 123 0
5.602327 0.000000 36.881676 116 116 116 0
5.580260 0.000000 36.153287 107 107 107 0
5.683632 0.000000 36.247650 99 99 99 0
5.739079 0.000000 36.038174 101 101 101 0
6.255556 0.000000 38.686183 103 103 103 0
6.208871 0.000000 37.824376 106 106 106 0
6.302414 0.000000 37.829614 108 108 108 0
6.546672 0.000000 38.726245 109 109 109 0
6.491855 0.000000 37.853385 111 111 111 0
6.892487 0.000000 39.623381 110 110 110 0
6.990208 0.000000 39.627028 109 109 109 0
7.248907 0.000000 40.530649 109 109 109 0
7.511259 0.000000 41.429997 107 107 107 0
6.962192 0.000000 37.889480 103 103 103 0
7.554292 0.000000 40.570851 100 100 100 0
7.992569 0.000000 42.367185 97 97 97 0
8.442366 0.000000 44.177739 92 92 92 0
6.997573 0.000000 36.153825 90 90 90 0
-6.753435 0.084418 34.456299 134 134 134 0
-6.659580 0.084298 34.407544 137 137 137 0
-6.566932 0.084191 34.363850 137 137 137 0
-6.475635 0.084099 34.326186 135 135 135 0
-6.379697 0.083943 34.262606 135 135 135 0
-6.284685 0.083796 34.202368 135 135 135 0
-6.199907 0.083783 34.196948 133 133 133 0
-6.122566 0.083871 34.232968 132 132 132 0
-6.031241 0.083767 34.190708 128 128 128 0
-5.949418 0.083795 34.201885 129 129 129 0
-5.872397 0.083891 34.241380 130 130 130 0
-5.787708 0.083880 34.236662 129 129 129 0
-5.708046 0.083942 34.261979 130 130 130 0
-5.619731 0.083877 34.235341 130 130 130 0
-5.542182 0.083972 34.274474 131 131 131 0
-5.454850 0.083921 34.253377 131 131 131 0
-5.374497 0.083977 34.276128 130 130 130 0
-5.297944 0.084094 34.324225 126 126 126 0
-5.217823 0.084158 34.350383 119 119 119 0
-5.150578 0.084436 34.463551 118 118 118 0
-5.066164 0.084436 34.463698 114 114 114 0
-4.995648 0.084672 34.560000 115 115 115 0
-4.493310 0.077471 31.620759 112 112 112 0
-4.432339 0.077760 31.738911 115 115 115 0
-4.368851 0.078015 31.842939 112 112 112 0
-4.287989 0.077963 31.821810 114 114 114 0
-4.225852 0.078257 31.941434 111 111 111 0
-4.175336 0.078780 32.155074 116 116 116 0
-4.101982 0.078884 32.197659 118 118 118 0
-3.999705 0.078426 32.010448 120 120 120 0
-3.945010 0.078900 32.204162 114 114 114 0
-4.260405 0.086947 35.488589 122 122 122 0
-4.171814 0.086913 35.474605 131 131 131 0
-4.142353 0.088135 35.973537 145 145 145 0
-4.074864 0.088584 36.156733 155 155 155 0
-3.998903 0.088865 36.271230 165 165 165 0
-3.903328 0.088712 36.208977 166 166 166 0
-3.816294 0.088751 36.224912 168 168 168 0
-3.727897 0.088759 36.228343 168 168 168 0
-3.632336 0.088594 36.160633 169 169 169 0
-3.534162 0.088354 36.062882 166 166 166 0
-3.452220 0.088518 36.129984 159 159 159 0
-3.359282 0.088402 36.082518 164 164 164 0
-3.264786 0.088237 36.015292 157 157 157 0
-3.167746 0.087993 35.915490 157 157 157 0
-3.083966 0.088113 35.964616 158 158 158 0
-3.003066 0.088325 36.051208 161 161 161 0
-2.913501 0.088288 36.035880 156 156 156 0
-2.794007 0.087313 35.637850 148 148 148 0
-2.702325 0.087172 35.580319 147 147 147 0
-2.607097 0.086903 35.470709 146 146 146 0
-2.514386 0.086703 35.388972 146 146 146 0
-2.424495 0.086589 35.342496 144 144 144 0
-2.335507 0.086500 35.306222 148 148 148 0
-2.245139 0.086351 35.245507 143 143 143 0
-2.154459 0.086178 35.174841 142 142 142 0
-2.070829 0.086285 35.218183 144 144 144 0
-1.982625 0.086201 35.184118 140 140 140 0
-1.896325 0.086197 35.182276 134 134 134 0
-1.810751 0.086226 35.194390 125 125 125 0
-1.726178 0.086309 35.228130 120 120 120 0
-1.641788 0.086410 35.269343 115 115 115 0
-1.382547 0.076808 31.350271 110 110 110 0
-1.463609 0.086095 35.140668 94 94 94 0
-1.407025 0.087939 35.893485 129 129 129 0
-1.322540 0.088169 35.987488 150 150 150 0
-1.236962 0.088354 36.063037 156 156 156 0
-1.149255 0.088404 36.083365 155 155 155 0
-1.058309 0.088192 35.996913 153 153 153 0
-0.968575 0.088052 35.939721 153 153 153 0
-0.878061 0.087806 35.839213 154 154 154 0
-0.789037 0.087671 35.783974 149 149 149 0
-0.702467 0.087808 35.840164 147 147 147 0
-0.613440 0.087634 35.769112 148 148 148 0
-0.525761 0.087627 35.766022 149 149 149 0
-0.437833 0.087567 35.741493 149 149 149 0
-0.350516 0.087629 35.766989 147 147 147 0
-0.262408 0.087469 35.701833 149 149 149 0
-0.174884 0.087442 35.690585 148 148 148 0
-0.087558 0.087558 35.737997 147 147 147 0
0.000000 0.087442 35.690785 149 149 149 0
0.087252 0.087252 35.613066 150 150 150 0
0.174500 0.087250 35.612248 150 150 150 0
0.261683 0.087228 35.603166 150 150 150 0
0.348527 0.087132 35.563994 152 152 152 0
0.434858 0.086972 35.498645 153 153 153 0
0.522471 0.087079 35.542273 150 150 150 0
0.609622 0.087089 35.546476 152 152 152 0
0.694779 0.086847 35.447915 148 148 148 0
0.781885 0.086876 35.459643 134 134 134 0
0.763448 0.076345 31.161127 123 123 123 0
0.960236 0.087294 35.630281 109 109 109 0
0.919439 0.076620 31.273442 109 109 109 0
0.998587 0.076814 31.352823 105 105 105 0
1.083807 0.077415 31.597870 98 98 98 0
1.159261 0.077284 31.544512 86 86 86 0
1.226002 0.076625 31.275561 67 67 67 0
2.189868 0.095212 38.861891 85 85 85 0
2.295822 0.095659 39.044589 131 131 131 0
2.368511 0.094740 38.669571 121 121 121 0
2.395524 0.092136 37.606343 105 105 105 0
2.475910 0.091700 37.428719 108 108 108 0
2.552215 0.091151 37.204295 111 111 111 0
2.632253 0.090767 37.047899 112 112 112 0
2.716253 0.090542 36.955829 115 115 115 0
2.799445 0.090305 36.859058 118 118 118 0
2.886997 0.090219 36.823945 119 119 119 0
2.969814 0.089994 36.732393 121 121 121 0
3.047893 0.089644 36.589357 122 122 122 0
3.134957 0.089570 36.559265 125 125 125 0
3.220678 0.089463 36.515624 124 124 124 0
3.293590 0.089016 36.333040 128 128 128 0
3.376035 0.088843 36.262463 131 131 131 0
3.462836 0.088791 36.241084 143 143 143 0
3.548660 0.088717 36.210817 152 152 152 0
3.629976 0.088536 36.137143 154 154 154 0
3.721440 0.088606 36.165600 155 155 155 0
3.811694 0.088644 36.181247 150 150 150 0
3.891498 0.088443 36.099237 147 147 147 0
3.981766 0.088484 36.115789 145 145 145 0
4.072043 0.088523 36.131704 144 144 144 0
4.158106 0.088470 36.110341 146 146 146 0
4.244000 0.088417 36.088432 148 148 148 0
4.329320 0.088353 36.062643 148 148 148 0
4.416043 0.088321 36.049330 147 147 147 0
4.501831 0.088271 36.029060 147 147 147 0
4.587791 0.088227 36.010915 145 145 145 0
4.674600 0.088200 36.000000 144 144 144 0
4.760818 0.088163 35.985018 146 146 146 0
4.849201 0.088167 35.986649 145 145 145 0
4.936567 0.088153 35.980811 144 144 144 0
5.023636 0.088134 35.973046 143 143 143 0
5.111738 0.088133 35.972819 136 136 136 0
5.203800 0.088200 36.000000 131 131 131 0
5.419844 0.090331 36.869690 125 125 125 0
5.391850 0.088391 36.077955 117 117 117 0
5.493746 0.088609 36.166858 108 108 108 0
5.693994 0.090381 36.890145 99 99 99 0
5.703755 0.089121 36.375986 96 96 96 0
5.802383 0.089267 36.435685 97 97 97 0
6.115486 0.092659 37.819952 101 101 101 0
6.210433 0.092693 37.833892 102 102 102 0
6.303181 0.092694 37.834222 107 107 107 0
6.548723 0.094909 38.738381 107 107 107 0
6.796178 0.097088 39.627861 109 109 109 0
6.894869 0.097111 39.637072 110 110 110 0
7.149290 0.099296 40.528853 108 108 108 0
7.251100 0.099330 40.542912 106 106 106 0
7.513192 0.101530 41.440662 103 103 103 0
7.781605 0.103755 42.348868 99 99 99 0
7.888708 0.103799 42.366851 97 97 97 0
8.163670 0.106022 43.274157 95 95 95 0
8.445687 0.108278 44.195119 91 91 91 0
8.558441 0.108335 44.218242 87 87 87 0
-6.772532 0.169313 34.553732 134 134 134 0
-6.686655 0.169282 34.547429 135 135 135 0
-6.592859 0.169048 34.499525 138 138 138 0
-6.498664 0.168796 34.448256 138 138 138 0
-6.402411 0.168485 34.384593 138 138 138 0
-6.300614 0.168016 34.289055 136 136 136 0
-6.218413 0.168065 34.299023 135 135 135 0
-6.134709 0.168074 34.300863 133 133 133 0
-6.046530 0.167959 34.277378 130 130 130 0
-5.964792 0.168022 34.290270 129 129 129 0
-5.881498 0.168043 34.294449 128 128 128 0
-5.807291 0.168327 34.352503 132 132 132 0
-5.716724 0.168139 34.314072 130 130 130 0
-5.631491 0.168104 34.306980 134 134 134 0
-5.555529 0.168349 34.357013 130 130 130 0
-5.472887 0.168397 34.366635 131 131 131 0
-5.390459 0.168452 34.377929 125 125 125 0
-5.307068 0.168478 34.383336 124 124 124 0
-5.234896 0.168868 34.462775 123 123 123 0
-5.156059 0.169051 34.500225 119 119 119 0
-5.075123 0.169171 34.524644 114 114 114 0
-4.561360 0.154622 31.555584 115 115 115 0
-4.927728 0.169922 34.677892 114 114 114 0
-4.442593 0.155880 31.812340 118 118 118 0
-4.365830 0.155923 31.820920 119 119 119 0
-4.717232 0.171536 35.007285 110 110 110 0
-4.228726 0.156619 31.963157 113 113 113 0
-4.160196 0.156989 32.038476 118 118 118 0
-4.103722 0.157835 32.211322 116 116 116 0
-4.424523 0.173511 35.410345 117 117 117 0
-4.368236 0.174729 35.659073 116 116 116 0
-4.260741 0.173908 35.491386 128 128 128 0
-4.205843 0.175243 35.763968 133 133 133 0
-4.154775 0.176799 36.081419 154 154 154 0
-4.081224 0.177445 36.213168 171 171 171 0
-3.996731 0.177632 36.251528 167 167 167 0
-3.900958 0.177316 36.186993 168 168 168 0
-3.812820 0.177340 36.191934 165 165 165 0
-3.721332 0.177206 36.164545 164 164 164 0
-3.625355 0.176847 36.091139 168 168 168 0
-3.534555 0.176728 36.066892 167 167 167 0
-3.449102 0.176877 36.097351 169 169 169 0
-3.355071 0.176583 36.037287 168 168 168 0
-3.260483 0.176242 35.967820 166 166 166 0
-3.166390 0.175911 35.900108 161 161 161 0
-3.085423 0.176310 35.981607 164 164 164 0
-3.002634 0.176626 36.046023 163 163 163 0
-2.920145 0.176979 36.118062 161 161 161 0
-2.820659 0.176291 35.977799 153 153 153 0
-2.717496 0.175322 35.780065 148 148 148 0
-2.624644 0.174976 35.709448 150 150 150 0
-2.520511 0.173828 35.475173 149 149 149 0
-2.432582 0.173756 35.460379 147 147 147 0
-2.347251 0.173870 35.483757 147 147 147 0
-2.250697 0.173131 35.332763 145 145 145 0
-2.162771 0.173022 35.310542 147 147 147 0
-2.076081 0.173007 35.307498 143 143 143 0
-1.986785 0.172764 35.257936 138 138 138 0
-1.897411 0.172492 35.202428 132 132 132 0
-1.812523 0.172621 35.228817 127 127 127 0
-1.729977 0.172998 35.305656 119 119 119 0
-1.469236 0.154656 31.562544 112 112 112 0
-1.543851 0.171539 35.007948 111 111 111 0
-1.476586 0.173716 35.452243 99 99 99 0
-1.407041 0.175880 35.893910 141 141 141 0
-1.324135 0.176551 36.030886 156 156 156 0
-1.237652 0.176807 36.083158 157 157 157 0
-1.150638 0.177021 36.126769 153 153 153 0
-1.059656 0.176609 36.042725 151 151 151 0
-0.968589 0.176107 35.940220 154 154 154 0
-0.877664 0.175533 35.823019 157 157 157 0
-0.788720 0.175271 35.769598 156 156 156 0
-0.702124 0.175531 35.822646 155 155 155 0
-0.613120 0.175177 35.750435 149 149 149 0
-0.525137 0.175046 35.723616 149 149 149 0
-0.437491 0.174997 35.713583 148 148 148 0
-0.350571 0.175286 35.772595 150 150 150 0
-0.262199 0.174799 35.673296 150 150 150 0
-0.174679 0.174679 35.648875 148 148 148 0
-0.087412 0.174824 35.678462 148 148 148 0
0.000000 0.174773 35.667929 150 150 150 0
0.087176 0.174353 35.582235 152 152 152 0
0.174323 0.174323 35.576199 152 152 152 0
0.261707 0.174471 35.606399 153 153 153 0
0.348020 0.174010 35.512229 152 152 152 0
0.434199 0.173680 35.444805 153 153 153 0
0.521955 0.173985 35.507142 154 153 154 0
0.609308 0.174088 35.528188 153 153 153 0
0.694702 0.173676 35.443988 152 152 152 0
0.781445 0.173655 35.439697 141 141 141 0
0.870209 0.174042 35.518742 125 125 125 0
0.838104 0.152383 31.098470 114 114 114 0
0.918940 0.153157 31.256462 109 109 109 0
0.995646 0.153176 31.260474 103 103 103 0
1.077526 0.153932 31.414757 103 103 103 0
1.154150 0.153887 31.405437 93 93 93 0
1.221443 0.152680 31.159258 83 83 83 0
2.170243 0.188717 38.513635 73 73 73 0
2.294971 0.191248 39.030117 127 127 127 0
2.394138 0.191531 39.087964 137 137 137 0
2.479062 0.190697 38.917766 123 123 123 0
2.507688 0.185755 37.909117 108 108 108 0
2.569774 0.183555 37.460259 107 107 107 0
2.651996 0.182896 37.325764 109 109 109 0
2.732146 0.182143 37.172051 111 111 111 0
2.812933 0.181480 37.036640 114 114 114 0
2.895430 0.180964 36.931508 115 115 115 0
2.978568 0.180519 36.840671 117 117 117 0
3.058405 0.179906 36.715550 119 119 119 0
3.147071 0.179833 36.700535 121 121 121 0
3.230927 0.179496 36.631825 122 122 122 0
3.303276 0.178555 36.439889 123 123 123 0
3.385968 0.178209 36.369151 125 125 125 0
3.470958 0.177998 36.326094 129 129 129 0
3.550103 0.177505 36.225544 138 138 138 0
3.631292 0.177136 36.150245 145 145 145 0
3.722037 0.177240 36.171399 150 150 150 0
3.808765 0.177152 36.153439 155 155 155 0
3.894039 0.177002 36.122809 154 154 154 0
3.975900 0.176707 36.062589 152 152 152 0
4.070030 0.176958 36.113844 151 151 151 0
4.155385 0.176825 36.086709 151 151 151 0
4.241905 0.176746 36.070618 153 153 153 0
4.324274 0.176501 36.020605 153 153 153 0
4.413086 0.176523 36.025192 153 153 153 0
4.498714 0.176420 36.004111 154 154 154 0
4.584985 0.176346 35.988895 152 152 152 0
4.672456 0.176319 35.983492 152 152 152 0
4.759080 0.176262 35.971880 148 148 148 0
4.847088 0.176258 35.970972 148 148 148 0
4.936185 0.176292 35.978022 142 142 142 0
5.022205 0.176218 35.962799 138 138 138 0
5.112941 0.176308 35.981286 133 133 133 0
5.203664 0.176395 35.999059 124 124 124 0
5.420144 0.180671 36.871730 117 117 117 0
5.513259 0.180763 36.890322 111 111 111 0
5.605135 0.180811 36.900166 101 101 101 0
5.696036 0.180827 36.903373 95 95 95 0
5.710066 0.178440 36.416235 95 95 95 0
5.882423 0.180998 36.938294 97 97 97 0
5.974751 0.181053 36.949604 98 98 98 0
6.212933 0.185461 37.849120 102 102 102 0
6.452463 0.189778 38.730272 105 105 105 0
6.550374 0.189866 38.748147 107 107 107 0
6.495753 0.185593 37.876110 108 108 108 0
6.897397 0.194293 39.651604 108 108 108 0
6.995012 0.194306 39.654264 106 106 106 0
7.411385 0.203052 41.439109 104 104 104 0
7.515294 0.203116 41.452258 99 99 99 0
7.784580 0.207589 42.365059 94 94 94 0
8.057912 0.212050 43.275574 94 94 94 0
8.167664 0.212147 43.295329 93 93 93 0
6.915283 0.177315 36.186723 89 89 89 0
8.560788 0.216729 44.230367 85 85 85 0
-6.794010 0.254775 34.663317 129 129 129 0
-6.717110 0.255080 34.704778 129 129 129 0
-6.629106 0.254966 34.689200 133 133 133 0
-6.526842 0.254293 34.597625 134 134 134 0
-6.425140 0.253624 34.506659 136 136 136 0
-6.331715 0.253269 34.458316 135 135 135 0
-6.236337 0.252824 34.397885 135 135 135 0
-6.154356 0.252919 34.410712 132 132 132 0
-6.066084 0.252753 34.388231 129 129 129 0
-5.983313 0.252816 34.396739 133 133 133 0
-5.902574 0.252967 34.417339 134 134 134 0
-5.816381 0.252886 34.406276 132 132 132 0
-5.734903 0.253010 34.423185 134 134 134 0
-5.648260 0.252907 34.409138 133 133 133 0
-5.565092 0.252959 34.416154 134 134 134 0
-5.482128 0.253021 34.424667 130 130 130 0
-5.406283 0.253420 34.478844 127 127 127 0
-5.321778 0.253418 34.478642 126 126 126 0
-5.247392 0.253906 34.545045 122 122 122 0
-5.175952 0.254555 34.633337 119 119 119 0
-5.090618 0.254531 34.630057 116 116 116 0
-5.009193 0.254705 34.653704 117 117 117 0
-4.507228 0.233132 31.718706 116 116 116 0
-4.446508 0.234027 31.840373 117 117 117 0
-4.390400 0.235200 32.000000 114 114 114 0
-4.304418 0.234786 31.943732 113 113 113 0
-4.647015 0.258168 35.124833 112 112 112 0
-4.174036 0.236266 32.145061 110 110 110 0
-4.124428 0.237948 32.373843 120 120 120 0
-4.420877 0.260052 35.381168 113 113 113 0
-4.366600 0.261996 35.645711 129 129 129 0
-4.300624 0.263303 35.823603 132 132 132 0
-4.234978 0.264686 36.011717 137 137 137 0
-4.167121 0.265986 36.188630 164 164 164 0
-4.083708 0.266329 36.235209 169 169 169 0
-3.989954 0.265997 36.190060 163 163 163 0
-3.897484 0.265738 36.154771 163 163 163 0
-3.806289 0.265555 36.129938 167 167 167 0
-3.718387 0.265599 36.135929 162 162 162 0
-3.622720 0.265077 36.064911 163 163 163 0
-3.533085 0.264981 36.051885 166 166 166 0
-3.443114 0.264855 36.034686 163 163 163 0
-3.348649 0.264367 35.968305 167 167 167 0
-3.260675 0.264379 35.969937 164 164 164 0
-3.168115 0.264010 35.919666 158 158 158 0
-3.080958 0.264082 35.929544 157 157 157 0
-2.998636 0.264586 35.998030 164 164 164 0
-2.915320 0.265029 36.058377 163 163 163 0
-2.820005 0.264375 35.969449 161 161 161 0
-2.717392 0.262973 35.778693 155 155 155 0
-2.629896 0.262990 35.780904 150 150 150 0
-2.532164 0.261948 35.639189 152 152 152 0
-2.440170 0.261447 35.570988 149 149 149 0
-2.352456 0.261384 35.562452 146 146 146 0
-2.258797 0.260630 35.459922 146 146 146 0
-2.165603 0.259872 35.356784 144 144 144 0
-2.079820 0.259977 35.371087 145 145 145 0
-1.992948 0.259950 35.367308 137 137 137 0
-1.905675 0.259865 35.355757 137 137 137 0
-1.817461 0.259637 35.324804 122 122 122 0
-1.735086 0.260263 35.409912 116 116 116 0
-1.467049 0.231639 31.515559 112 112 112 0
-1.554576 0.259096 35.251160 98 98 98 0
-1.490659 0.263057 35.790126 124 124 124 0
-1.412412 0.264827 36.030924 147 147 147 0
-1.324801 0.264960 36.049000 155 155 155 0
-1.237882 0.265261 36.089867 163 163 163 0
-1.150471 0.265493 36.121540 158 158 158 0
-1.060039 0.265010 36.055735 154 154 154 0
-0.968719 0.264196 35.945059 150 150 150 0
-0.878675 0.263602 35.864271 151 151 151 0
-0.788418 0.262806 35.755940 156 156 156 0
-0.701552 0.263082 35.793469 155 155 155 0
-0.613148 0.262778 35.752088 153 153 153 0
-0.524487 0.262244 35.679418 152 152 152 0
-0.437481 0.262489 35.712749 151 151 151 0
-0.350163 0.262622 35.730900 149 149 149 0
-0.261992 0.261992 35.645211 151 151 151 0
-0.174562 0.261843 35.624956 150 150 150 0
-0.087413 0.262240 35.678902 151 151 151 0
0.000000 0.261894 35.631810 151 151 151 0
0.087088 0.261263 35.545982 152 152 152 0
0.174325 0.261488 35.576620 151 151 151 0
0.261403 0.261403 35.565088 152 152 152 0
0.347880 0.260910 35.497969 152 152 152 0
0.433885 0.260331 35.419173 154 154 154 0
0.521744 0.260872 35.492780 152 152 152 0
0.608913 0.260963 35.505121 154 154 154 0
0.694149 0.260306 35.415786 153 153 153 0
0.780908 0.260303 35.415320 146 146 146 0
0.869747 0.260924 35.499888 129 129 129 0
0.957440 0.261120 35.526513 114 114 114 0
0.918855 0.229714 31.253570 106 106 106 0
0.997135 0.230108 31.307207 104 104 104 0
1.074253 0.230197 31.319319 102 102 102 0
1.156251 0.231250 31.462624 89 89 89 0
1.196681 0.224378 30.527574 79 79 79 0
1.312904 0.231689 31.522308 61 61 61 0
2.155555 0.281159 38.252965 59 59 59 0
2.286870 0.285859 38.892340 109 109 109 0
2.391823 0.287019 39.050172 132 132 132 0
2.492100 0.287550 39.122448 136 136 136 0
2.579474 0.286608 38.994322 130 130 130 0
2.621967 0.280925 38.221100 113 113 113 0
2.672635 0.276480 37.616261 110 110 110 0
2.747860 0.274786 37.385851 108 108 108 0
2.829550 0.273827 37.255430 111 111 111 0
2.909452 0.272761 37.110355 112 112 112 0
2.990445 0.271859 36.987571 114 114 114 0
3.075961 0.271408 36.926306 114 114 114 0
3.157159 0.270614 36.818181 117 117 117 0
3.240455 0.270038 36.739854 119 119 119 0
3.317156 0.268959 36.593007 120 120 120 0
3.396817 0.268170 36.485680 119 119 119 0
3.478737 0.267595 36.407504 124 124 124 0
3.559511 0.266963 36.321544 127 127 127 0
3.635537 0.266015 36.192505 132 132 132 0
3.724217 0.266015 36.192585 140 140 140 0
3.810931 0.265879 36.174001 144 144 144 0
3.894305 0.265521 36.125281 149 149 149 0
3.979258 0.265284 36.093044 151 151 151 0
4.068634 0.265346 36.101453 153 153 153 0
4.154269 0.265166 36.077022 154 154 154 0
4.238883 0.264930 36.044926 152 152 152 0
4.327197 0.264930 36.044960 153 153 153 0
4.410766 0.264646 36.006254 155 155 155 0
4.497488 0.264558 35.994298 154 154 154 0
4.587615 0.264670 36.009537 152 152 152 0
4.674144 0.264574 35.996484 151 151 151 0
4.758505 0.264361 35.967538 147 147 147 0
4.846955 0.264379 35.969983 142 142 142 0
4.933708 0.264306 35.959970 139 139 139 0
5.025014 0.264474 35.982918 133 133 133 0
5.114021 0.264518 35.988889 127 127 127 0
5.209356 0.264883 36.038436 120 120 120 0
5.302020 0.265101 36.068165 111 111 111 0
5.514441 0.271202 36.898236 104 104 104 0
5.342061 0.258487 35.168278 97 97 97 0
5.697122 0.271292 36.910411 93 93 93 0
5.727945 0.268497 36.530264 95 95 95 0
6.164309 0.284507 38.708380 97 97 97 0
5.836966 0.265317 36.097502 100 100 100 0
6.214799 0.278275 37.860486 103 103 103 0
6.163338 0.271912 36.994825 105 105 105 0
6.552317 0.284883 38.759642 107 107 107 0
6.799796 0.291420 39.648957 106 106 106 0
6.459974 0.272957 37.136961 106 106 106 0
6.842244 0.285093 38.788229 103 103 103 0
7.254808 0.298143 40.563644 99 99 99 0
7.519197 0.304832 41.473782 96 96 96 0
7.624135 0.304965 41.491889 93 93 93 0
7.562531 0.298521 40.615097 92 92 92 0
8.170887 0.318346 43.312413 91 91 91 0
8.454445 0.325171 44.240947 87 87 87 0
8.740160 0.331905 45.157118 83 83 83 0
-6.807353 0.340368 34.731394 123 123 123 0
-6.745063 0.341522 34.849202 127 127 127 0
-6.661878 0.341635 34.860689 129 129 129 0
-6.573709 0.341491 34.846058 136 136 136 0
-6.483975 0.341262 34.822639 139 139 139 0
-6.374493 0.339973 34.691121 134 134 134 0
-6.265049 0.338651 34.556252 134 134 134 0
-6.167580 0.337950 34.484651 134 134 134 0
-6.081169 0.337843 34.473747 132 132 132 0
-5.995130 0.337754 34.464676 132 132 132 0
-5.911659 0.337809 34.470315 135 135 135 0
-5.827953 0.337852 34.474729 136 136 136 0
-5.745672 0.337981 34.487827 136 136 136 0
-5.654485 0.337581 34.447063 135 135 135 0
-5.573999 0.337818 34.471236 135 135 135 0
-5.496584 0.338251 34.515440 131 131 131 0
-5.415729 0.338483 34.539086 127 127 127 0
-5.334729 0.338713 34.562546 124 124 124 0
-5.260550 0.339390 34.631667 124 124 124 0
-5.181513 0.339771 34.670547 121 121 121 0
-5.105889 0.340393 34.733936 118 118 118 0
-5.034904 0.341349 34.831576 115 115 115 0
-4.952910 0.341580 34.855101 118 118 118 0
-4.454022 0.312563 31.894176 116 116 116 0
-4.400524 0.314323 32.073791 114 114 114 0
-4.722938 0.343486 35.049636 114 114 114 0
-4.222794 0.312800 31.918323 120 120 120 0
-4.604539 0.347512 35.460447 113 113 113 0
-4.520923 0.347763 35.486052 120 120 120 0
-4.436522 0.347963 35.506381 128 128 128 0
-4.378105 0.350248 35.739633 129 129 129 0
-4.320810 0.352719 35.991755 142 142 142 0
-4.257522 0.354794 36.203419 159 159 159 0
-4.172759 0.355128 36.237593 165 165 165 0
-4.081594 0.354921 36.216455 161 161 161 0
-3.989849 0.354653 36.189105 159 159 159 0
-3.894747 0.354068 36.129378 159 159 159 0
-3.798463 0.353345 36.055653 166 166 166 0
-3.713760 0.353691 36.090965 165 165 165 0
-3.619259 0.353098 36.030453 161 161 161 0
-3.529520 0.352952 36.015514 162 162 162 0
-3.439464 0.352766 35.996486 164 164 164 0
-3.348929 0.352519 35.971314 164 164 164 0
-3.257877 0.352203 35.939071 166 166 166 0
-3.165335 0.351704 35.888149 160 160 160 0
-3.077540 0.351719 35.889675 158 158 158 0
-2.989810 0.351742 35.892072 160 160 160 0
-2.908936 0.352598 35.979425 166 166 166 0
-2.812939 0.351617 35.879325 161 161 161 0
-2.722177 0.351249 35.841696 158 158 158 0
-2.635366 0.351382 35.855313 154 154 154 0
-2.536830 0.349908 35.704853 150 150 150 0
-2.443383 0.349055 35.617825 156 156 156 0
-2.355959 0.349031 35.615397 149 149 149 0
-2.264710 0.348417 35.552740 153 153 153 0
-2.172222 0.347555 35.464846 149 149 149 0
-2.085710 0.347618 35.471260 148 148 148 0
-1.997203 0.347340 35.442813 140 140 140 0
-1.907131 0.346751 35.382759 133 133 133 0
-1.822841 0.347208 35.429371 124 124 124 0
-1.732088 0.346418 35.348737 118 118 118 0
-1.630809 0.343328 35.033495 108 108 108 0
-1.569693 0.348821 35.593937 119 119 119 0
-1.496541 0.352127 35.931348 139 139 139 0
-1.413218 0.353304 36.051480 150 150 150 0
-1.327546 0.354012 36.123707 156 156 156 0
-1.240619 0.354463 36.169659 160 160 160 0
-1.151169 0.354206 36.143452 160 160 160 0
-1.061816 0.353939 36.116176 155 155 155 0
-0.969094 0.352398 35.958945 154 154 154 0
-0.878598 0.351439 35.861152 154 154 154 0
-0.788486 0.350438 35.759008 152 152 152 0
-0.701388 0.350694 35.785114 153 153 153 0
-0.612516 0.350009 35.715218 154 154 154 0
-0.524337 0.349558 35.669165 156 156 156 0
-0.436987 0.349590 35.672401 152 152 152 0
-0.349864 0.349864 35.700438 152 152 152 0
-0.261795 0.349061 35.618421 151 151 151 0
-0.174406 0.348812 35.593081 150 150 150 0
-0.087363 0.349450 35.658199 148 148 148 0
0.000000 0.348912 35.603270 151 151 151 0
0.086993 0.347974 35.507504 149 149 149 0
0.174026 0.348051 35.515455 150 150 150 0
0.261335 0.348447 35.555776 152 152 152 0
0.347664 0.347664 35.475894 153 153 153 0
0.434027 0.347222 35.430812 152 152 152 0
0.521311 0.347541 35.463350 150 150 150 0
0.608365 0.347637 35.473178 151 151 151 0
0.693301 0.346651 35.372502 151 151 151 0
0.780504 0.346891 35.396992 149 149 149 0
0.868856 0.347543 35.463522 131 131 131 0
0.956953 0.347983 35.508449 117 117 117 0
0.915317 0.305106 31.133222 102 102 102 0
0.996703 0.306678 31.293666 99 99 99 0
1.076577 0.307593 31.387083 102 102 102 0
1.163373 0.310233 31.656408 94 94 94 0
1.242226 0.310556 31.689437 90 90 90 0
2.278487 0.379748 38.749777 92 92 92 0
2.388578 0.382172 38.997185 130 130 130 0
2.489469 0.382995 39.081146 135 135 135 0
2.587026 0.383263 39.108488 141 141 141 0
2.689412 0.384202 39.204257 141 141 141 0
2.741884 0.378191 38.590903 119 119 119 0
2.771611 0.369548 37.708997 110 110 110 0
2.850457 0.367801 37.530699 110 110 110 0
2.932884 0.366611 37.409236 111 111 111 0
3.007468 0.364542 37.198118 108 108 108 0
3.087043 0.363181 37.059335 113 113 113 0
3.175034 0.362861 37.026636 112 112 112 0
3.255829 0.361759 36.914165 115 115 115 0
3.331793 0.360194 36.754473 118 118 118 0
3.410298 0.358979 36.630478 116 116 116 0
3.494653 0.358426 36.574076 120 120 120 0
3.573967 0.357397 36.469048 121 121 121 0
3.647313 0.355835 36.309737 120 120 120 0
3.730114 0.355249 36.249893 128 128 128 0
3.816999 0.355070 36.231598 134 134 134 0
3.898415 0.354401 36.163404 138 138 138 0
3.981906 0.353947 36.117058 144 144 144 0
4.068746 0.353804 36.102448 145 145 145 0
4.154436 0.353569 36.078473 146 146 146 0
4.240702 0.353392 36.060388 145 145 145 0
4.329193 0.353404 36.061585 147 147 147 0
4.413907 0.353113 36.031898 148 148 148 0
4.502964 0.353174 36.038129 146 146 146 0
4.587716 0.352901 36.010331 146 146 146 0
4.673010 0.352680 35.987759 142 142 142 0
4.757844 0.352433 35.962543 140 140 140 0
4.848674 0.352631 35.982742 137 137 137 0
4.937593 0.352685 35.988287 133 133 133 0
5.028393 0.352870 36.007108 127 127 127 0
5.121771 0.353226 36.043429 120 120 120 0
5.220147 0.353908 36.113089 113 113 113 0
5.308751 0.353917 36.113955 103 103 103 0
5.419038 0.355347 36.259876 96 96 96 0
5.531677 0.356882 36.416570 94 94 94 0
5.700238 0.361920 36.930597 93 93 93 0
5.739853 0.358741 36.606204 94 94 94 0
5.887416 0.362303 36.969644 96 96 96 0
6.121021 0.370971 37.854179 101 101 101 0
6.217109 0.371171 37.874560 102 102 102 0
6.456894 0.379817 38.756868 104 104 104 0
6.554224 0.379955 38.770918 104 104 104 0
6.500508 0.371458 37.903834 103 103 103 0
6.901274 0.388804 39.673893 103 103 103 0
6.999654 0.388870 39.680579 99 99 99 0
7.258776 0.397741 40.585829 96 96 96 0
7.361261 0.397906 40.602655 94 94 94 0
7.790344 0.415485 42.396429 92 92 92 0
8.064294 0.424437 43.309851 90 90 90 0
8.176110 0.424733 43.340101 85 85 85 0
8.457036 0.433694 44.254506 82 82 82 0
5.970091 0.302283 30.845215 74 74 74 0
-6.810962 0.425685 34.749807 127 127 127 0
-6.749083 0.427157 34.869970 128 128 128 0
-6.671460 0.427658 34.910834 129 129 129 0
-6.594263 0.428199 34.955011 143 143 143 0
-6.526336 0.429364 35.050141 147 147 147 0
-6.437765 0.429184 35.035458 138 138 138 0
-6.324776 0.427350 34.885691 137 137 137 0
-6.196764 0.424436 34.647830 132 132 132 0
-6.102961 0.423817 34.597287 133 133 133 0
-6.014077 0.423527 34.573597 132 132 132 0
-5.921957 0.422997 34.530359 136 136 136 0
-5.843587 0.423448 34.567211 134 134 134 0
-5.763366 0.423777 34.594032 134 134 134 0
-5.673125 0.423368 34.560615 130 130 130 0
-5.588031 0.423336 34.558015 130 130 130 0
-5.509257 0.423789 34.595022 128 128 128 0
-5.426535 0.423948 34.608004 125 125 125 0
-5.343024 0.424050 34.616289 127 127 127 0
-5.271417 0.425114 34.703207 130 130 130 0
-5.199017 0.426149 34.787669 122 122 122 0
-5.131155 0.427596 34.905813 117 117 117 0
-4.613685 0.390990 31.917570 118 118 118 0
-4.964512 0.427975 34.936752 119 119 119 0
-4.887389 0.428718 34.997417 114 114 114 0
-4.416781 0.394355 32.192284 113 113 113 0
-4.334326 0.394030 32.165688 113 113 113 0
-4.270622 0.395428 32.279832 119 119 119 0
-4.611029 0.435003 35.510425 122 122 122 0
-4.540236 0.436561 35.637649 122 122 122 0
-4.471619 0.438394 35.787270 133 133 133 0
-4.399146 0.439915 35.911394 136 136 136 0
-4.339134 0.442769 36.144394 152 152 152 0
-4.258030 0.443545 36.207739 168 168 168 0
-4.172451 0.443878 36.234924 165 165 165 0
-4.073946 0.442820 36.148589 162 162 162 0
-3.983235 0.442582 36.129113 162 162 162 0
-3.889131 0.441947 36.077282 160 160 160 0
-3.796561 0.441461 36.037600 162 162 162 0
-3.706130 0.441206 36.016816 160 160 160 0
-3.617654 0.441177 36.014477 160 160 160 0
-3.527296 0.440912 35.992821 165 165 165 0
-3.438151 0.440789 35.982744 162 162 162 0
-3.347102 0.440408 35.951689 161 161 161 0
-3.257926 0.440260 35.939609 163 163 163 0
-3.169773 0.440246 35.938469 163 163 163 0
-3.076887 0.439555 35.882067 160 160 160 0
-2.988185 0.439439 35.872570 160 160 160 0
-2.901330 0.439595 35.885345 160 160 160 0
-2.809133 0.438927 35.830782 163 163 163 0
-2.718796 0.438516 35.797184 168 168 168 0
-2.633032 0.438839 35.823563 164 164 164 0
-2.545118 0.438814 35.821511 154 154 154 0
-2.448632 0.437256 35.694337 155 155 155 0
-2.359661 0.436974 35.671369 154 154 154 0
-2.269038 0.436353 35.620693 153 153 153 0
-2.174759 0.434952 35.506271 149 149 149 0
-2.088824 0.435172 35.524226 146 146 146 0
-2.002364 0.435297 35.534414 143 143 143 0
-1.913859 0.434968 35.507581 134 134 134 0
-1.826705 0.434930 35.504468 119 119 119 0
-1.551232 0.387808 31.657798 113 113 113 0
-1.643497 0.432499 35.306056 114 114 114 0
-1.578247 0.438402 35.787910 134 134 134 0
-1.496532 0.440156 35.931132 145 145 145 0
-1.416724 0.442726 36.140926 159 159 159 0
-1.328696 0.442899 36.154984 161 161 161 0
-1.240644 0.443087 36.170377 159 159 159 0
-1.150355 0.442444 36.117910 154 154 154 0
-1.060201 0.441750 36.061251 154 154 154 0
-0.968819 0.440372 35.948755 153 153 153 0
-0.878688 0.439344 35.864802 150 150 150 0
-0.789379 0.438544 35.799519 154 154 154 0
-0.701693 0.438558 35.800647 152 152 152 0
-0.611992 0.437137 35.684659 153 153 153 0
-0.524236 0.436863 35.662319 154 154 154 0
-0.436941 0.436941 35.668672 152 152 152 0
-0.349529 0.436911 35.666180 154 154 154 0
-0.261596 0.435993 35.591258 152 152 152 0
-0.174349 0.435872 35.581401 151 151 151 0
-0.087255 0.436275 35.614250 153 153 153 0
0.000000 0.435523 35.552887 148 148 148 0
0.086933 0.434663 35.482691 150 150 150 0
0.174055 0.435136 35.521336 150 150 150 0
0.261157 0.435261 35.531506 149 149 149 0
0.347367 0.434209 35.445592 150 150 150 0
0.433702 0.433702 35.404241 151 151 151 0
0.521151 0.434293 35.452483 148 148 148 0
0.608190 0.434421 35.462972 150 149 150 0
0.693380 0.433363 35.376533 151 151 151 0
