ply
format ascii 1.0
element vertex 1138
property float x
property float y
property float z
property uchar red
property uchar green
property uchar blue
property uchar alpha
end_header
0.920095 2.843930 34.140811 98 98 98 0
1.006879 2.852824 34.247581 100 100 100 0
1.093576 2.860121 34.335182 90 90 90 0
1.152748 2.799530 33.607800 95 95 95 0
1.226943 2.781071 33.386211 100 100 100 0
1.337691 2.842594 34.124778 101 101 101 0
1.442217 2.884433 34.627050 111 111 111 0
1.767717 3.339021 40.084281 98 98 98 0
1.895533 3.392006 40.720359 93 93 93 0
2.031951 3.454317 41.468393 114 114 114 0
2.138344 3.462081 41.561594 139 139 139 0
2.230282 3.446799 41.378136 136 136 136 0
2.329575 3.443719 41.341163 139 139 139 0
2.420159 3.428559 41.159166 141 141 141 0
2.512038 3.416372 41.012865 137 137 137 0
2.601848 3.402416 40.845331 136 136 136 0
2.693083 3.391290 40.711768 136 136 136 0
2.791474 3.389647 40.692047 139 139 139 0
2.876167 3.372058 40.480890 133 133 133 0
2.966003 3.361470 40.353782 139 139 139 0
3.053492 3.348991 40.203977 141 141 141 0
3.144759 3.341307 40.111723 141 141 141 0
3.234377 3.332388 40.004662 136 136 136 0
3.325639 3.325639 39.923642 140 140 140 0
3.414609 3.317048 39.820508 142 142 142 0
3.503419 3.308785 39.721304 142 142 142 0
3.593057 3.301728 39.636587 141 141 141 0
3.682795 3.295132 39.557407 141 141 141 0
3.776144 3.292023 39.520081 146 146 146 0
3.879339 3.297438 39.585093 145 145 145 0
3.955642 3.280289 39.379215 146 146 146 0
4.053544 3.281440 39.393041 150 150 150 0
4.149959 3.281363 39.392111 147 147 147 0
4.241081 3.277199 39.342122 148 148 148 0
4.329555 3.271220 39.270344 148 148 148 0
4.423183 3.269309 39.247413 148 148 148 0
4.520154 3.269898 39.254484 147 147 147 0
4.607495 3.263642 39.179381 146 146 146 0
4.698557 3.260223 39.138336 146 146 146 0
4.796041 3.261308 39.151351 145 145 145 0
4.890873 3.260582 39.142641 146 146 146 0
4.980643 3.256574 39.094530 146 146 146 0
5.076110 3.256373 39.092108 147 147 147 0
5.169244 3.254709 39.072140 142 142 142 0
5.264715 3.254551 39.070243 143 143 143 0
5.359770 3.254146 39.065377 139 139 139 0
5.456818 3.254944 39.074961 139 139 139 0
5.549226 3.252994 39.051552 138 138 138 0
5.652132 3.257161 39.101570 134 134 134 0
5.748250 3.257342 39.103743 132 132 132 0
5.846335 3.258613 39.119002 127 127 127 0
5.943215 3.259183 39.125842 124 124 124 0
6.041204 3.260332 39.139642 123 123 123 0
6.156507 3.270644 39.263439 120 120 120 0
6.253075 3.270839 39.265776 120 120 120 0
6.355859 3.274230 39.306487 120 120 120 0
6.461358 3.278898 39.362525 121 121 121 0
6.580170 3.290085 39.496819 119 119 119 0
6.670833 3.287077 39.460708 117 117 117 0
6.398389 3.107789 37.308394 116 116 116 0
6.797781 3.255275 39.078936 106 106 106 0
7.209083 3.404289 40.867816 103 103 103 0
7.308578 3.403995 40.864290 101 101 101 0
6.748585 3.100701 37.223305 90 90 90 0
7.837442 3.552974 42.652745 100 100 100 0
7.533988 3.370468 40.461803 119 119 119 0
7.566561 3.341079 40.108988 138 138 138 0
7.835826 3.415616 41.003799 124 124 124 0
8.632338 3.715184 44.600044 122 122 122 0
-7.452305 3.260383 38.021962 151 151 151 0
-7.270897 3.221284 37.565989 150 150 150 0
-7.133914 3.201115 37.330791 147 147 147 0
-7.004306 3.183775 37.128576 144 144 144 0
-6.883564 3.170062 36.968656 146 146 146 0
-6.775784 3.162033 36.875015 149 149 149 0
-6.663646 3.151725 36.754806 146 146 146 0
-6.560468 3.145430 36.681398 152 152 152 0
-6.453615 3.137174 36.585118 151 151 151 0
-6.354075 3.132290 36.528167 148 148 148 0
-6.260392 3.130196 36.503741 148 148 148 0
-6.161082 3.125186 36.445322 148 148 148 0
-6.061562 3.119921 36.383923 146 146 146 0
-5.974445 3.120979 36.396256 149 149 149 0
-5.878111 3.117180 36.351953 147 147 147 0
-5.777870 3.111161 36.281760 145 145 145 0
-5.692212 3.112928 36.302370 145 145 145 0
-5.600541 3.111412 36.284684 142 142 142 0
-5.504381 3.107312 36.236875 140 140 140 0
-5.417317 3.108296 36.248355 136 136 136 0
-5.331851 3.110246 36.271096 136 136 136 0
-5.247434 3.112885 36.301861 133 133 133 0
-5.151015 3.108371 36.249229 133 133 133 0
-5.072466 3.114672 36.322708 129 129 129 0
-4.989842 3.118651 36.369109 127 127 127 0
-4.901186 3.118937 36.372441 128 128 128 0
-4.813200 3.119667 36.380955 128 128 128 0
-4.730375 3.123832 36.429533 124 124 124 0
-4.648767 3.128978 36.489538 121 121 121 0
-4.567019 3.134229 36.550776 117 117 117 0
-4.478048 3.134633 36.555492 115 115 115 0
-4.403374 3.145267 36.679501 107 107 107 0
-3.933381 2.868090 33.447117 104 104 104 0
-3.859643 2.874203 33.518397 101 101 101 0
-3.789258 2.883131 33.622518 101 101 101 0
-3.717480 2.891373 33.718638 102 102 102 0
-3.644193 2.898790 33.805128 98 98 98 0
-3.569995 2.905810 33.887000 99 99 99 0
-3.504249 2.920208 34.054899 101 101 101 0
-3.427703 2.926088 34.123476 97 97 97 0
-3.694194 3.232420 37.695857 99 99 99 0
-3.280710 2.944227 34.335013 102 102 102 0
-3.216286 2.962369 34.546573 97 97 97 0
-3.146859 2.976759 34.714386 92 92 92 0
-3.055776 2.970893 34.645988 89 89 89 0
-3.138254 3.138254 36.597716 91 91 91 0
-3.009802 3.098325 36.132071 99 99 99 0
-3.062193 3.247781 37.874995 98 98 98 0
-3.011744 3.294095 38.415100 104 104 104 0
-2.961918 3.344101 38.998259 86 86 86 0
-2.927746 3.415703 39.833275 75 75 75 0
-2.835868 3.422599 39.913693 75 75 75 0
-2.766027 3.457534 40.321100 107 107 107 0
-2.667585 3.457980 40.326297 135 135 135 0
-2.548596 3.430803 40.009361 135 135 135 0
-2.444343 3.422080 39.907637 132 132 132 0
-2.332416 3.401441 39.666946 142 142 142 0
-2.225628 3.386826 39.496510 133 133 133 0
-2.116070 3.366474 39.259175 134 134 134 0
-2.009480 3.349133 39.056945 136 136 136 0
-1.905267 3.334217 38.882999 136 136 136 0
-1.804525 3.324124 38.765297 141 141 141 0
-1.703963 3.313261 38.638610 141 141 141 0
-1.603747 3.301832 38.505331 139 139 139 0
-1.506472 3.295408 38.430411 142 142 142 0
-1.409437 3.288686 38.352021 141 141 141 0
-1.311872 3.279680 38.246993 143 143 143 0
-1.217330 3.277427 38.220729 141 141 141 0
-1.122501 3.273962 38.180321 140 140 140 0
-1.027123 3.268118 38.112165 142 142 142 0
-0.931962 3.261866 38.039250 142 142 142 0
-0.838247 3.259848 38.015723 141 141 141 0
-0.744860 3.258761 38.003039 138 138 138 0
-0.651067 3.255334 37.963084 137 137 137 0
-0.557528 3.252245 37.927055 137 137 137 0
-0.464791 3.253535 37.942096 136 136 136 0
-0.371777 3.253050 37.936447 135 135 135 0
-0.278816 3.252858 37.934207 133 133 133 0
-0.185841 3.252221 37.926777 129 129 129 0
-0.092998 3.254928 37.958348 126 126 126 0
0.000000 3.256106 37.972077 124 124 124 0
0.093071 3.257481 37.988120 123 123 123 0
0.186386 3.261760 38.038016 119 119 119 0
0.280233 3.269382 38.126907 117 117 117 0
0.373565 3.268694 38.118877 113 113 113 0
0.468038 3.276267 38.207194 116 116 116 0
0.496588 2.896761 33.781464 113 113 113 0
0.580025 2.900127 33.820725 110 110 110 0
0.753407 3.296154 38.439115 104 104 104 0
0.748201 2.909672 33.932031 102 102 102 0
0.834042 2.919147 34.042532 102 102 102 0
0.918689 2.923102 34.088651 98 98 98 0
1.008097 2.940283 34.289019 100 100 100 0
1.100339 2.962452 34.547548 93 93 93 0
1.157619 2.894048 33.749825 88 88 88 0
1.232920 2.876814 33.548849 103 103 103 0
1.425580 3.118457 36.366840 105 105 105 0
1.632684 3.361407 39.200087 114 114 114 0
1.770807 3.443236 40.154353 102 102 102 0
1.893681 3.488360 40.680578 94 94 94 0
2.026265 3.545964 41.352347 99 99 99 0
2.136045 3.560075 41.516914 138 138 138 0
2.227201 3.543275 41.320986 138 138 138 0
2.326307 3.540033 41.283178 139 139 139 0
2.417296 3.525223 41.110473 137 137 137 0
2.511546 3.516165 41.004839 139 139 139 0
2.599607 3.499471 40.810152 142 142 142 0
2.692140 3.489811 40.697506 140 140 140 0
2.787609 3.484511 40.635693 135 135 135 0
2.873871 3.468465 40.448576 139 139 139 0
2.960665 3.454109 40.281153 143 143 143 0
3.056773 3.451195 40.247176 137 137 137 0
3.141346 3.435847 40.068191 141 141 141 0
3.233379 3.429342 39.992324 135 135 135 0
3.323300 3.421044 39.895561 142 142 142 0
3.413675 3.413675 39.809619 142 142 142 0
3.499928 3.402708 39.681728 142 142 142 0
3.593762 3.399505 39.644371 144 144 144 0
3.678642 3.388223 39.512803 144 144 144 0
3.777741 3.390281 39.536801 143 143 143 0
3.872799 3.388699 39.518354 145 145 145 0
3.957080 3.377995 39.393530 145 145 145 0
4.051821 3.376518 39.376302 148 148 148 0
4.148160 3.376409 39.375035 147 147 147 0
4.238694 3.371688 39.319980 147 147 147 0
4.324587 3.363568 39.225278 146 146 146 0
4.423991 3.366080 39.254578 149 149 149 0
4.516258 3.363171 39.220652 147 147 147 0
4.599837 3.354048 39.114262 147 147 147 0
4.698777 3.356269 39.140164 147 147 147 0
4.795164 3.356615 39.144197 147 147 147 0
4.882904 3.351013 39.078866 144 144 144 0
4.979443 3.351548 39.085111 145 145 145 0
5.075318 3.351625 39.086008 145 145 145 0
5.167946 3.349595 39.062331 144 144 144 0
5.258087 3.346056 39.021056 142 142 142 0
5.355173 3.346983 39.031870 139 139 139 0
5.457091 3.350845 39.076911 139 139 139 0
5.547819 3.347822 39.041657 137 137 137 0
5.644542 3.348457 39.049065 135 135 135 0
5.745293 3.351421 39.083626 132 132 132 0
5.848835 3.355889 39.135734 129 129 129 0
5.944436 3.355730 39.133875 124 124 124 0
6.040344 3.355747 39.134074 124 124 124 0
6.151533 3.364120 39.231719 120 120 120 0
6.251338 3.366105 39.254872 121 121 121 0
6.360396 3.372937 39.334547 121 121 121 0
6.461587 3.375456 39.363920 121 121 121 0
6.577257 3.385353 39.479335 122 122 122 0
6.750323 3.424077 39.930927 120 120 120 0
6.780911 3.390455 39.538839 116 116 116 0
6.797378 3.350820 39.076618 110 110 110 0
7.025676 3.415259 39.828093 106 106 106 0
7.120958 3.414158 39.815250 103 103 103 0
7.111761 3.363671 39.226479 91 91 91 0
7.822556 3.650526 42.571733 94 94 94 0
7.508945 3.458067 40.327309 112 112 112 0
7.564568 3.438440 40.098428 122 122 122 0
7.835856 3.516089 41.003958 126 126 126 0
8.633970 3.825177 44.608474 118 118 118 0
-7.410122 3.334555 37.806744 149 149 149 0
-7.249204 3.303435 37.453906 146 146 146 0
-7.112814 3.282837 37.220379 145 145 145 0
-6.992372 3.269161 37.065314 144 144 144 0
-6.871743 3.255036 36.905174 148 148 148 0
-6.761916 3.245719 36.799541 149 149 149 0
-6.654818 3.237479 36.706109 150 150 150 0
-6.550168 3.230220 36.623810 150 150 150 0
-6.440351 3.220175 36.509924 148 148 148 0
-6.343523 3.216434 36.467511 148 148 148 0
-6.250418 3.214501 36.445586 148 148 148 0
-6.149486 3.208427 36.376729 147 147 147 0
-6.053798 3.204952 36.337324 147 147 147 0
-5.964328 3.204714 36.334622 147 147 147 0
-5.862733 3.197854 36.256852 144 144 144 0
-5.768867 3.195065 36.225222 147 147 147 0
-5.684188 3.197356 36.251200 145 145 145 0
-5.591851 3.195343 36.228384 145 145 145 0
-5.496064 3.191263 36.182118 140 140 140 0
-5.412834 3.194459 36.218357 140 140 140 0
-5.324142 3.194485 36.218656 136 136 136 0
-5.236727 3.195291 36.227787 133 133 133 0
-5.144278 3.193000 36.201814 133 133 133 0
-5.064635 3.198717 36.266629 128 128 128 0
-4.977048 3.199531 36.275859 128 128 128 0
-4.892922 3.202640 36.311111 127 127 127 0
-4.803793 3.202528 36.309847 126 126 126 0
-4.723267 3.208257 36.374791 125 125 125 0
-4.641758 3.213525 36.434523 117 117 117 0
-4.555664 3.215763 36.459894 115 115 115 0
-4.473064 3.220606 36.514805 110 110 110 0
-4.395770 3.229546 36.616163 106 106 106 0
-4.319532 3.239649 36.730713 105 105 105 0
-3.857676 2.954816 33.501310 101 101 101 0
-3.781120 2.959138 33.550313 98 98 98 0
-3.709519 2.967615 33.646429 99 99 99 0
-3.641949 2.979776 33.784310 99 99 99 0
-3.569005 2.988004 33.877597 96 96 96 0
-3.499244 2.999352 34.006256 97 97 97 0
-3.418999 3.002048 34.036826 100 100 100 0
-3.352434 3.017190 34.208505 94 94 94 0
-3.277200 3.025108 34.298278 101 101 101 0
-3.208587 3.039714 34.463874 94 94 94 0
-3.137979 3.053169 34.616427 95 95 95 0
-3.073635 3.073635 34.848468 91 91 91 0
-3.027969 3.114483 35.311597 95 95 95 0
-2.848954 3.016540 34.201128 100 100 100 0
-3.061937 3.340295 37.871827 105 105 105 0
-2.994047 3.368303 38.189374 106 106 106 0
-2.975017 3.454858 39.170727 85 85 85 0
-2.916051 3.499261 39.674158 84 84 84 0
-2.829036 3.511907 39.817534 78 78 78 0
-2.751045 3.537058 40.102695 99 99 99 0
-2.656026 3.541368 40.151567 139 139 139 0
-2.547256 3.526969 39.988313 138 138 138 0
-2.439179 3.512418 39.823330 141 141 141 0
-2.325552 3.488328 39.550199 139 139 139 0
-2.219897 3.474621 39.394792 140 140 140 0
-2.109410 3.451763 39.135630 137 137 137 0
-2.003505 3.434581 38.940823 136 136 136 0
-1.902336 3.424204 38.823179 140 140 140 0
-1.801880 3.414089 38.708492 143 143 143 0
-1.699665 3.399330 38.541152 141 141 141 0
-1.600914 3.390170 38.437299 139 139 139 0
-1.504784 3.385765 38.387359 141 141 141 0
-1.405413 3.372992 38.242541 144 144 144 0
-1.310159 3.368980 38.197052 142 142 142 0
-1.216047 3.367514 38.180435 142 142 142 0
-1.119227 3.357682 38.068958 145 145 145 0
-1.025489 3.356144 38.051523 142 142 142 0
-0.930568 3.350046 37.982379 142 142 142 0
-0.837142 3.348569 37.965631 140 140 140 0
-0.743540 3.345929 37.935706 141 141 141 0
-0.650206 3.343915 37.912863 139 139 139 0
-0.557023 3.342138 37.892719 137 137 137 0
-0.464097 3.341497 37.885448 138 138 138 0
-0.371355 3.342199 37.893410 135 135 135 0
-0.278408 3.340902 37.878705 131 131 131 0
-0.185479 3.338617 37.852806 130 130 130 0
-0.092836 3.342089 37.892169 130 130 130 0
0.000000 3.343808 37.911661 125 125 125 0
0.092923 3.345229 37.927763 121 121 121 0
0.186169 3.351044 37.993695 119 119 119 0
0.279675 3.356099 38.051006 120 120 120 0
0.373080 3.357716 38.069337 115 115 115 0
0.467640 3.367005 38.174660 116 116 116 0
0.561687 3.370120 38.209975 112 112 112 0
0.656166 3.374570 38.260425 109 109 109 0
0.751627 3.382324 38.348339 109 109 109 0
0.745510 2.982041 33.809994 107 107 107 0
0.830152 2.988546 33.883743 104 104 104 0
0.919396 3.008931 34.114867 99 99 99 0
1.007884 3.023653 34.281783 93 93 93 0
1.094123 3.029880 34.352385 94 94 94 0
1.147827 2.951555 33.464340 94 94 94 0
1.303934 3.129443 35.481208 98 98 98 0
1.341238 3.017785 34.215248 99 99 99 0
1.435051 3.038931 34.454998 112 112 112 0
1.763420 3.526841 39.986857 104 104 104 0
1.889861 3.580790 40.598522 87 87 87 0
2.010149 3.618268 41.023447 94 94 94 0
2.133978 3.658249 41.476743 141 141 141 0
2.229444 3.648182 41.362604 139 139 139 0
2.322779 3.635655 41.220573 136 136 136 0
2.415024 3.622536 41.071836 135 135 135 0
2.512177 3.617535 41.015134 140 140 140 0
2.600665 3.600920 40.826762 140 140 140 0
2.690704 3.587605 40.675790 138 138 138 0
2.785432 3.581270 40.603972 137 137 137 0
2.873051 3.566546 40.437031 136 136 136 0
2.958802 3.550562 40.255805 139 139 139 0
3.051566 3.543754 40.178613 139 139 139 0
3.140241 3.532771 40.054094 137 137 137 0
3.233522 3.527479 39.994093 137 137 137 0
3.320494 3.515818 39.861879 139 139 139 0
3.410323 3.507761 39.770532 140 140 140 0
3.501017 3.501017 39.694071 141 141 141 0
3.588310 3.491328 39.584221 144 144 144 0
3.679213 3.485570 39.518934 145 145 145 0
3.773481 3.483213 39.492216 144 144 144 0
3.867947 3.481152 39.468847 145 145 145 0
3.952909 3.470847 39.352004 148 148 148 0
4.048921 3.470504 39.348119 147 147 147 0
4.149642 3.474119 39.389101 148 148 148 0
4.236032 3.465844 39.295285 145 145 145 0
4.325584 3.460467 39.234320 146 146 146 0
4.419223 3.458522 39.212271 146 146 146 0
4.516547 3.459483 39.223164 147 147 147 0
4.598433 3.448824 39.102318 147 147 147 0
4.695544 3.449787 39.113235 148 148 148 0
4.792092 3.450307 39.119122 148 148 148 0
4.884577 3.447936 39.092249 149 149 149 0
4.974044 3.443569 39.042734 146 146 146 0
5.071563 3.444835 39.057085 144 144 144 0
5.165277 3.443518 39.042157 143 143 143 0
5.259818 3.442790 39.033899 141 141 141 0
5.349905 3.439224 38.993474 142 142 142 0
5.451570 3.443097 39.037382 138 138 138 0
5.546476 3.442640 39.032200 138 138 138 0
5.640670 3.441765 39.022275 135 135 135 0
5.738938 3.443363 39.040398 130 130 130 0
5.844116 3.448987 39.104157 128 128 128 0
5.940130 3.449108 39.105533 126 126 126 0
6.040254 3.451574 39.133490 121 121 121 0
6.149735 3.459226 39.220246 119 119 119 0
6.247608 3.460214 39.231447 119 119 119 0
6.349522 3.463376 39.267299 123 123 123 0
6.457416 3.469656 39.338506 120 120 120 0
6.570147 3.478313 39.436659 123 123 123 0
6.663752 3.476740 39.418825 119 119 119 0
6.852087 3.523930 39.953858 118 118 118 0
6.950772 3.524335 39.958446 112 112 112 0
7.014026 3.507013 39.762052 105 105 105 0
7.116353 3.509434 39.789503 102 102 102 0
7.180390 3.493163 39.605021 94 94 94 0
7.812507 3.750003 42.517044 88 88 88 0
7.449424 3.528674 40.007647 103 103 103 0
7.560085 3.534585 40.074663 116 116 116 0
7.835324 3.616303 41.001171 121 121 121 0
8.809288 4.014359 45.514274 120 120 120 0
-7.371118 3.409142 37.607745 148 148 148 0
-7.232048 3.387162 37.365268 147 147 147 0
-7.089693 3.363059 37.099386 145 145 145 0
-6.971129 3.349763 36.952714 150 150 150 0
-6.863126 3.341259 36.858895 149 149 149 0
-6.750105 3.330052 36.735264 149 149 149 0
-6.642787 3.321394 36.639752 152 152 152 0
-6.540732 3.315166 36.571050 148 148 148 0
-6.431644 3.305150 36.460565 149 149 149 0
-6.330487 3.298986 36.392568 149 149 149 0
-6.238365 3.297421 36.375304 147 147 147 0
-6.136590 3.290635 36.300446 149 149 149 0
-6.046199 3.289844 36.291711 149 149 149 0
-5.956449 3.289382 36.286620 149 149 149 0
-5.854124 3.281858 36.203613 146 146 146 0
-5.763074 3.280519 36.188847 146 146 146 0
-5.673866 3.280204 36.185368 147 147 147 0
-5.582488 3.278604 36.167724 144 144 144 0
-5.486927 3.274457 36.121969 143 143 143 0
-5.401665 3.276420 36.143624 138 138 138 0
-5.317231 3.278959 36.171643 139 139 139 0
-5.228741 3.279041 36.172543 135 135 135 0
-5.138035 3.277712 36.157885 133 133 133 0
-5.055893 3.281895 36.204030 131 131 131 0
-4.971143 3.284505 36.232818 128 128 128 0
-4.884925 3.286222 36.251760 128 128 128 0
-4.793868 3.284687 36.234831 126 126 126 0
-4.718809 3.294263 36.340465 125 125 125 0
-4.635477 3.298320 36.385221 119 119 119 0
-4.551940 3.302388 36.430090 117 117 117 0
-4.466745 3.305391 36.463221 112 112 112 0
-4.392261 3.316605 36.586927 110 110 110 0
-4.306541 3.319625 36.620243 102 102 102 0
-4.234786 3.333768 36.776261 104 104 104 0
-3.776607 3.037706 33.510269 99 99 99 0
-3.708268 3.049021 33.635087 97 97 97 0
-3.632576 3.054666 33.697367 99 99 99 0
-3.561164 3.064257 33.803171 100 100 100 0
-3.491001 3.075406 33.926152 98 98 98 0
-3.412505 3.079577 33.972173 97 97 97 0
-3.342845 3.092132 34.110668 96 96 96 0
-3.271243 3.103487 34.235929 99 99 99 0
-3.200112 3.115899 34.372850 97 97 97 0
-3.132394 3.132394 34.554817 92 92 92 0
-3.071002 3.156308 34.818619 94 94 94 0
-2.996423 3.167647 34.943703 94 94 94 0
-3.018754 3.285115 36.239547 92 92 92 0
-3.024361 3.390951 37.407068 103 103 103 0
-3.000597 3.469440 38.272918 110 110 110 0
-2.957958 3.530466 38.946122 94 94 94 0
-2.892492 3.567407 39.353637 79 79 79 0
-2.809860 3.584994 39.547645 79 79 79 0
-2.735574 3.614865 39.877165 96 96 96 0
-2.651422 3.633430 40.081968 137 137 137 0
-2.542889 3.618727 39.919767 133 133 133 0
-2.432547 3.600169 39.715050 134 134 134 0
-2.322838 3.581041 39.504040 139 139 139 0
-2.211174 3.557105 39.239993 136 136 136 0
-2.103685 3.538015 39.029398 136 136 136 0
-2.002371 3.527987 38.918772 138 138 138 0
-1.899954 3.514916 38.774581 139 139 139 0
-1.799462 3.504215 38.656536 136 136 136 0
-1.698017 3.490368 38.503785 140 140 140 0
-1.598719 3.479566 38.384619 138 138 138 0
-1.503776 3.477482 38.361633 145 145 145 0
-1.404846 3.465287 38.227104 141 141 141 0
-1.307422 3.455330 38.117262 143 143 143 0
-1.213097 3.452662 38.087831 144 144 144 0
-1.118852 3.449792 38.056177 144 144 144 0
-1.024013 3.444407 37.996765 141 141 141 0
-0.929892 3.440599 37.954763 143 143 143 0
-0.835929 3.436599 37.910631 144 144 144 0
-0.742719 3.435073 37.893803 141 141 141 0
-0.649491 3.433022 37.871171 141 141 141 0
-0.555724 3.426964 37.804346 138 138 138 0
-0.463532 3.430134 37.839314 139 139 139 0
-0.370763 3.429556 37.832936 137 137 137 0
-0.277832 3.426593 37.800255 137 137 137 0
-0.185287 3.427804 37.813617 133 133 133 0
-0.092777 3.432734 37.868000 129 129 129 0
0.000000 3.428198 37.817957 128 128 128 0
0.092730 3.431002 37.848890 121 121 121 0
0.185734 3.436080 37.904910 124 124 124 0
0.278839 3.439014 37.937275 119 119 119 0
0.372314 3.443905 37.991229 116 116 116 0
0.466036 3.448670 38.043791 112 112 112 0
0.494704 3.050676 33.653353 114 114 114 0
0.653872 3.456183 38.126673 112 112 112 0
0.661907 3.061321 33.770782 108 108 108 0
0.744284 3.059836 33.754395 112 112 112 0
0.829334 3.068536 33.850370 103 103 103 0
0.914570 3.076280 33.935801 97 97 97 0
0.998470 3.078615 33.961553 94 94 94 0
1.088728 3.098686 34.182969 89 89 89 0
1.109316 2.931764 32.341579 92 92 92 0
1.238101 3.053983 33.689827 96 96 96 0
1.356740 3.137460 34.610702 98 98 98 0
1.609841 3.503773 38.651655 108 108 108 0
1.770215 3.638774 40.140921 92 92 92 0
1.645997 3.205363 35.359768 79 79 79 0
2.001173 3.702171 40.840271 86 86 86 0
2.130302 3.753390 41.405294 135 135 135 0
2.223156 3.738943 41.245928 141 141 141 0
2.324901 3.740058 41.258220 140 140 140 0
2.414498 3.722352 41.062896 140 140 140 0
2.508901 3.713174 40.961657 138 138 138 0
2.600845 3.701203 40.829598 135 135 135 0
2.688398 3.684101 40.640938 137 137 137 0
2.781840 3.676003 40.551604 137 137 137 0
2.867366 3.658364 40.357017 140 140 140 0
2.958388 3.648678 40.250176 137 137 137 0
3.050447 3.640856 40.163886 139 139 139 0
3.141335 3.632168 40.068042 136 136 136 0
3.227514 3.618728 39.919779 134 134 134 0
3.314778 3.607259 39.793255 137 137 137 0
3.401973 3.596371 39.673152 140 140 140 0
3.493801 3.590851 39.612255 140 140 140 0
3.579212 3.579212 39.483861 145 145 145 0
3.673228 3.576564 39.454650 147 147 147 0
3.771266 3.577868 39.469036 145 145 145 0
3.868345 3.578219 39.472908 147 147 147 0
3.949560 3.564237 39.318661 148 148 148 0
4.047675 3.565809 39.336002 149 149 149 0
4.145937 3.567434 39.353938 145 145 145 0
4.234218 3.560592 39.278458 148 148 148 0
4.324533 3.555727 39.224789 146 146 146 0
4.419223 3.554592 39.212271 147 147 147 0
4.509252 3.549837 39.159812 149 149 149 0
4.599676 3.545584 39.112894 150 150 150 0
4.693274 3.543901 39.094330 151 151 151 0
4.783731 3.539961 39.050865 150 150 150 0
4.877560 3.538622 39.036096 149 149 149 0
4.971214 3.537210 39.020515 146 146 146 0
5.066913 3.537279 39.021278 144 144 144 0
5.161295 3.536443 39.012059 141 141 141 0
5.254917 3.535126 38.997532 141 141 141 0
5.352082 3.536197 39.009345 142 142 142 0
5.448991 3.537064 39.018912 140 140 140 0
5.543087 3.536107 39.008350 138 138 138 0
5.640573 3.537308 39.021603 136 136 136 0
5.736852 3.537725 39.026203 131 131 131 0
5.839045 3.541716 39.070224 126 126 126 0
5.933892 3.541194 39.064463 125 125 125 0
6.035697 3.544774 39.103965 120 120 120 0
6.142156 3.550934 39.171915 120 120 120 0
6.246831 3.555889 39.226569 120 120 120 0
6.351867 3.560895 39.281802 119 119 119 0
6.453615 3.563937 39.315352 120 120 120 0
6.569636 3.574655 39.433587 119 119 119 0
6.663569 3.573218 39.417739 119 119 119 0
6.850018 3.620724 39.941797 119 119 119 0
6.890502 3.590825 39.611969 112 112 112 0
7.361801 3.783148 41.733568 107 107 107 0
7.467893 3.785096 41.755060 105 105 105 0
7.731818 3.865909 42.646542 98 98 98 0
7.808773 3.852328 42.496726 90 90 90 0
8.274339 4.028297 44.437913 92 92 92 0
7.556611 3.631099 40.056249 108 108 108 0
8.521005 4.042015 44.589245 107 107 107 0
8.289644 3.882491 42.829470 104 104 104 0
-7.360388 3.496184 37.553002 146 146 146 0
-7.216061 3.471017 37.282670 148 148 148 0
-7.080952 3.449694 37.053645 149 149 149 0
-6.963161 3.436365 36.910475 149 149 149 0
-6.857628 3.428814 36.829368 150 150 150 0
-6.734918 3.412358 36.652615 151 151 151 0
-6.632860 3.406063 36.584996 150 150 150 0
-6.529713 3.399028 36.509436 150 150 150 0
-6.420158 3.388417 36.395453 149 149 149 0
-6.326874 3.386214 36.371796 149 149 149 0
-6.234647 3.384523 36.353629 150 150 150 0
-6.127294 3.374452 36.245455 150 150 150 0
-6.036404 3.373284 36.232916 150 150 150 0
-5.950990 3.375188 36.253367 149 149 149 0
-5.846284 3.366043 36.155129 147 147 147 0
-5.756286 3.365214 36.146225 148 148 148 0
-5.667263 3.364937 36.143259 146 146 146 0
-5.575183 3.362809 36.120394 149 149 149 0
-5.480966 3.359302 36.082728 145 145 145 0
-5.394060 3.360234 36.092743 140 140 140 0
-5.306344 3.360684 36.097577 138 138 138 0
-5.221612 3.363072 36.123224 137 137 137 0
-5.131100 3.361755 36.109081 133 133 133 0
-5.047860 3.365240 36.146508 133 133 133 0
-4.964221 3.368578 36.182368 127 127 127 0
-4.877162 3.369675 36.194149 131 131 131 0
-4.789838 3.370627 36.204366 126 126 126 0
-4.711174 3.377823 36.281663 123 123 123 0
-4.627736 3.381807 36.324457 121 121 121 0
-4.544686 3.386236 36.372034 120 120 120 0
-4.458903 3.388767 36.399212 114 114 114 0
-4.382382 3.398582 36.504639 108 108 108 0
-4.305603 3.408602 36.612267 102 102 102 0
-4.221505 3.413131 36.660917 101 101 101 0
-3.774470 3.118041 33.491309 99 99 99 0
-3.695918 3.120997 33.523061 103 103 103 0
-3.630844 3.135729 33.681300 98 98 98 0
-3.555741 3.142283 33.751696 97 97 97 0
-3.485815 3.153832 33.875751 101 101 101 0
-3.408841 3.159414 33.935698 98 98 98 0
-3.337313 3.170448 34.054219 99 99 99 0
-3.264197 3.180500 34.162191 95 95 95 0
-3.195462 3.195462 34.322905 98 98 98 0
-3.121348 3.205709 34.432962 94 94 94 0
-3.059933 3.229929 34.693118 94 94 94 0
-2.981968 3.237566 34.775143 96 96 96 0
-2.913430 3.256187 34.975155 92 92 92 0
-2.803187 3.227912 34.671453 102 102 102 0
-2.990099 3.550742 38.139012 101 101 101 0
-2.950010 3.616141 38.841471 94 94 94 0
-2.888096 3.658255 39.293819 74 74 74 0
-2.825836 3.702820 39.772504 69 69 69 0
-2.730779 3.706058 39.807279 96 96 96 0
-2.643691 3.720750 39.965091 136 136 136 0
-2.537911 3.709255 39.841620 137 137 137 0
-2.424393 3.685077 39.581922 137 137 137 0
-2.314570 3.664736 39.363441 136 136 136 0
-2.208786 3.649299 39.197631 134 134 134 0
-2.100189 3.627598 38.964537 134 134 134 0
-1.997604 3.614711 38.826116 135 135 135 0
-1.897478 3.605207 38.724033 140 140 140 0
-1.796447 3.592893 38.591764 138 138 138 0
-1.695000 3.578333 38.435368 141 141 141 0
-1.596792 3.569299 38.338336 143 143 143 0
-1.501196 3.565340 38.295811 145 145 145 0
-1.402119 3.552036 38.152908 145 145 145 0
-1.307037 3.547671 38.106022 145 145 145 0
-1.211469 3.541217 38.036699 144 144 144 0
-1.116893 3.536829 37.989570 146 146 146 0
-1.022881 3.533589 37.954766 145 145 145 0
-0.928403 3.527931 37.893994 142 142 142 0
-0.834479 3.523354 37.844830 144 144 144 0
-0.741690 3.523028 37.841337 145 145 145 0
-0.648401 3.519890 37.807630 142 142 142 0
-0.555058 3.515370 37.759080 140 140 140 0
-0.462910 3.518115 37.788563 139 139 139 0
-0.370254 3.517409 37.780977 140 140 140 0
-0.277311 3.512604 37.729366 137 137 137 0
-0.184842 3.512007 37.722952 137 137 137 0
-0.092571 3.517713 37.784238 134 134 134 0
0.000000 3.517245 37.779215 133 133 133 0
0.092615 3.519359 37.801924 124 124 124 0
0.164093 3.117760 33.488296 120 120 120 0
0.278504 3.527715 37.891681 117 117 117 0
0.329075 3.126209 33.579048 119 119 119 0
0.411097 3.124335 33.558916 115 115 115 0
0.559058 3.540704 38.031187 117 117 117 0
0.652519 3.542244 38.047730 114 114 114 0
0.748103 3.553489 38.168515 110 110 110 0
0.742239 3.133896 33.661615 106 106 106 0
0.827661 3.145110 33.782067 105 105 105 0
0.913218 3.154752 33.885624 105 105 105 0
1.000812 3.169237 34.041210 96 96 96 0
1.073714 3.138548 33.711581 93 93 93 0
1.147849 3.115590 33.464987 88 88 88 0
1.241109 3.144142 33.771662 97 97 97 0
1.349810 3.205798 34.433922 99 99 99 0
1.443352 3.226316 34.654309 106 106 106 0
1.748025 3.690275 39.637753 99 99 99 0
1.875346 3.750692 40.286705 77 77 77 0
1.994499 3.789548 40.704059 80 80 80 0
2.120473 3.837047 41.214249 131 131 131 0
2.223904 3.841290 41.259823 136 136 136 0
2.319959 3.832975 41.170520 135 135 135 0
2.419506 3.830885 41.148068 140 140 140 0
2.515384 3.823384 41.067498 140 140 140 0
2.598823 3.798280 40.797851 140 140 140 0
2.688262 3.783480 40.638886 139 139 139 0
2.786411 3.781558 40.618243 138 138 138 0
2.872568 3.764055 40.430239 135 135 135 0
2.953359 3.740921 40.181750 137 137 137 0
3.048430 3.736786 40.137332 134 134 134 0
3.136075 3.724090 40.000962 137 137 137 0
3.227568 3.716593 39.920444 137 137 137 0
3.309236 3.698558 39.726721 138 138 138 0
3.399716 3.691120 39.646831 141 141 141 0
3.494932 3.689094 39.625075 140 140 140 0
3.580121 3.676881 39.493888 143 143 143 0
3.672942 3.672942 39.451580 147 147 147 0
3.768404 3.671778 39.439081 148 148 148 0
3.863558 3.670380 39.424065 151 151 151 0
3.948278 3.659380 39.305906 149 149 149 0
4.047059 3.661625 39.330022 148 148 148 0
4.141574 3.659995 39.312517 150 150 150 0
4.228588 3.651962 39.226234 146 146 146 0
4.321268 3.649071 39.195175 149 149 149 0
4.415237 3.647370 39.176907 149 149 149 0
4.507680 3.644508 39.146161 151 151 151 0
4.596276 3.638718 39.083978 150 150 150 0
4.692176 3.638831 39.085184 152 152 152 0
4.781464 3.633913 39.032360 155 155 155 0
4.878268 3.634788 39.041759 151 151 151 0
4.969774 3.631758 39.009215 150 150 150 0
5.065306 3.631729 39.008904 146 146 146 0
5.156126 3.628385 38.972987 143 143 143 0
5.255250 3.630900 39.000000 143 143 143 0
5.350580 3.630751 38.998397 140 140 140 0
5.446350 3.630900 39.000000 140 140 140 0
5.540573 3.630031 38.990662 138 138 138 0
5.638884 3.631823 39.009919 136 136 136 0
5.732850 3.630805 38.998980 131 131 131 0
5.836364 3.635768 39.052284 126 126 126 0
5.934527 3.637291 39.068646 123 123 123 0
6.038907 3.642516 39.124765 121 121 121 0
6.141179 3.646325 39.165681 119 119 119 0
6.243399 3.649987 39.205015 118 118 118 0
6.347227 3.654464 39.253103 120 120 120 0
6.449877 3.658139 39.292581 121 121 121 0
6.564303 3.668287 39.401580 120 120 120 0
6.661447 3.668623 39.405187 118 118 118 0
6.849709 3.718413 39.939991 117 117 117 0
6.949551 3.719478 39.951426 112 112 112 0
7.206738 3.803556 40.854522 108 108 108 0
7.307681 3.803999 40.859275 105 105 105 0
7.572116 3.888384 41.765672 98 98 98 0
7.000777 3.547061 38.099469 86 86 86 0
7.428760 3.714380 39.896669 82 82 82 0
8.227536 4.060343 43.612703 98 98 98 0
8.344650 4.065342 43.666404 96 96 96 0
8.643954 4.157851 44.660057 84 84 84 0
-7.351334 3.583775 37.506804 144 144 144 0
-7.197609 3.553250 37.187337 143 143 143 0
-7.067366 3.533683 36.982552 148 148 148 0
-6.951337 3.520807 36.847795 150 150 150 0
-6.843975 3.512040 36.756042 149 149 149 0
-6.721107 3.494976 36.577453 149 149 149 0
-6.622694 3.490339 36.528927 151 151 151 0
-6.516744 3.481548 36.436924 148 148 148 0
-6.409908 3.472034 36.337348 151 151 151 0
-6.317981 3.470441 36.320675 150 150 150 0
-6.222816 3.466998 36.284643 150 150 150 0
-6.122399 3.460486 36.216496 150 150 150 0
-6.029357 3.458014 36.190621 148 148 148 0
-5.939303 3.457206 36.182167 147 147 147 0
-5.840469 3.451186 36.119165 146 146 146 0
-5.750467 3.450280 36.109685 149 149 149 0
-5.661417 3.449926 36.105973 149 149 149 0
-5.569669 3.447890 36.084672 149 149 149 0
-5.476388 3.444825 36.052588 148 148 148 0
-5.387375 3.444387 36.048010 143 143 143 0
-5.299564 3.444717 36.051455 140 140 140 0
-5.209838 3.443791 36.041771 139 139 139 0
-5.123738 3.445272 36.057272 137 137 137 0
-5.040700 3.448900 36.095236 136 136 136 0
-4.956038 3.451527 36.122729 131 131 131 0
-4.867592 3.451565 36.123130 128 128 128 0
-4.785811 3.456419 36.173932 125 125 125 0
-4.706354 3.463166 36.244540 123 123 123 0
-4.621761 3.466321 36.277561 121 121 121 0
-4.535654 3.468442 36.299755 117 117 117 0
-4.454966 3.474874 36.367072 116 116 116 0
-4.380275 3.486341 36.487088 105 105 105 0
-4.301293 3.494801 36.575622 100 100 100 0
-3.840132 3.186493 33.348954 99 99 99 0
-3.767821 3.194457 33.432304 97 97 97 0
-3.696604 3.203724 33.529290 100 100 100 0
-3.625071 3.213132 33.627750 101 101 101 0
-3.553778 3.223194 33.733058 102 102 102 0
-3.478618 3.230146 33.805815 101 101 101 0
-3.403888 3.237844 33.886388 103 103 103 0
-3.340193 3.256688 34.083605 100 100 100 0
-3.272664 3.272664 34.250801 96 96 96 0
-3.511206 3.603607 37.714355 97 97 97 0
-3.107799 3.275788 34.283493 96 96 96 0
-3.051673 3.305979 34.599465 91 91 91 0
-2.986033 3.327294 34.822540 99 99 99 0
-2.907512 3.335087 34.904102 95 95 95 0
-2.949724 3.486037 36.483907 93 93 93 0
-2.982987 3.635515 38.048304 108 108 108 0
-2.946066 3.706341 38.789546 102 102 102 0
-2.883682 3.748786 39.233763 78 78 78 0
-2.795481 3.759440 39.345264 73 73 73 0
-2.732383 3.805820 39.830661 98 98 98 0
-2.642159 3.816452 39.941937 132 132 132 0
-2.529961 3.794941 39.716805 136 136 136 0
-2.417247 3.770906 39.465263 138 138 138 0
-2.307731 3.750064 39.247133 137 137 137 0
-2.204399 3.737894 39.119768 138 138 138 0
-2.099267 3.721427 38.947435 136 136 136 0
-1.995269 3.705500 38.780741 140 140 140 0
-1.895048 3.695344 38.674450 142 142 142 0
-1.796636 3.687831 38.595825 141 141 141 0
-1.695044 3.672596 38.436378 143 143 143 0
-1.595759 3.660859 38.313542 143 143 143 0
-1.499041 3.653911 38.240831 145 145 145 0
-1.401028 3.642673 38.123215 141 141 141 0
-1.305955 3.638018 38.074492 143 143 143 0
-1.209879 3.629638 37.986794 145 145 145 0
-1.115754 3.626202 37.950827 145 145 145 0
-1.021418 3.621391 37.900477 144 144 144 0
-0.926642 3.613903 37.822113 149 149 149 0
-0.833856 3.613377 37.816613 145 145 145 0
-0.740903 3.611903 37.801186 145 145 145 0
-0.647912 3.609796 37.779133 143 143 143 0
-0.554279 3.602815 37.706068 144 144 144 0
-0.462419 3.606868 37.748483 143 143 143 0
-0.369835 3.605892 37.738273 141 141 141 0
-0.277096 3.602254 37.700203 140 140 140 0
-0.184765 3.602909 37.707050 138 138 138 0
-0.092498 3.607414 37.754200 135 135 135 0
0.000000 3.604711 37.725914 134 134 134 0
0.092468 3.606254 37.742058 129 129 129 0
0.185212 3.611640 37.798431 125 125 125 0
0.278197 3.616566 37.849984 122 122 122 0
0.370607 3.613417 37.817026 119 119 119 0
0.464716 3.624787 37.936024 116 116 116 0
0.557925 3.626515 37.954112 116 116 116 0
0.575448 3.206069 33.553835 114 114 114 0
0.659069 3.212959 33.625945 110 110 110 0
0.841621 3.647023 38.168737 106 106 106 0
0.825162 3.218133 33.680097 106 106 106 0
0.910129 3.226821 33.771018 102 102 102 0
0.999600 3.248700 34.000000 99 99 99 0
1.091880 3.275639 34.281938 89 89 89 0
1.101088 3.067315 32.101680 90 90 90 0
1.213370 3.154762 33.016869 94 94 94 0
1.317914 3.212415 33.620254 99 99 99 0
1.429905 3.280371 34.331462 100 100 100 0
1.748837 3.789147 39.656169 90 90 90 0
1.869050 3.836471 40.151451 81 81 81 0
1.984564 3.869900 40.501306 74 74 74 0
2.120307 3.937714 41.211028 118 118 118 0
2.222978 3.940735 41.242643 140 140 140 0
2.317437 3.929567 41.125768 140 140 140 0
2.416617 3.927003 41.098931 140 140 140 0
2.507849 3.912245 40.944475 139 139 139 0
2.600733 3.901100 40.827839 139 139 139 0
2.686549 3.880571 40.612988 142 142 142 0
2.785057 3.879186 40.598495 136 136 136 0
2.868782 3.858018 40.376951 137 137 137 0
2.953359 3.839366 40.181750 135 135 135 0
3.045912 3.831953 40.104169 137 137 137 0
3.135609 3.821523 39.995010 138 138 138 0
3.226104 3.812669 39.902341 134 134 134 0
3.309747 3.796475 39.732862 137 137 137 0
3.397623 3.785922 39.622421 140 140 140 0
3.493754 3.784900 39.611726 143 143 143 0
3.579431 3.772914 39.486282 144 144 144 0
3.668560 3.765101 39.404515 145 145 145 0
3.765860 3.765860 39.412458 148 148 148 0
3.864761 3.768142 39.436333 151 151 151 0
3.946751 3.754226 39.290700 150 150 150 0
4.043919 3.755068 39.299507 149 149 149 0
4.141051 3.755837 39.307553 149 149 149 0
4.228534 3.748019 39.225730 149 149 149 0
4.318340 3.742561 39.168618 148 148 148 0
4.412351 3.740906 39.151294 150 150 150 0
4.505454 3.738568 39.126827 150 150 150 0
4.595424 3.733782 39.076731 152 152 152 0
4.689718 3.732633 39.064710 152 152 152 0
4.783638 3.731237 39.050103 153 153 153 0
4.875826 3.728573 39.022214 151 151 151 0
4.968539 3.726404 38.999519 150 150 150 0
5.057841 3.721807 38.951410 149 149 149 0
5.160227 3.726831 39.003986 144 144 144 0
5.253168 3.724974 38.984549 141 141 141 0
5.347739 3.724318 38.977692 143 143 143 0
5.438487 3.721070 38.943697 140 140 140 0
5.543040 3.727217 39.008025 142 142 142 0
5.631654 3.722619 38.959902 135 135 135 0
5.731752 3.725639 38.991508 133 133 133 0
5.835411 3.730836 39.045907 129 129 129 0
5.931548 3.731135 39.049031 121 121 121 0
6.024180 3.729254 39.029346 119 119 119 0
6.137937 3.740305 39.145004 119 119 119 0
6.242556 3.745534 39.199724 118 118 118 0
6.350580 3.752615 39.273839 119 119 119 0
6.448282 3.753478 39.282863 118 118 118 0
6.563721 3.764487 39.398086 118 118 118 0
6.657616 3.763000 39.382524 118 118 118 0
6.850080 3.816473 39.942156 114 114 114 0
6.949839 3.817517 39.953087 113 113 113 0
6.736450 3.648911 38.188494 109 109 109 0
7.466556 3.988982 41.747586 106 106 106 0
7.250755 3.821344 39.993131 99 99 99 0
7.308216 3.800272 39.772604 84 84 84 0
7.586659 3.893154 40.744675 82 82 82 0
7.208914 3.651268 38.213168 91 91 91 0
8.519196 4.259598 44.579779 76 76 76 0
8.647769 4.269152 44.679770 97 97 97 0
-7.329890 3.664945 37.397396 149 149 149 0
-7.187248 3.639113 37.133804 150 150 150 0
-7.066242 3.623714 36.976674 150 150 150 0
-6.944968 3.607776 36.814037 147 147 147 0
-6.829212 3.594322 36.676759 151 151 151 0
-6.714127 3.580868 36.539465 149 149 149 0
-6.614855 3.575597 36.485685 152 152 152 0
-6.509587 3.566897 36.396906 151 151 151 0
-6.403204 3.557336 36.299343 147 147 147 0
-6.312050 3.556084 36.286576 150 150 150 0
-6.214207 3.550975 36.234441 150 150 150 0
-6.115340 3.545124 36.174739 150 150 150 0
-6.025888 3.544640 36.169795 150 150 150 0
-5.933503 3.542390 36.146834 150 150 150 0
-5.835238 3.536508 36.086815 150 150 150 0
-5.744531 3.535096 36.072406 150 150 150 0
-5.651297 3.532061 36.041436 150 150 150 0
-5.563050 3.532095 36.041787 148 148 148 0
-5.471867 3.530237 36.022823 149 149 149 0
-5.382802 3.529706 36.017412 149 149 149 0
-5.293897 3.529265 36.012907 145 145 145 0
-5.205822 3.529371 36.013986 140 140 140 0
-5.119256 3.530521 36.025728 137 137 137 0
-5.033408 3.532216 36.043024 138 138 138 0
-4.949814 3.535582 36.077365 135 135 135 0
-4.863619 3.537178 36.093648 132 132 132 0
-4.781857 3.542116 36.144045 127 127 127 0
-4.698855 3.546306 36.186793 127 127 127 0
-4.618881 3.552985 36.254952 122 122 122 0
-4.534132 3.556182 36.287574 117 117 117 0
-4.450926 3.560740 36.334086 113 113 113 0
-4.372944 3.569750 36.426021 107 107 107 0
-4.296551 3.580459 36.535298 101 101 101 0
-4.222650 3.593745 36.670866 98 98 98 0
-3.766897 3.275563 33.424112 97 97 97 0
-3.695262 3.284678 33.517119 100 100 100 0
-3.623018 3.293653 33.608702 97 97 97 0
-3.552191 3.304364 33.718001 102 102 102 0
-3.826053 3.643860 37.182240 103 103 103 0
-3.402498 3.319510 33.872555 100 100 100 0
-3.334648 3.334648 34.027020 99 99 99 0
-3.581957 3.673802 37.487777 97 97 97 0
-3.185771 3.353443 34.218811 94 94 94 0
-3.119465 3.372395 34.412192 92 92 92 0
-3.045622 3.384024 34.530857 100 100 100 0
-2.984683 3.411066 34.806794 94 94 94 0
-2.898586 3.410101 34.796947 96 96 96 0
-3.024197 3.665694 37.405037 95 95 95 0
-2.983008 3.728760 38.048567 98 98 98 0
-2.935253 3.787423 38.647174 94 94 94 0
-2.881531 3.842042 39.204507 67 67 67 0
-2.809860 3.875669 39.547645 74 74 74 0
-2.725713 3.893875 39.733420 94 94 94 0
-2.634818 3.903434 39.830964 131 131 131 0
-2.525203 3.884928 39.642124 133 133 133 0
-2.411766 3.858825 39.375766 134 134 134 0
-2.305901 3.843168 39.215999 138 138 138 0
-2.201301 3.828349 39.064788 135 135 135 0
-2.093939 3.807162 38.848592 143 143 143 0
-1.991949 3.794188 38.716208 138 138 138 0
-1.893000 3.785999 38.632645 143 143 143 0
-1.795472 3.779941 38.570825 141 141 141 0
-1.693281 3.762847 38.396402 144 144 144 0
-1.595515 3.754152 38.307672 141 141 141 0
-1.497416 3.743541 38.199400 143 143 143 0
-1.399892 3.733044 38.092288 145 145 145 0
-1.305432 3.729806 38.059247 146 146 146 0
-1.208779 3.719320 37.952241 145 145 145 0
-1.114968 3.716559 37.924068 145 145 145 0
-1.020203 3.709828 37.855390 147 147 147 0
-0.926492 3.705966 37.815982 147 147 147 0
-0.832966 3.702072 37.776244 146 146 146 0
-0.740713 3.703566 37.791486 147 147 147 0
-0.646583 3.694759 37.701627 146 146 146 0
-0.553821 3.692142 37.674918 148 148 148 0
-0.462162 3.697297 37.727518 147 147 147 0
-0.369409 3.694089 37.694788 144 144 144 0
-0.276667 3.688893 37.641761 143 143 143 0
-0.184601 3.692030 37.673775 140 140 140 0
-0.092459 3.698346 37.738228 137 137 137 0
0.000000 3.693114 37.684833 136 136 136 0
0.092343 3.693724 37.691063 133 133 133 0
0.185033 3.700657 37.761807 130 130 130 0
0.277742 3.703226 37.788025 128 128 128 0
0.370169 3.701690 37.772347 125 125 125 0
0.463700 3.709602 37.853078 120 120 120 0
0.557237 3.714916 37.907306 117 117 117 0
0.650655 3.718027 37.939054 117 117 117 0
0.745149 3.725745 38.017808 110 110 110 0
0.840520 3.735645 38.118823 108 108 108 0
0.824236 3.296945 33.642300 111 111 111 0
0.910485 3.310854 33.784223 104 104 104 0
0.996944 3.323147 33.909666 98 98 98 0
1.083015 3.332354 34.003612 90 90 90 0
1.079230 3.083515 31.464438 89 89 89 0
1.211853 3.231607 32.975584 93 93 93 0
1.299583 3.248957 33.152618 99 99 99 0
1.419764 3.340622 34.087980 103 103 103 0
1.739847 3.866326 39.452302 94 94 94 0
1.873979 3.945220 40.257346 76 76 76 0
1.975255 3.950509 40.311321 71 71 71 0
2.114548 4.027710 41.099086 108 108 108 0
2.221417 4.038939 41.213667 135 135 135 0
2.316956 4.029488 41.117229 146 146 146 0
2.417595 4.029325 41.115562 139 139 139 0
2.511516 4.018426 41.004348 138 138 138 0
2.597981 3.996894 40.784628 139 139 139 0
2.689583 3.984568 40.658853 139 139 139 0
2.779451 3.970644 40.516772 139 139 139 0
2.872171 3.961616 40.424651 136 136 136 0
2.949473 3.932631 40.128884 136 136 136 0
3.048364 3.933373 40.136461 136 136 136 0
3.132072 3.915089 39.949892 135 135 135 0
3.221805 3.905218 39.849167 137 137 137 0
3.303962 3.887014 39.663407 141 141 141 0
3.393293 3.878049 39.571931 140 140 140 0
3.493145 3.881272 39.604821 143 143 143 0
3.577686 3.867768 39.467023 146 146 146 0
3.668775 3.861869 39.406823 145 145 145 0
3.764417 3.860941 39.397354 150 150 150 0
3.860011 3.860011 39.387864 151 151 151 0
3.946227 3.849977 39.285481 151 151 151 0
4.043333 3.850793 39.293806 152 152 152 0
4.140244 3.851390 39.299898 150 150 150 0
4.226430 3.842209 39.206214 150 150 150 0
4.315988 3.836434 39.147285 149 149 149 0
4.412611 3.837053 39.153604 148 148 148 0
4.506165 3.835034 39.132998 151 151 151 0
4.589948 3.824957 39.030170 152 152 152 0
4.687098 3.826202 39.042879 153 153 153 0
4.783674 3.826940 39.050403 153 153 153 0
4.875179 3.823670 39.017041 150 150 150 0
4.965763 3.819818 38.977733 150 150 150 0
5.060488 3.819237 38.971801 147 147 147 0
5.155559 3.818932 38.968697 145 145 145 0
5.246955 3.815968 38.938444 144 144 144 0
5.341747 3.815533 38.934015 142 142 142 0
5.433217 3.812784 38.905956 142 142 142 0
5.534630 3.816986 38.948839 140 140 140 0
5.635129 3.820426 38.983941 139 139 139 0
5.724620 3.816413 38.942993 134 134 134 0
5.826201 3.820460 38.984282 125 125 125 0
5.927479 3.824180 39.022246 121 121 121 0
6.026063 3.826072 39.041548 119 119 119 0
6.137913 3.836196 39.144853 118 118 118 0
6.238347 3.838983 39.173293 118 118 118 0
6.341544 3.843360 39.217961 119 119 119 0
6.446048 3.848387 39.269252 119 119 119 0
6.556084 3.856520 39.352246 119 119 119 0
6.655359 3.858179 39.369175 117 117 117 0
6.696755 3.826717 39.048135 114 114 114 0
6.949036 3.914950 39.948468 111 111 111 0
7.206569 4.003649 40.853565 108 108 108 0
6.832475 3.743822 38.202263 105 105 105 0
7.249324 3.918553 39.985239 103 103 103 0
7.025511 3.746939 38.234074 86 86 86 0
7.741347 4.074393 41.575442 83 83 83 0
7.515197 3.903999 39.836719 83 83 83 0
8.502031 4.360016 44.489958 77 77 77 0
8.646181 4.377813 44.671564 94 94 94 0
-7.317775 3.750360 37.335587 145 145 145 0
-7.178791 3.725702 37.090113 148 148 148 0
-7.059942 3.710995 36.943706 150 150 150 0
-6.938090 3.694308 36.777580 147 147 147 0
-6.819385 3.678879 36.623981 151 151 151 0
-6.703927 3.664813 36.483954 149 149 149 0
-6.602885 3.658355 36.419662 149 149 149 0
-6.498443 3.649811 36.334600 151 151 151 0
-6.400420 3.644684 36.283560 152 152 152 0
-6.303184 3.639867 36.235607 152 152 152 0
-6.205395 3.634588 36.183061 150 150 150 0
-6.109217 3.630114 36.138520 150 150 150 0
-6.018768 3.628963 36.127058 151 151 151 0
-5.925663 3.626152 36.099074 152 152 152 0
-5.831110 3.622356 36.061285 151 151 151 0
-5.737580 3.619089 36.028763 153 153 153 0
-5.649836 3.619426 36.032118 153 153 153 0
-5.558656 3.617538 36.013318 151 151 151 0
-5.467664 3.615713 35.995154 151 151 151 0
-5.379327 3.615613 35.994156 152 152 152 0
-5.290305 3.615042 35.988469 146 146 146 0
-5.200888 3.614176 35.979854 141 141 141 0
-5.114717 3.615576 35.993789 137 137 137 0
-5.029290 3.617560 36.013536 137 137 137 0
-4.944059 3.619758 36.035418 134 134 134 0
-4.859361 3.622432 36.062046 133 133 133 0
-4.777585 3.627426 36.111754 130 130 130 0
-4.695351 3.632252 36.159805 129 129 129 0
-4.610415 3.635135 36.188501 124 124 124 0
-4.528278 3.640380 36.240719 119 119 119 0
-4.446913 3.646468 36.301328 114 114 114 0
-4.370201 3.656699 36.403175 104 104 104 0
-3.905089 3.335596 33.206535 103 103 103 0
-3.836913 3.347094 33.320998 96 96 96 0
-4.140803 3.690715 36.741815 96 96 96 0
-3.692809 3.364559 33.494865 101 101 101 0
-3.985888 3.714122 36.974838 101 101 101 0
-3.909825 3.727973 37.112720 104 104 104 0
-3.822784 3.731765 37.150473 106 106 106 0
-3.749046 3.749046 37.322513 102 102 102 0
-3.319388 3.402373 33.871308 102 102 102 0
-3.255016 3.421940 34.066103 101 101 101 0
-3.183464 3.434790 34.194026 92 92 92 0
-3.114131 3.450794 34.353351 94 94 94 0
-3.036538 3.458279 34.427867 90 90 90 0
-2.966743 3.475327 34.597584 97 97 97 0
-2.905312 3.503465 34.877700 94 94 94 0
-3.061095 3.803179 37.861416 92 92 92 0
-2.972146 3.808062 37.910022 108 108 108 0
-2.938257 3.886082 38.686726 92 92 92 0
-2.876605 3.931360 39.137477 76 76 76 0
-2.716423 3.977619 39.597996 97 97 97 0
-2.626761 3.988785 39.709159 130 130 130 0
-2.518196 3.971002 39.532123 137 137 137 0
-2.405207 3.944540 39.268690 134 134 134 0
-2.305225 3.938092 39.204504 138 138 138 0
-2.195197 3.913177 38.956464 139 139 139 0
-2.091885 3.898513 38.810487 139 139 139 0
-1.989847 3.884939 38.675353 140 140 140 0
-1.890527 3.875580 38.582185 141 141 141 0
-1.793718 3.870655 38.533153 142 142 142 0
-1.691460 3.852769 38.355093 145 145 145 0
-1.593373 3.842840 38.256251 143 143 143 0
-1.497282 3.836785 38.195964 145 145 145 0
-1.398791 3.823361 38.062330 145 145 145 0
-1.304437 3.820136 38.030224 145 145 145 0
-1.207059 3.806879 37.898247 146 146 146 0
-1.114291 3.807162 37.901068 148 148 148 0
-1.019986 3.801766 37.847347 148 148 148 0
-0.925815 3.795841 37.788365 148 148 148 0
-0.832744 3.793614 37.766187 148 148 148 0
-0.739978 3.792387 37.753981 150 150 150 0
-0.646339 3.785699 37.687399 148 148 148 0
-0.553323 3.781043 37.641046 150 150 150 0
-0.462030 3.788645 37.716726 148 148 148 0
-0.369147 3.783753 37.668019 149 149 149 0
-0.276540 3.779382 37.624511 145 145 145 0
-0.184463 3.781501 37.645603 143 143 143 0
-0.092428 3.789530 37.725540 140 140 140 0
0.000000 3.784397 37.674436 138 138 138 0
0.092281 3.783527 37.665778 137 137 137 0
0.184785 3.788084 37.711140 135 135 135 0
0.277578 3.793561 37.765663 131 131 131 0
0.369615 3.788556 37.715843 128 128 128 0
0.463055 3.797052 37.800419 125 125 125 0
0.556654 3.803804 37.867640 121 121 121 0
0.650110 3.807787 37.907290 120 120 120 0
0.744002 3.813008 37.959265 114 114 114 0
0.839370 3.823795 38.066647 110 110 110 0
0.822331 3.371557 33.564526 108 108 108 0
0.909047 3.388267 33.730885 103 103 103 0
0.994092 3.396481 33.812652 100 100 100 0
1.077718 3.398957 33.837303 91 91 91 0
1.172352 3.433316 34.179352 89 89 89 0
1.224932 3.348148 33.331488 94 94 94 0
1.448874 3.712740 36.961071 91 91 91 0
1.419769 3.424148 34.088085 98 98 98 0
1.531127 3.487567 34.719430 96 96 96 0
1.864239 4.022832 40.048102 77 77 77 0
1.967817 4.034024 40.159522 78 78 78 0
2.112461 4.124329 41.058528 107 107 107 0
2.221546 4.140153 41.216059 145 145 145 0
2.317691 4.131536 41.130278 140 140 140 0
2.413705 4.123413 41.049407 144 144 144 0
2.509440 4.115482 40.970451 142 142 142 0
2.599336 4.098952 40.805896 143 143 143 0
2.691978 4.087818 40.695054 140 140 140 0
2.780951 4.072106 40.538638 138 138 138 0
2.869791 4.057291 40.391145 135 135 135 0
