ply
format ascii 1.0
element vertex 1132
property float x
property float y
property float z
property uchar red
property uchar green
property uchar blue
property uchar alpha
end_header
-7.366401 2.117840 37.583677 154 154 154 0
-7.279117 2.119237 37.608460 152 152 152 0
-7.179838 2.117132 37.571106 153 153 153 0
-7.082190 2.115459 37.541424 149 149 149 0
-6.996468 2.117352 37.575014 149 149 149 0
-6.902021 2.116620 37.562017 145 145 145 0
-6.810802 2.116871 37.566476 141 141 141 0
-6.723744 2.118440 37.594318 139 139 139 0
-6.638607 2.120666 37.633826 139 139 139 0
-6.550889 2.122119 37.659609 141 141 141 0
-6.456287 2.121352 37.645989 143 143 143 0
-6.373644 2.124548 37.702714 145 145 145 0
-6.287884 2.126784 37.742400 153 153 153 0
-6.194302 2.126402 37.735620 154 154 154 0
-6.097472 2.124876 37.708544 158 158 158 0
-6.010570 2.126817 37.742981 156 156 156 0
-5.916458 2.126227 37.732511 157 157 157 0
-5.816613 2.123526 37.684570 155 155 155 0
-5.732257 2.126483 37.737047 153 153 153 0
-5.636070 2.125076 37.712078 152 152 152 0
-5.539549 2.123494 37.684009 149 149 149 0
-5.447372 2.123552 37.685035 144 144 144 0
-5.361622 2.126160 37.731330 143 143 143 0
-5.272093 2.127336 37.752188 136 136 136 0
-5.181018 2.127918 37.762520 132 132 132 0
-5.095613 2.130893 37.815310 126 126 126 0
-5.009380 2.133625 37.863797 119 119 119 0
-4.937466 2.142674 38.024379 113 113 113 0
-4.849445 2.144947 38.064720 117 117 117 0
-4.350210 1.961859 34.815604 113 113 113 0
-4.294807 1.975611 35.059651 116 116 116 0
-4.226557 1.983894 35.206639 115 115 115 0
-4.156647 1.991726 35.345634 116 116 116 0
-4.488004 2.196257 38.975280 115 115 115 0
-4.321228 2.160614 38.342753 119 119 119 0
-4.262900 2.178815 38.665755 131 131 131 0
-4.227805 2.209989 39.218968 144 144 144 0
-4.141953 2.215463 39.316116 155 155 155 0
-4.049879 2.217791 39.357422 157 157 157 0
-3.965883 2.224764 39.481168 156 156 156 0
-3.875179 2.228228 39.542642 158 158 158 0
-3.778362 2.228265 39.543294 162 162 162 0
-3.672635 2.222911 39.448282 155 155 155 0
-3.569174 2.218676 39.373128 157 157 157 0
-3.438039 2.196525 38.980037 155 155 155 0
-3.308136 2.173918 38.578847 151 151 151 0
-3.203203 2.166872 38.453815 148 148 148 0
-3.097928 2.159162 38.316983 149 149 149 0
-2.987308 2.147128 38.103421 145 145 145 0
-2.885379 2.140765 37.990509 147 147 147 0
-2.785712 2.135713 37.900848 145 145 145 0
-2.684789 2.129315 37.787317 143 143 143 0
-2.584717 2.123160 37.678088 144 144 144 0
-2.489039 2.120292 37.627192 142 142 142 0
-2.395970 2.119512 37.613338 144 144 144 0
-2.295610 2.111961 37.479343 143 143 143 0
-2.200388 2.108705 37.421559 144 144 144 0
-2.108864 2.108864 37.424380 138 138 138 0
-2.012557 2.104037 37.338728 137 137 137 0
-1.915312 2.097723 37.226676 135 135 135 0
-1.825447 2.099264 37.254026 137 137 137 0
-1.733211 2.098098 37.233325 134 134 134 0
-1.639883 2.095406 37.185556 126 126 126 0
-1.549336 2.096161 37.198950 129 129 129 0
-1.459160 2.097543 37.223477 126 126 126 0
-1.367526 2.096873 37.211586 123 123 123 0
-1.276196 2.096608 37.206883 119 119 119 0
-1.188618 2.102940 37.319258 119 119 119 0
-1.097963 2.104428 37.345667 117 117 117 0
-1.006894 2.105325 37.361572 114 114 114 0
-0.915127 2.104791 37.352106 116 116 116 0
-0.826462 2.112070 37.481270 113 113 113 0
-0.735775 2.115353 37.539536 108 108 108 0
-0.574377 1.887238 33.491364 108 108 108 0
-0.492958 1.889673 33.534564 102 102 102 0
-0.412195 1.896098 33.648591 101 101 101 0
-0.330946 1.902937 33.769957 101 101 101 0
-0.248036 1.901609 33.746393 94 94 94 0
-0.166713 1.917204 34.023132 95 95 95 0
-0.083694 1.924956 34.160706 96 96 96 0
0.000000 1.929670 34.244358 100 100 100 0
0.084413 1.941495 34.454216 97 97 97 0
0.168083 1.932952 34.302613 91 91 91 0
0.255395 1.958028 34.747610 97 97 97 0
0.339918 1.954529 34.685518 98 98 98 0
0.428580 1.971470 34.986162 99 99 99 0
0.520860 1.996631 35.432663 98 98 98 0
0.615928 2.023763 35.914169 127 127 127 0
0.702697 2.020255 35.851911 137 137 137 0
0.790725 2.020742 35.860556 137 137 137 0
0.991547 2.280557 40.471286 134 134 134 0
0.962353 2.012192 35.708815 143 143 143 0
1.050213 2.012909 35.721545 142 142 142 0
1.134747 2.007630 35.627864 147 147 147 0
1.389445 2.282659 40.508591 151 151 151 0
1.495588 2.293236 40.696284 157 157 157 0
1.592250 2.288859 40.618618 160 160 160 0
1.693221 2.290828 40.653556 162 162 162 0
1.795372 2.294087 40.711392 153 153 153 0
1.889093 2.286797 40.582017 145 145 145 0
1.972591 2.268480 40.256967 143 143 143 0
2.060974 2.257257 40.057795 145 145 145 0
2.153804 2.251704 39.959250 142 142 142 0
2.244807 2.244807 39.836867 139 139 139 0
2.335909 2.238579 39.726337 138 138 138 0
2.431504 2.236984 39.698023 135 135 135 0
2.519823 2.229074 39.557659 133 133 133 0
2.609864 2.223218 39.453731 134 134 134 0
2.701841 2.219369 39.385437 132 132 132 0
2.797044 2.218345 39.367259 129 129 129 0
2.883127 2.210398 39.226221 130 130 130 0
2.976001 2.208001 39.183683 131 131 131 0
3.072031 2.208022 39.184067 131 131 131 0
3.168698 2.208486 39.192302 132 132 132 0
3.259884 2.205216 39.134267 128 128 128 0
3.347589 2.199844 39.038941 128 128 128 0
3.444796 2.200842 39.056649 127 127 127 0
3.541006 2.201166 39.062396 123 123 123 0
3.632369 2.198539 39.015779 122 122 122 0
3.728061 2.198600 39.016863 118 118 118 0
3.830765 2.202690 39.089438 115 115 115 0
3.932233 2.205887 39.146175 115 115 115 0
4.017546 2.200085 39.043208 112 112 112 0
4.130723 2.209456 39.209517 109 109 109 0
4.224514 2.208269 39.188441 110 110 110 0
3.685254 1.883574 33.426339 108 108 108 0
3.786456 1.893228 33.597656 104 104 104 0
3.883890 1.900627 33.728959 103 103 103 0
3.976617 1.905462 33.814772 102 102 102 0
4.077835 1.914086 33.967805 105 105 105 0
4.156341 1.911917 33.929317 98 98 98 0
4.258575 1.920534 34.082236 106 106 106 0
4.311108 1.906836 33.839149 109 109 109 0
4.332048 1.879945 33.361937 104 104 104 0
5.248978 2.235676 39.674814 92 92 92 0
5.531158 2.313030 41.047555 90 90 90 0
5.766099 2.368219 42.026959 132 132 132 0
5.913134 2.386001 42.342525 155 155 155 0
6.020247 2.387339 42.366270 146 146 146 0
6.142146 2.394396 42.491496 144 144 144 0
6.220932 2.384691 42.319268 147 147 147 0
6.290586 2.371860 42.091572 144 144 144 0
6.363518 2.360660 41.892808 144 144 144 0
6.440569 2.351319 41.727043 144 144 144 0
6.520573 2.343331 41.585290 142 142 142 0
6.610935 2.339254 41.512933 144 144 144 0
6.690845 2.331658 41.378139 142 142 142 0
6.786158 2.329577 41.341199 140 140 140 0
6.881872 2.327692 41.307757 136 136 136 0
6.942445 2.314148 41.067407 136 136 136 0
7.011923 2.303918 40.885850 138 138 138 0
7.091686 2.297307 40.768529 139 139 139 0
7.224762 2.307910 40.956703 139 139 139 0
7.321905 2.306902 40.938805 137 137 137 0
7.317445 2.274341 40.360977 138 138 138 0
7.682771 2.356050 41.810998 136 136 136 0
7.617393 2.305264 40.909737 136 136 136 0
8.221939 2.455904 43.583031 140 140 140 0
8.498172 2.505871 44.469763 137 137 137 0
8.259814 2.404756 42.675352 138 138 138 0
-7.361664 2.208499 37.559511 156 156 156 0
-7.270594 2.208788 37.564423 153 153 153 0
-7.170446 2.206291 37.521957 152 152 152 0
-7.075925 2.205483 37.508214 152 152 152 0
-6.993939 2.208612 37.561433 147 147 147 0
-6.896554 2.206897 37.532268 146 146 146 0
-6.804700 2.206930 37.532819 141 141 141 0
-6.717899 2.208624 37.561640 136 136 136 0
-6.639361 2.213120 37.638100 138 138 138 0
-6.545430 2.212540 37.628229 139 139 139 0
-6.455244 2.213226 37.639904 142 142 142 0
-6.373902 2.217010 37.704244 148 148 148 0
-6.284036 2.217895 37.719305 152 152 152 0
-6.188387 2.216736 37.699587 155 155 155 0
-6.096420 2.216880 37.702041 158 158 158 0
-6.010606 2.219301 37.743209 158 158 158 0
-5.915538 2.218327 37.726644 156 156 156 0
-5.815174 2.215304 37.675244 156 156 156 0
-5.727489 2.217092 37.705653 153 153 153 0
-5.631981 2.215862 37.684720 154 154 154 0
-5.533160 2.213264 37.640546 152 152 152 0
-5.442122 2.213745 37.648717 146 146 146 0
-5.360443 2.218114 37.723034 142 142 142 0
-5.265615 2.217101 37.705797 137 137 137 0
-5.177595 2.218969 37.737575 132 132 132 0
-5.089088 2.220693 37.766890 128 128 128 0
-5.012376 2.227723 37.886441 118 118 118 0
-4.502501 2.038869 34.674635 117 117 117 0
-4.421577 2.040728 34.706256 113 113 113 0
-4.356294 2.050021 34.864300 121 121 121 0
-4.281367 2.055056 34.949933 122 122 122 0
-4.210607 2.062338 35.073777 113 113 113 0
-4.136423 2.068212 35.173666 115 115 115 0
-4.472479 2.283819 38.840464 116 116 116 0
-4.311130 2.249285 38.253153 114 114 114 0
-4.200719 2.240383 38.101756 122 122 122 0
-4.196456 2.288976 38.928162 132 132 132 0
-4.144559 2.313242 39.340857 143 143 143 0
-4.058002 2.318858 39.436368 155 155 155 0
-3.973573 2.325994 39.557722 162 162 162 0
-3.881451 2.328871 39.606641 161 161 161 0
-3.785424 2.329492 39.617206 160 160 160 0
-3.676053 2.321718 39.484998 154 154 154 0
-3.554961 2.305921 39.216341 154 154 154 0
-3.416462 2.277642 38.735402 151 151 151 0
-3.296821 2.260678 38.446898 146 146 146 0
-3.189665 2.251528 38.291291 148 148 148 0
-3.086997 2.245089 38.181783 147 147 147 0
-2.982679 2.237009 38.044377 147 147 147 0
-2.880716 2.230232 37.929112 145 145 145 0
-2.782367 2.225893 37.855329 145 145 145 0
-2.680436 2.218292 37.726056 142 142 142 0
-2.575557 2.207620 37.544566 143 143 143 0
-2.483348 2.207420 37.541159 143 143 143 0
-2.389329 2.205534 37.509088 143 143 143 0
-2.287865 2.196350 37.352893 140 140 140 0
-2.195195 2.195195 37.333243 141 141 141 0
-2.100000 2.191304 37.267079 139 139 139 0
-2.003969 2.186148 37.179380 140 140 140 0
-1.911022 2.184025 37.143276 140 140 140 0
-1.821424 2.185708 37.171911 138 138 138 0
-1.727375 2.181947 37.107948 135 135 135 0
-1.636212 2.181616 37.102312 131 131 131 0
-1.544500 2.180471 37.082843 132 132 132 0
-1.456156 2.184234 37.146834 127 127 127 0
-1.363303 2.181285 37.096689 126 126 126 0
-1.274345 2.184591 37.152917 123 123 123 0
-1.184416 2.186613 37.187301 122 122 122 0
-1.094622 2.189243 37.232027 118 118 118 0
-1.003833 2.190181 37.247974 115 115 115 0
-0.912569 2.190165 37.247701 116 116 116 0
-0.823495 2.195987 37.346725 111 111 111 0
-0.733737 2.201210 37.435537 110 110 110 0
-0.573007 1.964597 33.411513 111 111 111 0
-0.551281 2.205125 37.502132 105 105 105 0
-0.411213 1.973823 33.568418 103 103 103 0
-0.328867 1.973203 33.557874 98 98 98 0
-0.248021 1.984171 33.744403 91 91 91 0
-0.166085 1.993019 33.894884 93 93 93 0
-0.082921 1.990108 33.845368 96 96 96 0
0.000000 2.015053 34.269612 100 100 100 0
0.083546 2.005101 34.100355 93 93 93 0
0.168862 2.026340 34.461570 95 95 95 0
0.252838 2.022708 34.399795 97 97 97 0
0.342927 2.057565 34.992602 101 101 101 0
0.418816 2.010315 34.189029 109 109 109 0
0.517977 2.071908 35.236535 99 99 99 0
0.615523 2.110364 35.890536 107 107 107 0
0.705823 2.117470 36.011396 130 130 130 0
0.790352 2.107606 35.843645 141 141 141 0
0.875657 2.101577 35.741099 139 139 139 0
1.092744 2.384169 40.547099 139 139 139 0
1.189778 2.379557 40.468653 139 139 139 0
1.290302 2.382096 40.511828 144 144 144 0
1.393699 2.389198 40.632621 153 153 153 0
1.495416 2.392666 40.691601 159 159 159 0
1.595264 2.392895 40.695499 156 156 156 0
1.692796 2.389830 40.643363 155 155 155 0
1.793541 2.391387 40.669854 143 143 143 0
1.878473 2.372808 40.353879 142 142 142 0
1.965758 2.358910 40.117511 138 138 138 0
2.056869 2.350707 39.978010 145 145 145 0
2.147133 2.342327 39.835492 141 141 141 0
2.238662 2.335995 39.727800 138 138 138 0
2.330138 2.330138 39.628204 138 138 138 0
2.422822 2.325909 39.556275 134 134 134 0
2.511432 2.318245 39.425930 135 135 135 0
2.598889 2.310124 39.287819 136 136 136 0
2.689306 2.305120 39.202716 133 133 133 0
2.782928 2.303113 39.168581 133 133 133 0
2.882607 2.306085 39.219140 133 133 133 0
2.967793 2.297646 39.075611 127 127 127 0
3.062291 2.296718 39.059838 131 131 131 0
3.156066 2.295321 39.036068 130 130 130 0
3.249536 2.293790 39.010042 125 125 125 0
3.344280 2.293221 39.000354 127 127 127 0
3.439232 2.292821 38.993561 129 129 129 0
3.532226 2.291173 38.965534 126 126 126 0
3.627198 2.290862 38.960239 125 125 125 0
3.714398 2.285783 38.873867 119 119 119 0
3.817016 2.290210 38.949144 119 119 119 0
3.908497 2.287901 38.909878 115 115 115 0
4.013590 2.293480 39.004766 111 111 111 0
4.109411 2.293625 39.007226 113 113 113 0
3.595010 1.960915 33.348890 108 108 108 0
3.669184 1.956898 33.280580 108 108 108 0
3.776361 1.970276 33.508087 107 107 107 0
3.849565 1.965735 33.430876 108 108 108 0
3.945490 1.972745 33.550086 101 101 101 0
4.066299 1.991657 33.871710 107 107 107 0
4.137869 1.986177 33.778519 102 102 102 0
4.222253 1.986942 33.791538 105 105 105 0
4.320747 1.994191 33.914813 102 102 102 0
4.344809 1.967461 33.460215 102 102 102 0
4.521256 2.009447 34.174274 81 81 81 0
4.639881 2.024676 34.433258 70 70 70 0
5.741177 2.460504 41.845312 100 100 100 0
5.920057 2.492656 42.392104 150 150 150 0
6.018654 2.490477 42.355060 142 142 142 0
6.127218 2.492428 42.388226 144 144 144 0
6.187594 2.475038 42.092477 144 144 144 0
6.287084 2.473607 42.068143 141 141 141 0
6.356151 2.460446 41.844314 139 139 139 0
6.430506 2.449717 41.661846 139 139 139 0
6.522255 2.445846 41.596015 142 142 142 0
6.613523 2.441916 41.529190 139 139 139 0
6.698942 2.435979 41.428212 144 144 144 0
6.780442 2.428815 41.306376 140 140 140 0
6.861549 2.421723 41.185768 137 137 137 0
6.933377 2.411609 41.013764 136 136 136 0
7.008195 2.402810 40.864109 135 135 135 0
7.123843 2.408060 40.953395 141 141 141 0
7.168239 2.389413 40.636275 137 137 137 0
7.320526 2.406748 40.931091 136 136 136 0
7.581410 2.458836 41.816931 138 138 138 0
7.847722 2.511271 42.708693 139 139 139 0
8.116325 2.563050 43.589283 141 141 141 0
8.221039 2.562402 43.578261 142 142 142 0
8.498764 2.615004 44.472861 142 142 142 0
7.717700 2.344618 39.874452 141 141 141 0
-7.357234 2.299136 37.536908 154 154 154 0
-7.265395 2.299176 37.537562 155 155 155 0
-7.163806 2.296092 37.487209 154 154 154 0
-7.072539 2.296279 37.490267 151 151 151 0
-6.986305 2.298126 37.520433 147 147 147 0
-6.889451 2.296484 37.493611 143 143 143 0
-6.800413 2.297437 37.509175 142 142 142 0
-6.717182 2.300405 37.557627 140 140 140 0
-6.636543 2.304355 37.622123 139 139 139 0
-6.545337 2.304696 37.627693 139 139 139 0
-6.451568 2.304131 37.618473 141 141 141 0
-6.370825 2.308270 37.686038 147 147 147 0
-6.283479 2.310103 37.715962 152 152 152 0
-6.185612 2.308064 37.682681 159 159 159 0
-6.097341 2.309599 37.707734 159 159 159 0
-6.005374 2.309759 37.710354 158 158 158 0
-5.912063 2.309400 37.704486 158 158 158 0
-5.809488 2.305353 37.638409 155 155 155 0
-5.723317 2.307789 37.678189 156 156 156 0
-5.629678 2.307245 37.669309 154 154 154 0
-5.529983 2.304160 37.618934 152 152 152 0
-5.437117 2.303863 37.614090 147 147 147 0
-5.357496 2.309266 37.702297 144 144 144 0
-5.258518 2.306368 37.654982 137 137 137 0
-5.168616 2.307418 37.672126 134 134 134 0
-5.083419 2.310645 37.724817 126 126 126 0
-4.573727 2.117466 34.570880 123 123 123 0
-4.919286 2.320418 37.884377 123 123 123 0
-4.421296 2.125623 34.704049 115 115 115 0
-4.767058 2.336793 38.151721 116 116 116 0
-4.680761 2.340381 38.210296 118 118 118 0
-4.203728 2.144759 35.016473 112 112 112 0
-4.152723 2.162877 35.312270 121 121 121 0
-4.403644 2.342364 38.242673 116 116 116 0
-4.266591 2.318799 37.857950 117 117 117 0
-4.203260 2.335144 38.124805 121 121 121 0
-4.154026 2.360242 38.534567 128 128 128 0
-4.124401 2.397907 39.149507 139 139 139 0
-4.063478 2.418737 39.489578 153 153 153 0
-3.979624 2.426600 39.617957 156 156 156 0
-3.888385 2.430240 39.677395 160 160 160 0
-3.785409 2.426544 39.617045 153 153 153 0
-3.675965 2.418398 39.484050 156 156 156 0
-3.538105 2.390611 39.030391 150 150 150 0
-3.396125 2.358420 38.504816 153 153 153 0
-3.289443 2.349602 38.360855 143 143 143 0
-3.182139 2.339808 38.200947 146 146 146 0
-3.077560 2.331485 38.065056 145 145 145 0
-2.974095 2.323511 37.934879 149 149 149 0
-2.869938 2.314466 37.787202 146 146 146 0
-2.777711 2.314760 37.791992 147 147 147 0
-2.950052 2.543148 41.520784 144 144 144 0
-2.573318 2.297605 37.511919 141 141 141 0
-2.480706 2.296950 37.501225 144 144 144 0
-2.380942 2.289367 37.377428 143 143 143 0
-2.282108 2.282108 37.258908 144 144 144 0
-2.188253 2.279430 37.215186 140 140 140 0
-2.096170 2.278446 37.199115 142 142 142 0
-1.998746 2.271302 37.082482 138 138 138 0
-1.904942 2.267788 37.025104 139 139 139 0
-1.815760 2.269700 37.056326 135 135 135 0
-1.722578 2.266550 37.004902 134 134 134 0
-1.632405 2.267229 37.015992 134 134 134 0
-1.541676 2.267171 37.015031 127 127 127 0
-1.451434 2.267865 37.026373 126 126 126 0
-1.361083 2.268472 37.036279 125 125 125 0
-1.269084 2.266222 36.999544 121 121 121 0
-1.180283 2.269775 37.057545 119 119 119 0
-1.091361 2.273668 37.121111 121 121 121 0
-1.000715 2.274351 37.132269 115 115 115 0
-0.911925 2.279813 37.221440 119 119 119 0
-0.820566 2.279349 37.213863 114 114 114 0
-0.731300 2.285312 37.311221 111 111 111 0
-0.641125 2.289732 37.383384 106 106 106 0
-0.549703 2.290428 37.394744 107 107 107 0
-0.409449 2.047246 33.424427 99 99 99 0
-0.328014 2.050089 33.470841 97 97 97 0
-0.247255 2.060456 33.640100 98 98 98 0
-0.165057 2.063210 33.685069 92 92 92 0
-0.083055 2.076387 33.900190 96 96 96 0
0.000000 2.087523 34.082004 100 100 100 0
0.083204 2.080090 33.960653 91 91 91 0
0.168083 2.101035 34.302613 94 94 94 0
0.254061 2.117177 34.566149 95 95 95 0
0.337745 2.110909 34.463825 100 100 100 0
0.434781 2.173903 35.492295 106 106 106 0
0.498990 2.079124 33.944886 101 101 101 0
0.596853 2.131617 34.801904 99 99 99 0
0.691687 2.161522 35.290148 105 105 105 0
0.791478 2.198551 35.894702 131 131 131 0
0.878675 2.196689 35.864303 137 137 137 0
0.965732 2.194846 35.834214 137 137 137 0
1.194300 2.488125 40.622456 143 143 143 0
1.295278 2.490919 40.668059 149 149 149 0
1.396497 2.493744 40.714187 158 158 158 0
1.498211 2.497018 40.767647 150 150 150 0
1.594087 2.490761 40.665493 150 150 150 0
1.692506 2.488979 40.636396 145 145 145 0
1.783522 2.477114 40.442681 146 146 146 0
1.867161 2.456791 40.110869 141 141 141 0
1.959129 2.448912 39.982234 146 146 146 0
2.050379 2.440927 39.851869 141 141 141 0
2.143931 2.436286 39.776095 136 136 136 0
2.234395 2.428690 39.652089 140 140 140 0
2.321733 2.418472 39.485255 137 137 137 0
2.419203 2.419203 39.497188 138 138 138 0
2.503647 2.407353 39.303724 139 139 139 0
2.590560 2.398666 39.161898 135 135 135 0
2.684982 2.397305 39.139677 134 134 134 0
2.774802 2.392071 39.054219 134 134 134 0
2.865154 2.387628 38.981682 131 131 131 0
2.963391 2.389831 39.017653 132 132 132 0
3.053771 2.385758 38.951159 127 127 127 0
3.146736 2.383891 38.920663 132 132 132 0
3.239920 2.382294 38.894598 130 130 130 0
3.325821 2.375587 38.785086 130 130 130 0
3.429770 2.381785 38.886286 128 128 128 0
3.520648 2.378816 38.837816 127 127 127 0
3.614418 2.377906 38.822960 123 123 123 0
3.707283 2.376464 38.799405 124 124 124 0
3.806655 2.379159 38.843415 119 119 119 0
3.897694 2.376643 38.802333 117 117 117 0
3.994213 2.377508 38.816455 112 112 112 0
4.097695 2.382381 38.896016 110 110 110 0
4.215484 2.395162 39.104678 109 109 109 0
3.664057 2.035587 33.234075 111 111 111 0
3.762528 2.044852 33.385339 107 107 107 0
3.837641 2.041298 33.327322 102 102 102 0
3.928298 2.045989 33.403894 106 106 106 0
4.029895 2.056069 33.568470 103 103 103 0
4.137216 2.068608 33.773191 101 101 101 0
4.296573 2.106163 34.386335 104 104 104 0
4.115443 1.978578 32.303322 99 99 99 0
4.390629 2.071051 33.813085 104 104 104 0
4.487948 2.077754 33.922510 93 93 93 0
4.761639 2.125732 34.705825 74 74 74 0
5.900851 2.588093 42.254573 118 118 118 0
6.010956 2.590929 42.300887 138 138 138 0
6.122367 2.594223 42.354666 132 132 132 0
6.184176 2.576740 42.069227 145 145 145 0
6.270107 2.569716 41.954546 141 141 141 0
6.364902 2.566493 41.901922 147 147 147 0
6.445698 2.557817 41.760270 145 145 145 0
6.527144 2.549666 41.627192 139 139 139 0
6.607812 2.541466 41.493326 135 135 135 0
6.675694 2.528672 41.284441 142 142 142 0
6.764425 2.524039 41.208801 134 134 134 0
6.854170 2.519915 41.141475 137 137 137 0
6.934475 2.512491 41.020261 138 138 138 0
7.018926 2.506759 40.926685 139 139 139 0
7.090452 2.496638 40.761435 136 136 136 0
7.176436 2.491818 40.682746 138 138 138 0
7.481279 2.562082 41.829911 138 138 138 0
7.580960 2.561135 41.814451 136 136 136 0
7.682781 2.560927 41.811053 141 141 141 0
7.616885 2.505554 40.907007 141 141 141 0
8.221387 2.669281 43.580105 141 141 141 0
8.498429 2.723855 44.471108 146 146 146 0
8.607084 2.723761 44.469565 142 142 142 0
-7.355494 2.390536 37.528030 153 153 153 0
-7.258666 2.388928 37.502797 153 153 153 0
-7.158561 2.386187 37.459763 154 154 154 0
-7.068898 2.386901 37.470966 151 151 151 0
-6.981415 2.388379 37.494172 147 147 147 0
-6.886648 2.387371 37.478356 147 147 147 0
-6.795542 2.387623 37.482305 143 143 143 0
-6.713910 2.391256 37.539335 139 139 139 0
-6.631576 2.394736 37.593967 137 137 137 0
-6.538865 2.394514 37.590487 141 141 141 0
-6.450496 2.395899 37.612224 140 140 140 0
-6.363790 2.397950 37.644427 146 146 146 0
-6.279981 2.401169 37.694964 150 150 150 0
-6.186256 2.400637 37.686602 157 157 157 0
-6.094825 2.400992 37.692174 159 159 159 0
-6.006763 2.402705 37.719080 157 157 157 0
-5.906236 2.399408 37.667321 158 158 158 0
-5.808111 2.396998 37.629484 157 157 157 0
-5.720502 2.398920 37.659658 154 154 154 0
-5.625996 2.397965 37.644667 155 155 155 0
-5.526879 2.394981 37.597815 153 153 153 0
-5.435119 2.395137 37.600272 149 149 149 0
-5.349218 2.397925 37.644038 144 144 144 0
-5.258526 2.398626 37.655040 139 139 139 0
-5.163983 2.397563 37.638358 132 132 132 0
-5.078985 2.400975 37.691913 130 130 130 0
-4.997243 2.406080 37.772059 125 125 125 0
-4.912166 2.409742 37.829544 116 116 116 0
-4.830858 2.415429 37.918821 120 120 120 0
-4.339950 2.212523 34.733490 113 113 113 0
-4.280182 2.225694 34.940258 111 111 111 0
-4.205840 2.231670 35.034068 115 115 115 0
-4.139746 2.242363 35.201924 113 113 113 0
-4.453375 2.463569 38.674556 118 118 118 0
-4.323866 2.443924 38.366161 114 114 114 0
-4.178078 2.414001 37.896402 121 121 121 0
-4.143626 2.448506 38.438086 124 124 124 0
-4.106265 2.482858 38.977365 125 125 125 0
-4.063478 2.515486 39.489578 131 131 131 0
-3.988463 2.529269 39.705955 146 146 146 0
-3.893093 2.530510 39.725434 151 151 151 0
-3.793076 2.528717 39.697289 157 157 157 0
-3.666218 2.508465 39.379359 151 151 151 0
-3.526334 2.477964 38.900539 152 152 152 0
-3.392410 2.450074 38.462702 145 145 145 0
-3.281548 2.437721 38.268776 149 149 149 0
-3.181407 2.432840 38.192157 150 150 150 0
-3.071696 2.420124 37.992524 151 151 151 0
-2.967400 2.411013 37.849496 146 146 146 0
-3.154751 2.645920 41.537208 146 146 146 0
-2.765381 2.396664 37.624233 147 147 147 0
-2.667167 2.391253 37.539295 147 147 147 0
-2.561333 2.378381 37.337220 144 144 144 0
-2.728853 2.627785 41.252507 143 143 143 0
-2.371928 2.371928 37.235926 144 144 144 0
-2.273799 2.364751 37.123249 144 144 144 0
-2.411070 2.611992 41.004584 143 143 143 0
-2.088484 2.360895 37.062709 141 141 141 0
-1.996526 2.359531 37.041299 138 138 138 0
-1.900522 2.353028 36.939212 140 140 140 0
-1.810965 2.354254 36.958465 135 135 135 0
-1.720796 2.354773 36.966608 135 135 135 0
-1.628253 2.351920 36.921826 133 133 133 0
-1.537987 2.352215 36.926453 127 127 127 0
-1.447157 2.351630 36.917275 126 126 126 0
-1.358401 2.354562 36.963299 126 126 126 0
-1.268538 2.355857 36.983624 126 126 126 0
-1.177957 2.355914 36.984524 124 124 124 0
-1.088901 2.359285 37.037447 119 119 119 0
-0.998353 2.359743 37.044635 118 118 118 0
-0.909508 2.364721 37.122772 115 115 115 0
-0.818866 2.365612 37.136765 114 114 114 0
-0.728795 2.368582 37.183395 111 111 111 0
-0.638193 2.370432 37.212434 112 112 112 0
-0.488681 2.117617 33.243588 106 106 106 0
-0.407441 2.118692 33.260465 99 99 99 0
-0.326670 2.123355 33.333668 101 101 101 0
-0.246414 2.135588 33.525719 95 95 95 0
-0.165577 2.152503 33.791249 95 95 95 0
-0.082706 2.150350 33.757462 93 93 93 0
0.000000 2.173010 34.113187 98 98 98 0
0.083204 2.163317 33.961016 95 95 95 0
0.166073 2.158951 33.892477 91 91 91 0
0.252271 2.186352 34.322638 92 92 92 0
0.335630 2.181596 34.247971 98 98 98 0
0.448365 2.331500 36.601258 99 99 99 0
0.505446 2.190264 34.384050 106 106 106 0
0.660354 2.452744 38.504617 101 101 101 0
0.754471 2.452030 38.493406 82 82 82 0
0.887531 2.563977 40.250821 99 99 99 0
0.880016 2.288042 35.919033 135 135 135 0
0.966987 2.285606 35.880779 144 144 144 0
1.198823 2.597450 40.776301 145 145 145 0
1.146580 2.293159 35.999357 145 145 145 0
1.399068 2.598270 40.789163 152 152 152 0
1.500379 2.600656 40.826632 151 151 151 0
1.597899 2.596586 40.762735 146 146 146 0
1.693407 2.589916 40.658030 142 142 142 0
1.773665 2.561960 40.219160 144 144 144 0
1.863185 2.549622 40.025460 143 143 143 0
1.952038 2.537649 39.837504 143 143 143 0
2.044545 2.531341 39.738477 135 135 135 0
2.141023 2.530300 39.722136 137 137 137 0
2.229251 2.520023 39.560806 139 139 139 0
2.315901 2.508893 39.386072 134 134 134 0
2.404369 2.500544 39.255008 136 136 136 0
2.502140 2.502140 39.280060 133 133 133 0
2.583981 2.488278 39.062453 138 138 138 0
2.674651 2.483605 38.989083 134 134 134 0
2.767033 2.480789 38.944874 131 131 131 0
2.857652 2.476632 38.879625 134 134 134 0
2.955453 2.478767 38.913138 135 135 135 0
3.044443 2.473610 38.832184 129 129 129 0
3.142134 2.475621 38.863750 133 133 133 0
3.230425 2.470325 38.780610 129 129 129 0
3.321053 2.467068 38.729483 130 130 130 0
3.419582 2.469698 38.770776 128 128 128 0
3.518075 2.472161 38.809428 131 131 131 0
3.610656 2.470449 38.782561 127 127 127 0
3.699465 2.466310 38.717587 128 128 128 0
3.796775 2.467904 38.742601 119 119 119 0
3.883557 2.462744 38.661597 116 116 116 0
3.992212 2.471369 38.797007 114 114 114 0
4.088879 2.472346 38.812332 112 112 112 0
4.189221 2.475449 38.861045 108 108 108 0
4.286838 2.476840 38.882885 109 109 109 0
4.393839 2.483474 38.987037 106 106 106 0
3.836550 2.122347 33.317850 103 103 103 0
3.912525 2.119285 33.269773 107 107 107 0
4.001100 2.123033 33.328617 104 104 104 0
4.106763 2.135517 33.524595 106 106 106 0
4.207426 2.144962 33.672878 103 103 103 0
4.070332 2.035166 31.949233 106 106 106 0
4.402545 2.159739 33.904849 100 100 100 0
4.507527 2.170291 34.070500 104 104 104 0
4.610531 2.179524 34.215446 68 68 68 0
5.864535 2.675051 41.994520 86 86 86 0
6.001566 2.690357 42.234805 134 134 134 0
6.105966 2.690765 42.241202 137 137 137 0
6.186817 2.680954 42.087191 142 142 142 0
6.269989 2.672454 41.953760 142 142 142 0
6.336205 2.657118 41.713003 139 139 139 0
6.414172 2.647119 41.556024 142 142 142 0
6.497909 2.639775 41.440745 139 139 139 0
6.582620 2.633048 41.335130 138 138 138 0
6.675799 2.629860 41.285089 139 139 139 0
6.734632 2.613439 41.027303 138 138 138 0
6.837969 2.614518 41.044232 135 135 135 0
6.933334 2.612561 41.013513 135 135 135 0
6.992709 2.597292 40.773812 136 136 136 0
7.069210 2.588725 40.639324 136 136 136 0
7.221647 2.607817 40.939040 137 137 137 0
7.480766 2.664382 41.827038 138 138 138 0
7.420984 2.607373 40.932070 140 140 140 0
7.681323 2.662859 41.803119 140 140 140 0
8.114270 2.775934 43.578250 142 142 142 0
8.221715 2.776164 43.581846 140 140 140 0
8.498342 2.832781 44.470656 143 143 143 0
8.261009 2.718813 42.681526 146 146 146 0
-7.348159 2.480004 37.490605 156 156 156 0
-7.254355 2.479336 37.480521 154 154 154 0
-7.151273 2.475441 37.421628 153 153 153 0
-7.065527 2.477522 37.453098 152 152 152 0
-6.976388 2.478454 37.467174 149 149 149 0
-6.882268 2.477616 37.454518 143 143 143 0
-6.791126 2.477843 37.457948 140 140 140 0
-6.710965 2.482138 37.522867 137 137 137 0
-6.625977 2.484741 37.562226 138 138 138 0
-6.535556 2.485352 37.571464 139 139 139 0
-6.447121 2.486747 37.592545 142 142 142 0
-6.364725 2.490545 37.649958 145 145 145 0
-6.279728 2.493421 37.693443 147 147 147 0
-6.184111 2.492105 37.673538 154 154 154 0
-6.092021 2.492190 37.674837 155 155 155 0
-6.007913 2.495595 37.726297 157 157 157 0
-5.907518 2.492234 37.675498 157 157 157 0
-5.805922 2.488252 37.615300 155 155 155 0
-5.718066 2.490126 37.643621 155 155 155 0
-5.624170 2.489387 37.632451 155 155 155 0
-5.521284 2.484578 37.559754 153 153 153 0
-5.433823 2.486665 37.591303 149 149 149 0
-5.346630 2.488948 37.625825 146 146 146 0
-5.252723 2.488132 37.613484 139 139 139 0
-5.159411 2.487573 37.605034 134 134 134 0
-5.075408 2.491564 37.665362 133 133 133 0
-4.996321 2.498160 37.765085 125 125 125 0
-4.905487 2.499022 37.778107 123 123 123 0
-4.821716 2.503583 37.847064 117 117 117 0
-4.336691 2.295895 34.707409 115 115 115 0
-4.276695 2.309415 34.911794 119 119 119 0
-4.595102 2.531995 38.276568 114 114 114 0
-4.529637 2.547921 38.517325 115 115 115 0
-4.071951 2.339206 35.362143 115 115 115 0
-4.195398 2.462516 37.226251 115 115 115 0
-4.167976 2.500786 37.804773 116 116 116 0
-4.145884 2.544065 38.459039 124 124 124 0
-4.105281 2.577735 38.968022 113 113 113 0
-4.051918 2.604804 39.377238 91 91 91 0
-3.995162 2.630960 39.772642 116 116 116 0
-3.895243 2.629289 39.747380 147 147 147 0
-3.783735 2.619509 39.599525 151 151 151 0
-3.655947 2.597647 39.269037 149 149 149 0
-3.504390 2.557257 38.658462 148 148 148 0
-3.382922 2.537192 38.355127 147 147 147 0
-3.272994 2.524881 38.169024 146 146 146 0
-3.169127 2.516659 38.044739 144 144 144 0
-3.065144 2.507845 37.911486 149 149 149 0
-2.958740 2.496437 37.739028 147 147 147 0
-3.141670 2.736293 41.364976 146 146 146 0
-3.042346 2.738111 41.392461 145 145 145 0
-2.932250 2.730026 41.270231 145 145 145 0
-2.827056 2.726090 41.210731 150 150 150 0
-2.462790 2.462790 37.230383 145 145 145 0
-2.366782 2.457812 37.155134 143 143 143 0
-2.272449 2.454245 37.101205 144 144 144 0
-2.178630 2.450959 37.051539 142 142 142 0
-2.084539 2.447067 36.992700 145 145 145 0
-1.989714 2.441921 36.914911 140 140 140 0
-1.899829 2.442638 36.925738 141 141 141 0
-1.806171 2.438331 36.860642 137 137 137 0
-1.717033 2.439994 36.885777 135 135 135 0
-1.624946 2.437420 36.846857 130 130 130 0
-1.533850 2.436115 36.827139 127 127 127 0
-1.445590 2.439433 36.877290 130 130 130 0
-1.354528 2.438151 36.857909 126 126 126 0
-1.265101 2.439838 36.883413 124 124 124 0
-1.174363 2.439061 36.871672 121 121 121 0
-1.085987 2.443472 36.938345 120 120 120 0
-0.996400 2.445709 36.972173 123 123 123 0
-0.906338 2.447112 36.993372 116 116 116 0
-0.817073 2.451220 37.055483 115 115 115 0
-0.726495 2.451919 37.066053 114 114 114 0
-0.637117 2.457450 37.149656 108 108 108 0
-0.546730 2.460285 37.192514 108 108 108 0
-0.407833 2.202296 33.292454 103 103 103 0
-0.325726 2.198652 33.237362 95 95 95 0
-0.245489 2.209405 33.399921 96 96 96 0
-0.163360 2.205354 33.338689 98 98 98 0
-0.082348 2.223409 33.611618 95 95 95 0
0.000000 2.246373 33.958771 97 97 97 0
0.083063 2.242693 33.903146 93 93 93 0
0.166028 2.241372 33.883172 97 97 97 0
0.252719 2.274475 34.383594 93 93 93 0
0.342057 2.308883 34.903754 93 93 93 0
0.427448 2.308219 34.893715 92 92 92 0
0.519946 2.339757 35.370476 98 98 98 0
0.591277 2.280639 34.476786 99 99 99 0
0.764704 2.580875 39.015494 83 83 83 0
0.866455 2.599366 39.295032 77 77 77 0
0.988425 2.668746 40.343859 104 104 104 0
1.100090 2.700221 40.819660 136 136 136 0
1.062961 2.391662 36.155136 147 147 147 0
1.300368 2.700764 40.827876 149 149 149 0
1.402605 2.705024 40.892268 148 148 148 0
1.499375 2.698876 40.799333 147 147 147 0
1.596169 2.693535 40.718590 144 144 144 0
1.679142 2.666872 40.315526 143 143 143 0
1.768676 2.653014 40.106031 141 141 141 0
1.859430 2.642348 39.944794 143 143 143 0
1.950698 2.633442 39.810154 140 140 140 0
2.043777 2.627713 39.723555 138 138 138 0
2.134731 2.619897 39.605402 141 141 141 0
2.226548 2.613774 39.512829 139 139 139 0
2.312689 2.601776 39.331452 139 139 139 0
2.398358 2.590227 39.156864 138 138 138 0
2.485333 2.580923 39.016214 141 141 141 0
2.575198 2.575198 38.929680 140 140 140 0
2.670465 2.575091 38.928056 135 135 135 0
2.760588 2.570202 38.854152 134 134 134 0
2.852522 2.567270 38.809827 137 137 137 0
2.948896 2.568393 38.826805 130 130 130 0
3.039303 2.564412 38.766626 132 132 132 0
3.137609 2.567134 38.807775 132 132 132 0
3.228171 2.563547 38.753548 133 133 133 0
3.317942 2.559555 38.693202 130 130 130 0
3.409654 2.557240 38.658207 128 128 128 0
3.504886 2.557619 38.663937 128 128 128 0
3.595014 2.554352 38.614544 126 126 126 0
3.687588 2.552946 38.593286 124 124 124 0
3.787547 2.556594 38.648441 124 124 124 0
3.883637 2.557517 38.662391 120 120 120 0
3.980414 2.558837 38.682348 118 118 118 0
4.065809 2.552950 38.593348 110 110 110 0
4.181154 2.565708 38.786218 110 110 110 0
4.283740 2.570244 38.854783 110 110 110 0
3.737036 2.193478 33.159152 104 104 104 0
3.814786 2.191473 33.128837 106 106 106 0
3.913929 2.201585 33.281708 106 106 106 0
4.002692 2.205565 33.341878 103 103 103 0
4.080650 2.203551 33.311427 101 101 101 0
4.179998 2.212940 33.453362 97 97 97 0
4.198676 2.180082 32.956638 98 98 98 0
4.373072 2.227791 33.677872 96 96 96 0
4.517774 2.258887 34.147953 104 104 104 0
4.640689 2.278157 34.439254 72 72 72 0
5.857382 2.774549 41.943300 79 79 79 0
5.985674 2.786434 42.122969 128 128 128 0
6.088607 2.786311 42.121111 135 135 135 0
6.164827 2.774172 41.937596 138 138 138 0
6.251843 2.767209 41.832341 135 135 135 0
6.328131 2.755799 41.659845 142 142 142 0
6.411952 2.747979 41.541639 138 138 138 0
6.504568 2.744115 41.483217 139 139 139 0
6.593038 2.738646 41.400551 137 137 137 0
6.652081 2.721306 41.138410 133 133 133 0
6.740899 2.716482 41.065482 139 139 139 0
6.828896 2.711473 40.989770 137 137 137 0
6.912285 2.704807 40.888999 140 140 140 0
7.008152 2.703144 40.863858 140 140 140 0
7.067710 2.687721 40.630696 139 139 139 0
7.223738 2.708902 40.950895 138 138 138 0
7.321094 2.707802 40.934269 138 138 138 0
7.579154 2.765367 41.804491 142 142 142 0
7.681684 2.765406 41.805080 140 140 140 0
7.782153 2.764712 41.794594 140 140 140 0
8.221008 2.882691 43.578098 145 145 145 0
8.497050 2.941287 44.463895 145 145 145 0
7.713852 2.636380 39.854570 144 144 144 0
-7.343540 2.570239 37.467040 155 155 155 0
-7.249417 2.569414 37.455010 155 155 155 0
-7.148603 2.566165 37.407655 154 154 154 0
-7.060750 2.567545 37.427775 153 153 153 0
-6.975075 2.569764 37.460123 149 149 149 0
-6.878822 2.568094 37.435766 143 143 143 0
-6.786639 2.567917 37.433198 139 139 139 0
-6.708460 2.573108 37.508861 139 139 139 0
-6.625767 2.576687 37.561036 138 138 138 0
-6.532280 2.576110 37.552629 135 135 135 0
-6.446709 2.578684 37.590140 143 143 143 0
-6.362121 2.581730 37.634551 144 144 144 0
-6.276981 2.584639 37.676955 145 145 145 0
-6.180540 2.582912 37.651780 151 151 151 0
-6.088057 2.582812 37.650323 155 155 155 0
-5.999608 2.584447 37.674148 156 156 156 0
-5.901487 2.581901 37.637034 155 155 155 0
-5.801787 2.578572 37.588514 156 156 156 0
-5.715581 2.581230 37.627262 154 154 154 0
-5.622736 2.580928 37.622856 156 156 156 0
-5.518586 2.575340 37.541403 154 154 154 0
-5.428959 2.576455 37.557658 151 151 151 0
-5.343589 2.579664 37.604428 146 146 146 0
-5.248523 2.578222 37.583410 139 139 139 0
-5.156410 2.578205 37.583160 136 136 136 0
-5.073223 2.582732 37.649149 132 132 132 0
-4.989804 2.587306 37.715829 122 122 122 0
-4.902697 2.590104 37.756618 121 121 121 0
-4.398472 2.368408 34.524896 114 114 114 0
-4.330139 2.377331 34.654978 111 111 111 0
-4.263764 2.387708 34.806238 114 114 114 0
-4.197678 2.398673 34.966079 117 117 117 0
-4.127638 2.407789 35.098966 115 115 115 0
-4.065529 2.422017 35.306375 119 119 119 0
-3.946589 2.402272 35.018540 112 112 112 0
-4.166802 2.592677 37.794121 120 120 120 0
-4.126253 2.625797 38.276931 113 113 113 0
-4.099508 2.669447 38.913220 110 110 110 0
-4.049462 2.699641 39.353369 68 68 68 0
-3.992532 2.726607 39.746461 75 75 75 0
-3.897868 2.728507 39.774158 141 141 141 0
-3.776556 2.711374 39.524396 146 146 146 0
-3.650257 2.689663 39.207914 150 150 150 0
-3.498092 2.647205 38.588990 142 142 142 0
-3.373256 2.623643 38.245530 150 150 150 0
-3.268338 2.614671 38.114731 144 144 144 0
-3.161915 2.603930 37.958160 144 144 144 0
-3.059519 2.595956 37.841920 143 143 143 0
-2.952714 2.583625 37.662174 148 148 148 0
-2.843658 2.568465 37.441184 147 147 147 0
-2.749290 2.566004 37.405308 144 144 144 0
-2.648769 2.557432 37.280354 140 140 140 0
-2.551896 2.551896 37.199649 143 143 143 0
-2.709512 2.809865 40.960127 146 146 146 0
-2.361388 2.543033 37.070450 142 142 142 0
-2.265414 2.537264 36.986351 140 140 140 0
-2.170634 2.532406 36.915541 142 142 142 0
-2.078708 2.530601 36.889226 141 141 141 0
-1.988462 2.530770 36.891688 137 137 137 0
-1.891650 2.522200 36.766759 135 135 135 0
-1.802002 2.522802 36.775544 137 137 137 0
-1.713276 2.524828 36.805068 133 133 133 0
-1.621018 2.521583 36.757775 131 131 131 0
-1.528038 2.516769 36.687594 129 129 129 0
-1.443246 2.525681 36.817506 130 130 130 0
-1.352025 2.523779 36.789788 126 126 126 0
-1.261100 2.522201 36.766772 124 124 124 0
-1.171388 2.522990 36.778281 123 123 123 0
-1.083497 2.528160 36.853643 121 121 121 0
-0.993832 2.529755 36.876901 123 123 123 0
-0.903559 2.529964 36.879940 117 117 117 0
-0.814705 2.534638 36.948081 114 114 114 0
-0.725696 2.539935 37.025289 115 115 115 0
-0.634950 2.539800 37.023325 109 109 109 0
-0.545728 2.546732 37.124376 108 108 108 0
-0.455643 2.551601 37.195350 102 102 102 0
-0.325018 2.275124 33.165069 95 95 95 0
-0.243549 2.273125 33.135931 101 101 101 0
-0.163699 2.291793 33.408055 99 99 99 0
-0.081908 2.293415 33.431708 95 95 95 0
0.000000 2.318248 33.793709 94 94 94 0
0.082499 2.309974 33.673095 96 96 96 0
0.165575 2.318044 33.790722 95 95 95 0
0.247589 2.310831 33.685587 92 92 92 0
0.307247 2.150729 31.351741 93 93 93 0
0.412344 2.309126 33.660729 94 94 94 0
0.500427 2.335324 34.042622 99 99 99 0
0.666371 2.665483 38.855443 102 102 102 0
0.762040 2.667139 38.879576 80 80 80 0
0.868156 2.700928 39.372132 73 73 73 0
0.972829 2.723921 39.707300 70 70 70 0
1.099601 2.798985 40.801533 115 115 115 0
1.202942 2.806864 40.916389 143 143 143 0
1.149970 2.476859 36.105814 145 145 145 0
1.401387 2.802773 40.856754 142 142 142 0
1.501981 2.803697 40.870223 146 146 146 0
1.585426 2.774496 40.444553 141 141 141 0
1.672187 2.754191 40.148555 139 139 139 0
1.767162 2.748919 40.071711 136 136 136 0
1.860029 2.741096 39.957663 138 138 138 0
1.946913 2.725679 39.732926 141 141 141 0
2.037559 2.716745 39.602696 138 138 138 0
2.132217 2.713730 39.558748 136 136 136 0
2.221031 2.703864 39.414923 139 139 139 0
2.304322 2.688376 39.189151 138 138 138 0
2.396674 2.684275 39.129374 139 139 139 0
2.481011 2.671858 38.948365 141 141 141 0
2.576215 2.671630 38.945047 134 134 134 0
2.663504 2.663504 38.826582 134 134 134 0
2.754876 2.659881 38.773771 136 136 136 0
2.847333 2.657511 38.739230 136 136 136 0
2.939123 2.654692 38.698127 136 136 136 0
3.029922 2.651182 38.646968 132 132 132 0
3.125027 2.651538 38.652156 130 130 130 0
3.221567 2.653055 38.674278 130 130 130 0
3.308325 2.646660 38.581044 127 127 127 0
3.400015 2.644456 38.548919 131 131 131 0
3.496140 2.645728 38.567462 127 127 127 0
3.587338 2.643302 38.532094 125 125 125 0
3.678404 2.640905 38.497162 129 129 129 0
3.776825 2.643777 38.539029 127 127 127 0
3.875009 2.646348 38.576501 122 122 122 0
3.972659 2.648439 38.606986 119 119 119 0
4.062337 2.645243 38.560391 114 114 114 0
4.164126 2.649899 38.628259 112 112 112 0
4.272053 2.658166 38.748781 110 110 110 0
3.713780 2.260561 32.952791 107 107 107 0
3.802782 2.265487 33.024590 107 107 107 0
3.882458 2.264767 33.014101 103 103 103 0
3.940427 2.251673 32.823219 104 104 104 0
4.083388 2.286698 33.333783 103 103 103 0
4.158638 2.283174 33.282418 99 99 99 0
4.257309 2.292397 33.416865 102 102 102 0
4.431631 2.341239 34.128852 100 100 100 0
4.479519 2.322714 33.858798 105 105 105 0
4.500213 2.291018 33.396757 90 90 90 0
4.778760 2.389380 34.830611 68 68 68 0
4.840965 2.378018 34.664986 83 83 83 0
5.976999 2.885448 42.061924 126 126 126 0
6.071170 2.881233 42.000482 135 135 135 0
6.154222 2.871970 41.865456 136 136 136 0
6.255144 2.871214 41.854428 134 134 134 0
6.311516 2.850362 41.550469 137 137 137 0
6.392497 2.841110 41.415592 133 133 133 0
6.498225 2.842973 41.442762 141 141 141 0
6.554904 2.823651 41.161094 137 137 137 0
6.640977 2.817384 41.069739 137 137 137 0
6.718907 2.807901 40.931506 137 137 137 0
6.815665 2.806450 40.910354 136 136 136 0
6.893093 2.797197 40.775466 139 139 139 0
6.981833 2.792733 40.710398 139 139 139 0
7.062480 2.785203 40.600631 139 139 139 0
7.378680 2.869487 41.829254 141 141 141 0
7.320991 2.808051 40.933691 140 140 140 0
7.291722 2.759030 40.219095 140 140 140 0
7.681218 2.867655 41.802548 143 143 143 0
7.948382 2.928351 42.687334 138 138 138 0
8.220318 2.989206 43.574438 141 141 141 0
8.497366 3.050336 44.465545 143 143 143 0
8.604856 3.049822 44.458050 144 144 144 0
-7.341703 2.661367 37.457667 154 154 154 0
-7.241908 2.658422 37.416213 154 154 154 0
-7.143384 2.655873 37.380343 154 154 154 0
-7.057089 2.657865 37.408371 149 149 149 0
-6.966473 2.658260 37.413927 147 147 147 0
-6.871294 2.656900 37.394796 142 142 142 0
-6.787277 2.659879 37.436718 139 139 139 0
-6.703390 2.662991 37.480516 134 134 134 0
-6.622897 2.667556 37.544765 134 134 134 0
-6.528165 2.666434 37.528976 137 137 137 0
-6.444083 2.669692 37.574828 138 138 138 0
-6.360207 2.673130 37.623227 144 144 144 0
-6.274709 2.675979 37.663318 150 150 150 0
-6.172504 2.671681 37.602829 156 156 156 0
-6.087339 2.674740 37.645884 154 154 154 0
-5.997998 2.676030 37.664038 153 153 153 0
-5.894749 2.671058 37.594062 155 155 155 0
-5.798044 2.668941 37.564266 154 154 154 0
-5.709395 2.670523 37.586535 154 154 154 0
-5.618028 2.670866 37.591352 154 154 154 0
-5.514979 2.665573 37.516866 153 153 153 0
-5.427924 2.667963 37.550494 151 151 151 0
-5.337433 2.668716 37.561101 144 144 144 0
-5.239647 2.665785 37.519850 142 142 142 0
-5.149969 2.666948 37.536217 137 137 137 0
-5.067565 2.671989 37.607164 130 130 130 0
-4.986407 2.677885 37.690154 127 127 127 0
-4.895634 2.678743 37.702224 121 121 121 0
-4.395171 2.451153 34.498986 119 119 119 0
-4.739649 2.695094 37.932361 111 111 111 0
-4.667501 2.707151 38.102053 115 115 115 0
-4.184187 2.476356 34.853702 113 113 113 0
-4.140530 2.501570 35.208589 125 125 125 0
-4.062550 2.506680 35.280504 120 120 120 0
-4.007810 2.526663 35.561755 112 112 112 0
-4.143231 2.670082 37.580323 117 117 117 0
-4.130885 2.722628 38.319894 119 119 119 0
-4.093779 2.760920 38.858838 96 96 96 0
-3.884332 2.816141 39.636039 130 130 130 0
-3.773106 2.805643 39.488285 152 152 152 0
-3.633564 2.772983 39.028612 146 146 146 0
-3.481870 2.729033 38.410035 142 142 142 0
-3.367276 2.712528 38.177729 142 142 142 0
-3.259924 2.701080 38.016608 144 144 144 0
-3.152476 2.688877 37.844853 144 144 144 0
-3.047825 2.678392 37.697278 146 146 146 0
-3.239433 2.935736 41.319293 144 144 144 0
-2.841590 2.658262 37.413957 144 144 144 0
-3.024575 2.923756 41.150684 144 144 144 0
-2.642068 2.642068 37.186036 146 146 146 0
-2.807363 2.907626 40.923654 148 148 148 0
-2.449894 2.631368 37.035441 143 143 143 0
-2.353030 2.624533 36.939240 142 142 142 0
-2.259242 2.620721 36.885589 143 143 143 0
-2.166706 2.618103 36.848743 143 143 143 0
-2.074147 2.615228 36.808282 144 144 144 0
-1.981140 2.611503 36.755842 143 143 143 0
-1.888342 2.607711 36.702475 141 141 141 0
-1.797539 2.606431 36.684464 138 138 138 0
-1.709107 2.608637 36.715515 134 134 134 0
-1.615259 2.602362 36.627186 133 133 133 0
-1.525181 2.601779 36.618986 129 129 129 0
-1.439344 2.608811 36.717954 127 127 127 0
-1.349711 2.609441 36.726821 129 129 129 0
-1.259650 2.609275 36.724485 124 124 124 0
-1.169220 2.608260 36.710202 124 124 124 0
-1.081110 2.612682 36.772440 123 123 123 0
-0.991117 2.612946 36.776152 121 121 121 0
-0.902765 2.618019 36.847559 123 123 123 0
-0.812922 2.619417 36.867232 116 116 116 0
-0.723696 2.623400 36.923287 118 118 118 0
-0.633432 2.624219 36.934819 113 113 113 0
-0.543543 2.627126 36.975729 109 109 109 0
-0.404494 2.346065 33.019911 102 102 102 0
-0.324026 2.349185 33.063829 100 100 100 0
-0.243696 2.355731 33.155958 99 99 99 0
-0.162774 2.360226 33.219226 91 91 91 0
-0.081741 2.370496 33.363774 93 93 93 0
0.000000 2.379270 33.487267 91 91 91 0
0.082137 2.381974 33.525317 92 92 92 0
0.164570 2.386262 33.585670 88 88 88 0
0.250474 2.421252 34.078136 96 96 96 0
0.337745 2.448655 34.463825 89 89 89 0
0.416104 2.413403 33.967665 94 94 94 0
0.502768 2.430047 34.201924 104 104 104 0
0.587523 2.434024 34.257902 109 109 109 0
0.761366 2.759952 38.845202 80 80 80 0
1.093118 2.881855 40.560948 70 70 70 0
1.201976 2.904775 40.883528 129 129 129 0
1.304191 2.909349 40.947915 138 138 138 0
1.402769 2.905737 40.897070 143 143 143 0
1.494738 2.889827 40.673144 142 142 142 0
1.579364 2.862596 40.289886 142 142 142 0
1.667802 2.845074 40.043261 140 140 140 0
1.761152 2.837411 39.935418 142 142 142 0
1.851967 2.826686 39.784459 141 141 141 0
1.944259 2.819175 39.678748 138 138 138 0
2.038252 2.814729 39.616168 136 136 136 0
2.129833 2.807507 39.514531 137 137 137 0
2.212487 2.789658 39.263304 136 136 136 0
2.298061 2.776823 39.082665 136 136 136 0
2.386764 2.768646 38.967578 137 137 137 0
2.478507 2.764489 38.909064 140 140 140 0
2.569410 2.759737 38.842175 138 138 138 0
2.659422 2.754401 38.767082 137 137 137 0
2.747724 2.747724 38.673098 138 138 138 0
2.842386 2.747640 38.671920 134 134 134 0
2.930965 2.741870 38.590713 133 133 133 0
3.021843 2.738545 38.543915 130 130 130 0
3.116374 2.738631 38.545130 131 131 131 0
3.212814 2.740341 38.569197 129 129 129 0
3.299148 2.733580 38.474028 131 131 131 0
3.392357 2.732732 38.462096 130 130 130 0
3.489521 2.735030 38.494438 126 126 126 0
3.581059 2.732914 38.464653 127 127 127 0
3.670872 2.729623 38.418336 125 125 125 0
3.765978 2.730334 38.428348 124 124 124 0
3.861873 2.731569 38.445729 122 122 122 0
3.952504 2.729110 38.411118 117 117 117 0
4.051723 2.732557 38.459637 118 118 118 0
4.157117 2.739918 38.563235 114 114 114 0
4.252414 2.740444 38.570647 110 110 110 0
4.355876 2.746096 38.650187 110 110 110 0
3.780149 2.332433 32.828044 105 105 105 0
3.860890 2.332621 32.830693 102 102 102 0
3.957825 2.342386 32.968135 103 103 103 0
4.038892 2.342557 32.970545 99 99 99 0
4.142264 2.355405 33.151371 100 100 100 0
4.223028 2.355150 33.147790 102 102 102 0
4.234745 2.317125 32.612591 98 98 98 0
4.441084 2.385027 33.568283 97 97 97 0
4.309362 2.272209 31.980424 102 102 102 0
4.699521 2.433680 34.253066 89 89 89 0
5.747583 2.924209 41.157056 90 90 90 0
5.921344 2.960672 41.670262 111 111 111 0
6.045340 2.971438 41.821788 142 142 142 0
6.145932 2.970534 41.809059 143 143 143 0
6.236077 2.964692 41.726843 140 140 140 0
6.308949 2.950960 41.533569 138 138 138 0
6.380763 2.937177 41.339573 136 136 136 0
6.482922 2.937574 41.345167 138 138 138 0
6.562598 2.927928 41.209405 139 139 139 0
6.649782 2.921874 41.124196 140 140 140 0
6.730150 2.913050 41.000000 134 134 134 0
6.804498 2.901918 40.843325 135 135 135 0
6.889219 2.895469 40.752551 139 139 139 0
6.991750 2.896582 40.768219 136 136 136 0
7.034119 2.873091 40.437591 138 138 138 0
7.127071 2.870626 40.402895 137 137 137 0
7.478004 2.970714 41.811598 140 140 140 0
7.298638 2.860277 40.257242 138 138 138 0
7.680235 2.969691 41.797198 140 140 140 0
7.614665 2.905596 40.895088 142 142 142 0
8.220691 3.096104 43.576415 141 141 141 0
8.496345 3.158898 44.460205 141 141 141 0
8.604886 3.158756 44.458207 148 148 148 0
-7.336095 2.751036 37.429058 153 153 153 0
-7.235916 2.747816 37.385254 153 153 153 0
-7.137141 2.745054 37.347679 155 155 155 0
-7.053164 2.747986 37.387563 153 153 153 0
-6.962420 2.748324 37.392161 148 148 148 0
-6.870754 2.748302 37.391858 143 143 143 0
-6.782960 2.749849 37.412906 140 140 140 0
-6.704565 2.755301 37.487086 137 137 137 0
-6.615551 2.756479 37.503122 135 135 135 0
-6.526501 2.757676 37.519407 138 138 138 0
-6.438568 2.759386 37.542669 144 144 144 0
-6.357822 2.764270 37.609121 146 146 146 0
-6.272725 2.767379 37.651411 151 151 151 0
-6.174532 2.764716 37.615181 155 155 155 0
-6.085228 2.766013 37.632826 155 155 155 0
-5.992736 2.765878 37.630993 157 157 157 0
-5.888749 2.760351 37.555800 153 153 153 0
-5.795409 2.759718 37.547190 153 153 153 0
-5.708419 2.762138 37.580110 154 154 154 0
