ply
format ascii 1.0
element vertex 1124
property float x
property float y
property float z
property uchar red
property uchar green
property uchar blue
property uchar alpha
end_header
-8.204810 0.807031 54.900035 144 144 144 0
-8.070476 0.807048 54.901198 147 147 147 0
-7.936237 0.807075 54.903055 139 139 139 0
-7.801893 0.807092 54.904241 138 138 138 0
-7.667394 0.807094 54.904362 141 141 141 0
-7.533200 0.807129 54.906705 144 144 144 0
-7.398809 0.807143 54.907672 141 141 141 0
-7.264620 0.807180 54.910201 141 141 141 0
-7.129967 0.807166 54.909258 141 141 141 0
-6.995753 0.807202 54.911718 139 139 139 0
-6.861626 0.807250 54.914976 141 141 141 0
-6.727134 0.807256 54.915377 140 140 140 0
-6.593010 0.807307 54.918866 138 138 138 0
-6.458763 0.807345 54.921456 136 136 136 0
-6.324508 0.807384 54.924084 140 140 140 0
-6.189311 0.807301 54.918464 130 130 130 0
-6.062280 0.808304 54.986664 119 119 119 0
-5.927464 0.808290 54.985748 128 128 128 0
-5.792623 0.808273 54.984555 128 128 128 0
-5.657987 0.808284 54.985301 128 128 128 0
-5.522963 0.808238 54.982205 127 127 127 0
-5.388277 0.808242 54.982417 126 126 126 0
-4.915774 0.756273 51.447139 127 127 127 0
-4.793334 0.756842 51.485862 126 126 126 0
-4.683345 0.759461 51.664035 126 126 126 0
-4.554514 0.759086 51.638481 129 129 129 0
-4.442740 0.761613 51.810385 130 130 130 0
-4.316031 0.761653 51.813098 130 130 130 0
-4.188723 0.761586 51.808577 129 129 129 0
-4.068414 0.762828 51.893035 136 136 136 0
-3.944288 0.763410 51.932687 134 134 134 0
-4.040246 0.808049 54.969330 134 134 134 0
-3.905590 0.808053 54.969606 130 130 130 0
-3.565805 0.764101 51.979667 131 131 131 0
-3.439174 0.764261 51.990541 135 135 135 0
-3.501506 0.808040 54.968694 136 136 136 0
-3.366721 0.808013 54.966880 134 134 134 0
-3.232054 0.808013 54.966899 138 138 138 0
-3.097448 0.808030 54.968018 137 137 137 0
-2.962689 0.808006 54.966401 140 140 140 0
-2.828057 0.808016 54.967092 136 136 136 0
-2.693389 0.808017 54.967130 139 139 139 0
-2.558725 0.808019 54.967245 137 137 137 0
-2.424056 0.808019 54.967246 140 140 140 0
-2.289388 0.808019 54.967298 135 135 135 0
-2.154780 0.808043 54.968883 135 135 135 0
-2.020183 0.808073 54.970958 133 133 133 0
-1.885440 0.808046 54.969100 136 136 136 0
-1.750790 0.808057 54.969871 135 135 135 0
-1.616122 0.808061 54.970127 132 132 132 0
-1.481494 0.808088 54.971940 136 136 136 0
-1.346785 0.808071 54.970807 134 134 134 0
-1.212125 0.808083 54.971639 134 134 134 0
-1.077497 0.808122 54.974315 134 134 134 0
-0.942817 0.808129 54.974753 133 133 133 0
-0.808140 0.808140 54.975480 133 133 133 0
-0.673463 0.808155 54.976559 131 131 131 0
-0.538784 0.808176 54.977952 133 133 133 0
-0.404106 0.808212 54.980383 141 141 141 0
-0.269418 0.808253 54.983225 131 131 131 0
-0.134714 0.808284 54.985301 134 134 134 0
0.000000 0.808325 54.988088 132 132 132 0
0.134723 0.808337 54.988909 131 131 131 0
0.269469 0.808407 54.993676 125 125 125 0
0.404217 0.808433 54.995464 128 128 128 0
0.538770 0.808154 54.976488 128 128 128 0
0.672623 0.807147 54.907965 129 129 129 0
0.805264 0.805264 54.779874 125 125 125 0
0.933705 0.800319 54.443455 127 127 127 0
1.063826 0.797870 54.276857 122 122 122 0
1.192174 0.794783 54.066868 124 124 124 0
1.320253 0.792152 53.887894 120 120 120 0
1.479842 0.807187 54.910653 121 121 121 0
1.571120 0.785560 53.439448 121 121 121 0
1.701031 0.785091 53.407553 120 120 120 0
1.822739 0.781174 53.141089 121 121 121 0
1.942658 0.777063 52.861451 117 117 117 0
2.153122 0.807421 54.926576 121 121 121 0
2.193392 0.774138 52.662477 120 120 120 0
2.307962 0.769321 52.334739 119 119 119 0
2.431895 0.767967 52.242641 116 116 116 0
2.546005 0.763801 51.959281 118 118 118 0
2.674373 0.764107 51.980045 117 117 117 0
2.786235 0.759882 51.692676 118 118 118 0
2.907064 0.758365 51.589427 119 119 119 0
3.027543 0.756886 51.488829 115 115 115 0
3.134172 0.752201 51.170161 116 116 116 0
3.251837 0.750424 51.049239 114 114 114 0
3.366564 0.748125 50.892887 114 114 114 0
3.478428 0.745377 50.705942 114 114 114 0
3.600874 0.745008 50.680844 113 113 113 0
3.714458 0.742892 50.536849 112 112 112 0
3.834422 0.742146 50.486131 114 114 114 0
3.936937 0.738176 50.216027 111 111 111 0
4.056268 0.737503 50.170285 113 113 113 0
4.170709 0.736007 50.068532 118 118 118 0
4.287447 0.734991 49.999384 112 112 112 0
4.407611 0.734602 49.972914 114 114 114 0
4.521894 0.733280 49.883000 111 111 111 0
4.635231 0.731879 49.787655 113 113 113 0
4.751873 0.731057 49.731791 113 113 113 0
4.873512 0.731027 49.729709 113 113 113 0
4.989340 0.730147 49.669890 115 115 115 0
5.093584 0.727655 49.500335 114 114 114 0
5.222386 0.728705 49.571768 114 114 114 0
5.329559 0.726758 49.439322 112 112 112 0
5.444347 0.725913 49.381834 112 112 112 0
5.560929 0.725339 49.342762 112 112 112 0
5.687788 0.726101 49.394599 112 112 112 0
5.797146 0.724643 49.295463 116 116 116 0
5.920912 0.725010 49.320386 110 110 110 0
6.036345 0.724361 49.276284 112 112 112 0
6.151791 0.723740 49.234025 113 113 113 0
6.269211 0.723370 49.208874 113 113 113 0
6.386599 0.723011 49.184435 113 113 113 0
6.500928 0.722325 49.137781 114 114 114 0
6.622576 0.722463 49.147132 112 112 112 0
6.739323 0.722070 49.120431 113 113 113 0
6.859221 0.722023 49.117230 112 112 112 0
6.974799 0.721531 49.083734 114 114 114 0
7.081410 0.720143 48.989350 112 112 112 0
7.197479 0.719748 48.962445 112 112 112 0
7.324865 0.720479 49.012146 115 115 115 0
7.430392 0.719070 48.916340 115 115 115 0
7.551487 0.719189 48.924438 116 116 116 0
7.674225 0.719459 48.942765 113 113 113 0
7.777981 0.717967 48.841326 113 113 113 0
7.901193 0.718290 48.863284 112 112 112 0
8.016806 0.717923 48.838296 112 112 112 0
8.146475 0.718807 48.898412 109 109 109 0
8.277483 0.719781 48.964706 108 108 108 0
8.400405 0.720035 48.981953 110 110 110 0
8.507187 0.718917 48.905930 111 111 111 0
8.649606 0.720801 49.034050 111 111 111 0
8.755524 0.719632 48.954566 113 113 113 0
8.878515 0.719880 48.971402 114 114 114 0
9.008643 0.720691 49.026626 111 111 111 0
9.125313 0.720419 49.008128 111 111 111 0
9.247127 0.720555 49.017373 112 112 112 0
9.374345 0.721103 49.054656 111 111 111 0
9.494580 0.721107 49.054923 113 113 113 0
-9.779167 0.855677 49.893712 150 150 150 0
-9.708819 0.860275 50.161811 149 149 149 0
-10.002841 0.897691 52.343491 149 149 149 0
-9.503346 0.863941 50.375540 146 146 146 0
-10.240486 0.943203 54.997242 141 141 141 0
-9.444045 0.881444 51.396164 135 135 135 0
-9.311057 0.880776 51.357181 136 136 136 0
-9.310426 0.892781 52.057176 138 138 138 0
-9.431968 0.916997 53.469205 136 136 136 0
-9.559594 0.942495 54.955989 135 135 135 0
-9.427980 0.942798 54.973642 137 137 137 0
-9.260233 0.939444 54.778072 138 138 138 0
-9.158469 0.942784 54.972803 135 135 135 0
-8.826888 0.922212 53.773304 142 142 142 0
-8.877443 0.941547 54.900697 142 142 142 0
-8.742612 0.941512 54.898663 139 139 139 0
-8.608194 0.941521 54.899196 143 143 143 0
-8.473647 0.941516 54.898909 140 140 140 0
-8.339305 0.941534 54.899964 139 139 139 0
-8.204947 0.941551 54.900952 143 143 143 0
-8.070532 0.941562 54.901578 143 143 143 0
-7.936326 0.941598 54.903673 138 138 138 0
-7.801903 0.941609 54.904314 140 140 140 0
-7.667520 0.941625 54.905265 145 145 145 0
-7.533323 0.941665 54.907602 142 142 142 0
-7.398778 0.941663 54.907446 141 141 141 0
-7.264426 0.941685 54.908741 142 142 142 0
-7.130088 0.941710 54.910187 141 141 141 0
-6.995745 0.941735 54.911653 137 137 137 0
-6.861592 0.941787 54.914699 137 137 137 0
-6.727170 0.941804 54.915672 141 141 141 0
-6.592960 0.941851 54.918449 137 137 137 0
-6.458589 0.941878 54.919975 137 137 137 0
-6.324384 0.941930 54.923008 136 136 136 0
-6.190222 0.941990 54.926550 136 136 136 0
-6.055100 0.941904 54.921539 129 129 129 0
-5.927346 0.942987 54.984655 126 126 126 0
-5.792618 0.942984 54.984508 129 129 129 0
-5.657950 0.942992 54.984936 131 131 131 0
-5.523111 0.942970 54.983681 127 127 127 0
-5.388446 0.942978 54.984145 129 129 129 0
-4.919113 0.882918 51.482078 128 128 128 0
-4.796656 0.883594 51.521545 128 128 128 0
-4.677710 0.884972 51.601879 129 129 129 0
-4.554420 0.885582 51.637410 132 132 132 0
-4.441898 0.888380 51.800554 126 126 126 0
-4.316031 0.888595 51.813098 128 128 128 0
-4.194446 0.889731 51.879360 129 129 129 0
-4.073732 0.891129 51.960864 133 133 133 0
-3.947440 0.891357 51.974198 135 135 135 0
-4.040213 0.942716 54.968885 133 133 133 0
-3.701933 0.893570 52.103212 137 137 137 0
-3.770763 0.942691 54.967385 134 134 134 0
-3.636061 0.942683 54.966914 138 138 138 0
-3.501446 0.942697 54.967759 135 135 135 0
-3.366698 0.942676 54.966504 139 139 139 0
-3.231971 0.942658 54.965489 139 139 139 0
-3.097348 0.942671 54.966241 139 139 139 0
-2.804275 0.892269 52.027363 138 138 138 0
-2.828001 0.942667 54.966010 140 140 140 0
-2.693344 0.942670 54.966209 138 138 138 0
-2.558643 0.942658 54.965489 139 139 139 0
-2.424021 0.942675 54.966463 141 141 141 0
-2.289332 0.942666 54.965947 136 136 136 0
-2.154728 0.942693 54.967541 139 139 139 0
-2.020051 0.942690 54.967364 138 138 138 0
-1.885386 0.942693 54.967535 139 139 139 0
-1.750784 0.942730 54.969663 138 138 138 0
-1.616065 0.942705 54.968198 134 134 134 0
-1.481418 0.942721 54.969137 141 141 141 0
-1.346749 0.942724 54.969353 136 136 136 0
-1.212096 0.942742 54.970352 136 136 136 0
-1.077412 0.942736 54.970000 134 134 134 0
-0.942782 0.942782 54.972688 136 136 136 0
-0.808057 0.942734 54.969898 133 133 133 0
-0.673435 0.942809 54.974267 136 136 136 0
-0.538773 0.942853 54.976858 137 137 137 0
-0.404091 0.942879 54.978343 136 136 136 0
-0.269398 0.942893 54.979194 130 130 130 0
-0.134707 0.942951 54.982546 135 135 135 0
0.000000 0.942964 54.983317 129 129 129 0
0.134718 0.943027 54.986991 134 134 134 0
0.269446 0.943062 54.989062 134 134 134 0
0.404179 0.943084 54.990303 128 128 128 0
0.538933 0.943133 54.993180 128 128 128 0
0.673721 0.943210 54.997641 130 130 130 0
0.808497 0.943247 54.999823 129 129 129 0
0.939246 0.939246 54.766518 126 126 126 0
1.069676 0.935966 54.575283 125 125 125 0
1.199831 0.933202 54.414100 125 125 125 0
1.328654 0.930058 54.230777 125 125 125 0
1.456727 0.927008 54.052964 119 119 119 0
1.585675 0.924977 53.934507 123 123 123 0
1.704492 0.917803 53.516237 120 120 120 0
1.831028 0.915514 53.382752 121 121 121 0
2.018195 0.941824 54.916880 120 120 120 0
2.082812 0.911230 53.132955 120 120 120 0
2.287445 0.941889 54.920650 121 121 121 0
2.320991 0.902608 52.630183 118 118 118 0
2.556831 0.941990 54.926558 119 119 119 0
2.564203 0.897471 52.330668 116 116 116 0
2.686443 0.895481 52.214639 117 117 117 0
2.798495 0.890430 51.920134 119 119 119 0
2.925768 0.890451 51.921348 117 117 117 0
3.037899 0.886054 51.664957 116 116 116 0
3.156496 0.883819 51.534625 119 119 119 0
3.274421 0.881575 51.403786 115 115 115 0
3.399136 0.881257 51.385269 115 115 115 0
3.500114 0.875028 51.022066 115 115 115 0
3.617560 0.873204 50.915698 115 115 115 0
3.739178 0.872475 50.873171 113 113 113 0
3.837260 0.866478 50.523503 113 113 113 0
3.961412 0.866559 50.528217 114 114 114 0
4.086438 0.866820 50.543455 113 113 113 0
4.196401 0.863965 50.376959 114 114 114 0
4.305930 0.861186 50.214924 115 115 115 0
4.423251 0.860077 50.150239 113 113 113 0
4.536008 0.858164 50.038698 115 115 115 0
4.660218 0.858461 50.056043 112 112 112 0
4.769035 0.855981 49.911411 115 115 115 0
4.897052 0.856984 49.969914 113 113 113 0
5.005733 0.854637 49.833085 113 113 113 0
5.123156 0.853859 49.787716 111 111 111 0
5.242539 0.853437 49.763068 112 112 112 0
5.355919 0.852078 49.683848 112 112 112 0
5.475562 0.851754 49.664959 109 109 109 0
5.595409 0.851475 49.648701 111 111 111 0
5.707461 0.850047 49.565445 111 111 111 0
5.816013 0.848169 49.455894 112 112 112 0
5.943962 0.849137 49.512386 110 110 110 0
6.058672 0.848214 49.458551 112 112 112 0
6.166908 0.846438 49.355002 114 114 114 0
6.300894 0.848197 49.457569 112 112 112 0
6.403157 0.845700 49.311955 115 115 115 0
6.519850 0.845166 49.280804 113 113 113 0
6.644271 0.845635 49.308135 113 113 113 0
6.761551 0.845194 49.282440 111 111 111 0
6.881124 0.845050 49.274069 114 114 114 0
6.989460 0.843555 49.186908 111 111 111 0
7.110644 0.843636 49.191590 113 113 113 0
7.229171 0.843403 49.178033 113 113 113 0
7.334937 0.841714 49.079541 113 113 113 0
7.460482 0.842312 49.114430 114 114 114 0
7.576261 0.841807 49.084945 112 112 112 0
7.690154 0.841111 49.044348 111 111 111 0
7.810882 0.841172 49.047926 110 110 110 0
7.934773 0.841567 49.070951 109 109 109 0
8.053050 0.841363 49.059093 107 107 107 0
8.176311 0.841679 49.077499 109 109 109 0
8.296143 0.841638 49.075082 109 109 109 0
8.407054 0.840705 49.020721 111 111 111 0
8.542313 0.842200 49.107862 109 109 109 0
8.667539 0.842677 49.135709 111 111 111 0
8.787772 0.842663 49.134871 110 110 110 0
8.906865 0.842541 49.127774 109 109 109 0
9.038140 0.843560 49.187156 108 108 108 0
9.145722 0.842369 49.117736 110 110 110 0
9.294786 0.844981 49.270000 112 112 112 0
9.401858 0.843756 49.198629 112 112 112 0
9.513237 0.842945 49.151315 113 113 113 0
-10.044462 1.004446 51.247257 148 148 148 0
-9.033663 0.914801 46.673534 149 149 149 0
-10.092819 1.035161 52.814334 150 150 150 0
-9.590696 0.996436 50.838567 150 150 150 0
-10.239318 1.077823 54.990964 137 137 137 0
-9.375321 1.000034 51.022153 137 137 137 0
-9.535422 1.030856 52.594716 135 135 135 0
-9.536274 1.045071 53.319954 137 137 137 0
-9.260960 1.028996 52.499772 133 133 133 0
-9.282111 1.045872 53.360796 137 137 137 0
-9.157006 1.046515 53.393620 140 140 140 0
-9.080979 1.052867 53.717709 138 138 138 0
-9.158469 1.077467 54.972803 141 141 141 0
-9.026519 1.077793 54.989453 138 138 138 0
-8.877531 1.076064 54.901243 140 140 140 0
-8.742753 1.076031 54.899550 139 139 139 0
-8.608165 1.076021 54.899012 140 140 140 0
-8.473711 1.076027 54.899326 140 140 140 0
-8.339478 1.076062 54.901108 140 140 140 0
-8.204998 1.076065 54.901293 140 140 140 0
-8.070575 1.076077 54.901869 139 139 139 0
-7.936384 1.076120 54.904072 141 141 141 0
-7.802041 1.076144 54.905287 142 142 142 0
-7.667678 1.076165 54.906398 142 142 142 0
-7.533247 1.076178 54.907050 139 139 139 0
-7.398807 1.076190 54.907661 140 140 140 0
-7.264500 1.076222 54.909295 142 142 142 0
-7.130106 1.076242 54.910330 137 137 137 0
-6.995744 1.076268 54.911650 136 136 136 0
-6.861546 1.076321 54.914330 138 138 138 0
-6.727175 1.076348 54.915716 136 136 136 0
-6.592909 1.076393 54.918025 138 138 138 0
-6.458674 1.076446 54.920696 139 139 139 0
-6.324303 1.076477 54.922304 134 134 134 0
-6.190178 1.076553 54.926162 136 136 136 0
-6.055992 1.076621 54.929632 133 133 133 0
-5.921362 1.076611 54.929142 126 126 126 0
-5.792332 1.077643 54.981797 120 120 120 0
-5.657837 1.077683 54.983841 129 129 129 0
-5.522870 1.077633 54.981286 129 129 129 0
-5.388212 1.077642 54.981758 129 129 129 0
-4.921099 1.009456 51.502864 130 130 130 0
-4.802456 1.011043 51.583842 127 127 127 0
-4.685790 1.013144 51.691009 127 127 127 0
-4.566845 1.014855 51.778291 127 127 127 0
-4.436330 1.014018 51.735630 130 130 130 0
-4.309601 1.014024 51.735908 132 132 132 0
-4.200244 1.018241 51.951064 133 133 133 0
-4.070321 1.017580 51.917358 136 136 136 0
-3.952265 1.019939 52.037722 136 136 136 0
-3.825465 1.020124 52.047148 135 135 135 0
-3.703048 1.021530 52.118901 136 136 136 0
-3.770685 1.077339 54.966256 136 136 136 0
-3.636015 1.077338 54.966213 136 136 136 0
-3.501333 1.077333 54.965983 141 141 141 0
-3.366605 1.077314 54.964976 142 142 142 0
-3.231951 1.077317 54.965147 140 140 140 0
-3.097295 1.077320 54.965304 141 141 141 0
-2.809369 1.021589 52.121870 142 142 142 0
-2.827914 1.077300 54.964308 138 138 138 0
-2.693285 1.077314 54.965008 140 140 140 0
-2.558569 1.077292 54.963878 139 139 139 0
-2.423914 1.077295 54.964035 140 140 140 0
-2.289270 1.077304 54.964471 139 139 139 0
-2.154616 1.077308 54.964692 138 138 138 0
-2.020005 1.077336 54.966132 140 140 140 0
-1.885356 1.077347 54.966660 139 139 139 0
-1.750656 1.077327 54.965646 137 137 137 0
-1.616032 1.077355 54.967090 139 139 139 0
-1.481340 1.077338 54.966223 141 141 141 0
-1.346711 1.077369 54.967784 137 137 137 0
-1.212070 1.077395 54.969139 139 139 139 0
-1.077389 1.077389 54.968811 138 138 138 0
-0.942720 1.077394 54.969092 137 137 137 0
-0.808073 1.077431 54.970961 140 140 140 0
-0.673423 1.077477 54.973332 139 139 139 0
-0.538740 1.077481 54.973500 139 139 139 0
-0.404074 1.077530 54.976021 135 135 135 0
-0.269367 1.077468 54.972868 135 135 135 0
-0.134698 1.077585 54.978843 137 137 137 0
0.000000 1.077618 54.980502 135 135 135 0
0.134708 1.077664 54.982878 133 133 133 0
0.269437 1.077747 54.987096 131 131 131 0
0.404169 1.077784 54.988982 132 132 132 0
0.538903 1.077806 54.990115 130 130 130 0
0.673679 1.077887 54.994214 132 132 132 0
0.808483 1.077977 54.998829 129 129 129 0
0.943237 1.077986 54.999264 132 132 132 0
1.074941 1.074941 54.843917 126 126 126 0
1.205480 1.071538 54.670289 124 124 124 0
1.332550 1.066040 54.389814 125 125 125 0
1.462494 1.063632 54.266946 123 123 123 0
1.590000 1.060000 54.081638 123 123 123 0
1.717085 1.056668 53.911617 124 124 124 0
1.843004 1.053145 53.731900 122 122 122 0
1.966459 1.048778 53.509095 124 124 124 0
2.091587 1.045793 53.356807 119 119 119 0
2.213465 1.041631 53.144415 118 118 118 0
2.335973 1.038210 52.969912 120 120 120 0
2.556646 1.076482 54.922570 119 119 119 0
2.576431 1.030572 52.580223 119 119 119 0
2.697454 1.027602 52.428658 118 118 118 0
2.816594 1.024216 52.255920 121 121 121 0
2.931313 1.019587 52.019752 119 119 119 0
3.057322 1.019107 51.995271 117 117 117 0
3.176584 1.016507 51.862602 118 118 118 0
3.297818 1.014713 51.771078 116 116 116 0
3.409051 1.010089 51.535168 114 114 114 0
3.529745 1.008499 51.454012 114 114 114 0
3.638545 1.003736 51.211045 117 117 117 0
3.762529 1.003341 51.190872 113 113 113 0
3.866960 0.997925 50.914544 112 112 112 0
3.995163 0.998791 50.958709 115 115 115 0
4.107173 0.995678 50.799913 117 117 117 0
4.232011 0.995767 50.804459 114 114 114 0
4.342111 0.992483 50.636868 112 112 112 0
4.442569 0.987237 50.369259 115 115 115 0
4.564310 0.986878 50.350909 114 114 114 0
4.685290 0.986377 50.325347 112 112 112 0
4.796770 0.983953 50.201673 111 111 111 0
4.907582 0.981516 50.077365 113 113 113 0
5.024221 0.980336 50.017130 114 114 114 0
5.150840 0.981112 50.056758 112 112 112 0
5.260289 0.978658 49.931549 111 111 111 0
5.361252 0.974773 49.733321 112 112 112 0
5.498466 0.977505 49.872707 113 113 113 0
5.613455 0.976253 49.808824 112 112 112 0
5.733119 0.975850 49.788272 112 112 112 0
5.844856 0.974143 49.701156 113 113 113 0
5.959961 0.973055 49.645658 111 111 111 0
6.082520 0.973203 49.653223 113 113 113 0
6.198908 0.972378 49.611106 110 110 110 0
6.322267 0.972656 49.625329 113 113 113 0
6.434096 0.971184 49.550222 112 112 112 0
6.553201 0.970845 49.532884 115 115 115 0
6.661055 0.968881 49.432690 113 113 113 0
6.784571 0.969224 49.450228 114 114 114 0
6.896691 0.967957 49.385540 113 113 113 0
7.009368 0.966809 49.327009 113 113 113 0
7.121359 0.965608 49.265716 112 112 112 0
7.252259 0.966968 49.335093 116 116 116 0
7.367410 0.966218 49.296825 115 115 115 0
7.491843 0.966689 49.320887 111 111 111 0
7.596190 0.964596 49.214061 110 110 110 0
7.704835 0.963104 49.137976 112 112 112 0
7.860350 0.967428 49.358553 111 111 111 0
7.955729 0.964331 49.200553 112 112 112 0
8.078088 0.964548 49.211620 112 112 112 0
8.192838 0.963863 49.176698 109 109 109 0
8.331007 0.965914 49.281322 110 110 110 0
8.445236 0.965170 49.243359 107 107 107 0
8.557361 0.964210 49.194372 109 109 109 0
8.679472 0.964386 49.203354 109 109 109 0
8.815837 0.966119 49.291792 108 108 108 0
8.949233 0.967485 49.361464 109 109 109 0
9.066851 0.967131 49.343409 111 111 111 0
9.163176 0.964545 49.211474 112 112 112 0
9.305378 0.966793 49.326148 110 110 110 0
9.419321 0.966084 49.290011 110 110 110 0
8.441495 0.854835 43.614029 112 112 112 0
-10.226979 1.150535 52.178465 148 148 148 0
-9.797868 1.116213 50.621894 148 148 148 0
-9.654437 1.113973 50.520340 148 148 148 0
-9.856150 1.152018 52.245694 146 146 146 0
-9.697411 1.148378 52.080616 136 136 136 0
-8.871476 1.064577 48.280143 133 133 133 0
-9.484960 1.153576 52.316380 131 131 131 0
-9.464422 1.166847 52.918210 134 134 134 0
-8.679601 1.084950 49.204090 131 131 131 0
-9.110513 1.154854 52.374322 134 134 134 0
-9.207627 1.183838 53.688787 136 136 136 0
-9.139440 1.192101 54.063533 138 138 138 0
-8.950038 1.184564 53.721714 137 137 137 0
-9.025587 1.212392 54.983776 139 139 139 0
-8.877591 1.210581 54.901617 135 135 135 0
-8.743033 1.210574 54.901306 138 138 138 0
-8.608352 1.210550 54.900207 139 139 139 0
-8.473909 1.210558 54.900612 141 141 141 0
-8.339578 1.210584 54.901762 138 138 138 0
-8.205163 1.210598 54.902398 140 140 140 0
-8.070680 1.210602 54.902585 139 139 139 0
-7.936571 1.210663 54.905365 136 136 136 0
-7.802091 1.210669 54.905635 140 140 140 0
-7.667705 1.210690 54.906591 141 141 141 0
-7.533424 1.210729 54.908340 137 137 137 0
-7.398931 1.210734 54.908578 144 144 144 0
-7.264627 1.210771 54.910259 139 139 139 0
-7.130188 1.210787 54.910961 138 138 138 0
-6.995919 1.210832 54.913023 144 144 144 0
-6.861613 1.210873 54.914869 137 137 137 0
-6.727248 1.210905 54.916309 140 140 140 0
-6.592930 1.210946 54.918197 140 140 140 0
-6.458561 1.210980 54.919740 136 136 136 0
-6.324306 1.211037 54.922328 137 137 137 0
-6.190002 1.211087 54.924592 136 136 136 0
-6.055819 1.211164 54.928060 136 136 136 0
-5.922268 1.211373 54.937555 134 134 134 0
-5.787209 1.211276 54.933163 129 129 129 0
-5.657647 1.212353 54.981988 124 124 124 0
-5.522925 1.212349 54.981835 128 128 128 0
-5.388148 1.212333 54.981104 132 132 132 0
-4.923461 1.136183 51.527586 130 130 130 0
-4.798992 1.136603 51.546643 127 127 127 0
-4.675651 1.137320 51.579159 126 126 126 0
-4.557987 1.139497 51.677854 125 125 125 0
-4.439106 1.141485 51.768006 126 126 126 0
-4.315042 1.142217 51.801220 132 132 132 0
-4.194335 1.143909 51.877978 132 132 132 0
-4.072309 1.145337 51.942719 128 128 128 0
-3.951286 1.147147 52.024829 137 137 137 0
-3.826816 1.148045 52.065523 136 136 136 0
-3.703464 1.149351 52.124757 138 138 138 0
-3.574423 1.148922 52.105291 141 141 141 0
-3.449730 1.149910 52.150116 139 139 139 0
-3.501252 1.211972 54.964707 143 143 143 0
-3.366569 1.211965 54.964389 145 145 145 0
-3.070809 1.151554 52.224651 141 141 141 0
-3.097259 1.211971 54.964674 139 139 139 0
-2.809948 1.149524 52.132619 139 139 139 0
-2.827852 1.211937 54.963114 141 141 141 0
-2.693196 1.211938 54.963186 144 144 144 0
-2.558484 1.211913 54.962062 143 143 143 0
-2.423942 1.211971 54.964663 140 140 140 0
-2.289223 1.211941 54.963332 141 141 141 0
-2.154567 1.211944 54.963435 139 139 139 0
-2.019954 1.211972 54.964722 144 144 144 0
-1.885250 1.211946 54.963556 139 139 139 0
-1.750632 1.211976 54.964911 138 138 138 0
-1.615977 1.211983 54.965209 140 140 140 0
-1.481280 1.211956 54.963994 140 140 140 0
-1.346675 1.212008 54.966342 141 141 141 0
-1.212031 1.212031 54.967371 143 143 143 0
-1.077338 1.212005 54.966231 140 140 140 0
-0.942723 1.212072 54.969249 145 145 145 0
-0.808021 1.212031 54.967394 141 141 141 0
-0.673385 1.212094 54.970240 142 142 142 0
-0.538721 1.212121 54.971495 138 138 138 0
-0.404047 1.212141 54.972364 141 141 141 0
-0.269380 1.212210 54.975492 137 137 137 0
-0.134697 1.212277 54.978543 136 136 136 0
0.000000 1.212285 54.978907 136 136 136 0
0.134696 1.212260 54.977776 133 133 133 0
0.269415 1.212365 54.982554 135 135 135 0
0.404153 1.212459 54.986797 137 137 137 0
0.538871 1.212459 54.986796 134 134 134 0
0.673652 1.212573 54.991995 130 130 130 0
0.808398 1.212596 54.993029 125 125 125 0
0.943240 1.212738 54.999441 128 128 128 0
1.077957 1.212701 54.997792 128 128 128 0
1.208756 1.208756 54.818856 123 123 123 0
1.338413 1.204572 54.629105 125 125 125 0
1.468848 1.201785 54.502724 125 125 125 0
1.596977 1.197733 54.318942 124 124 124 0
1.724368 1.193793 54.140281 123 123 123 0
1.848962 1.188619 53.905608 121 121 121 0
1.973766 1.184260 53.707917 120 120 120 0
2.098589 1.180456 53.535441 123 123 123 0
2.223239 1.177009 53.379079 119 119 119 0
2.421687 1.210843 54.913534 119 119 119 0
2.468480 1.169280 53.028576 118 118 118 0
2.590938 1.165922 52.876291 120 120 120 0
2.713156 1.162781 52.733847 118 118 118 0
2.827170 1.156569 52.452129 118 118 118 0
2.955451 1.156481 52.448101 120 120 120 0
3.072424 1.152159 52.252108 118 118 118 0
3.197204 1.150993 52.199248 116 116 116 0
3.312747 1.146720 52.005442 117 117 117 0
3.425076 1.141692 51.777422 116 116 116 0
3.537651 1.137102 51.569261 116 116 116 0
3.667181 1.138091 51.614086 115 115 115 0
3.781551 1.134465 51.449680 117 117 117 0
3.896229 1.131163 51.299925 115 115 115 0
4.010733 1.128019 51.157310 111 111 111 0
4.139180 1.128867 51.195795 114 114 114 0
4.243114 1.123177 50.937743 114 114 114 0
4.366864 1.122908 50.925532 117 117 117 0
4.482127 1.120532 50.817767 114 114 114 0
4.594886 1.117675 50.688208 114 114 114 0
4.716301 1.117019 50.658448 113 113 113 0
4.821962 1.112761 50.465331 113 113 113 0
4.946212 1.112898 50.471556 112 112 112 0
5.054779 1.109586 50.321347 111 111 111 0
5.177105 1.109380 50.311998 113 113 113 0
5.299289 1.109154 50.301746 114 114 114 0
5.417349 1.108094 50.253705 111 111 111 0
5.523180 1.104636 50.096872 113 113 113 0
5.638065 1.103100 50.027200 110 110 110 0
5.758499 1.102691 50.008673 112 112 112 0
5.864952 1.099678 49.872037 113 113 113 0
5.981651 1.098671 49.826327 113 113 113 0
6.105859 1.099055 49.843747 112 112 112 0
6.231415 1.099661 49.871267 114 114 114 0
6.336351 1.096676 49.735882 115 115 115 0
6.453960 1.095956 49.703200 113 113 113 0
6.570384 1.095064 49.662768 113 113 113 0
6.694215 1.095417 49.678774 116 116 116 0
6.811258 1.094667 49.644740 115 115 115 0
6.926585 1.093671 49.599608 114 114 114 0
7.041851 1.092701 49.555602 113 113 113 0
7.165698 1.093073 49.572455 112 112 112 0
7.267452 1.090118 49.438449 112 112 112 0
7.391245 1.090512 49.456308 111 111 111 0
7.520024 1.091616 49.506409 113 113 113 0
7.627580 1.089654 49.417429 109 109 109 0
7.759886 1.091234 49.489071 110 110 110 0
7.867737 1.089379 49.404940 110 110 110 0
7.972429 1.087149 49.303827 109 109 109 0
8.109015 1.089271 49.400033 111 111 111 0
8.234757 1.089894 49.428312 110 110 110 0
8.361122 1.090581 49.459459 112 112 112 0
8.473043 1.089391 49.405496 108 108 108 0
8.595075 1.089517 49.411182 111 111 111 0
8.738667 1.092333 49.538929 111 111 111 0
8.841873 1.090094 49.437367 109 109 109 0
8.980484 1.092221 49.533834 110 110 110 0
9.091826 1.091019 49.479326 109 109 109 0
9.190165 1.088309 49.356418 110 110 110 0
9.336726 1.091306 49.492322 110 110 110 0
9.457988 1.091306 49.492350 111 111 111 0
9.586010 1.092077 49.527304 112 112 112 0
-9.956047 1.244506 50.796159 146 146 146 0
-10.344589 1.309442 53.446598 145 145 145 0
-9.563126 1.226042 50.042523 146 146 146 0
-9.208554 1.195916 48.812902 144 144 144 0
-9.697299 1.275960 52.080014 138 138 138 0
-9.441564 1.258875 51.382659 137 137 137 0
-8.804216 1.189759 48.561588 135 135 135 0
-9.499990 1.301368 53.117081 134 134 134 0
-9.345006 1.297917 52.976223 134 134 134 0
-9.403489 1.324435 54.058572 133 133 133 0
-9.313685 1.330526 54.307203 134 134 134 0
-9.104770 1.319532 53.858443 135 135 135 0
-9.156887 1.346601 54.963309 138 138 138 0
-9.026463 1.347233 54.989116 137 137 137 0
-8.877758 1.345115 54.902645 137 137 137 0
-8.743113 1.345094 54.901807 136 136 136 0
-8.608732 1.345114 54.902628 136 136 136 0
-8.474059 1.345089 54.901583 140 140 140 0
-8.339805 1.345130 54.903259 138 138 138 0
-8.205414 1.345150 54.904073 144 144 144 0
-8.070786 1.345131 54.903307 138 138 138 0
-7.936545 1.345177 54.905185 138 138 138 0
-7.802204 1.345208 54.906435 137 137 137 0
-7.667800 1.345228 54.907268 141 141 141 0
-7.533454 1.345260 54.908559 141 141 141 0
-7.398966 1.345267 54.908837 140 140 140 0
-7.264598 1.345296 54.910040 140 140 140 0
-7.130247 1.345330 54.911411 139 139 139 0
-6.995929 1.345371 54.913099 139 139 139 0
-6.861680 1.345427 54.915407 139 139 139 0
-6.727355 1.345471 54.917183 137 137 137 0
-6.592983 1.345507 54.918643 137 137 137 0
-6.458630 1.345548 54.920324 142 142 142 0
-6.324282 1.345592 54.922122 138 138 138 0
-6.190026 1.345658 54.924813 136 136 136 0
-6.055762 1.345725 54.927547 136 136 136 0
-5.922355 1.345990 54.938357 135 135 135 0
-5.787777 1.345995 54.938559 133 133 133 0
-5.656883 1.346877 54.974565 128 128 128 0
-5.522768 1.347016 54.980264 126 126 126 0
-5.388134 1.347033 54.980959 128 128 128 0
-5.253185 1.346970 54.978387 131 131 131 0
-4.800103 1.263185 51.558573 130 130 130 0
-4.686726 1.266683 51.701332 125 125 125 0
-4.556594 1.265721 51.662068 130 130 130 0
-4.440227 1.268636 51.781072 133 133 133 0
-4.320000 1.270588 51.860743 130 130 130 0
-4.195298 1.271302 51.889891 133 133 133 0
-4.074669 1.273334 51.972818 134 134 134 0
-3.955100 1.275839 52.075053 133 133 133 0
-4.040174 1.346725 54.968355 134 134 134 0
-3.705961 1.277918 52.159907 139 139 139 0
-3.575415 1.276934 52.119749 140 140 140 0
-3.450967 1.278136 52.168808 139 139 139 0
-3.501283 1.346647 54.965199 137 137 137 0
-3.194683 1.277873 52.158083 140 140 140 0
-3.074191 1.280913 52.282161 143 143 143 0
-3.097208 1.346612 54.963758 138 138 138 0
-2.962422 1.346555 54.961440 144 144 144 0
-2.827818 1.346580 54.962458 138 138 138 0
-2.693189 1.346595 54.963043 139 139 139 0
-2.558453 1.346554 54.961396 142 142 142 0
-2.423834 1.346574 54.962219 143 143 143 0
-2.289228 1.346605 54.963451 141 141 141 0
-2.154542 1.346589 54.962804 141 141 141 0
-2.019924 1.346616 54.963912 141 141 141 0
-1.885202 1.346573 54.962160 141 141 141 0
-1.750586 1.346605 54.963465 142 142 142 0
-1.615941 1.346617 54.963978 140 140 140 0
-1.481274 1.346613 54.963801 146 146 146 0
-1.346638 1.346638 54.964824 143 143 143 0
-1.211969 1.346633 54.964596 142 142 142 0
-1.077311 1.346639 54.964840 141 141 141 0
-0.942693 1.346704 54.967514 145 145 145 0
-0.807971 1.346618 54.963989 144 144 144 0
-0.673366 1.346732 54.968667 138 138 138 0
-0.538680 1.346701 54.967383 142 142 142 0
-0.404038 1.346794 54.971166 139 139 139 0
-0.269357 1.346783 54.970747 138 138 138 0
-0.134682 1.346825 54.972434 139 139 139 0
0.000000 1.346950 54.977548 137 137 137 0
0.134692 1.346922 54.976422 134 134 134 0
0.269413 1.347066 54.982266 136 136 136 0
0.404121 1.347069 54.982400 136 136 136 0
0.538876 1.347190 54.987332 136 136 136 0
0.673615 1.347230 54.988989 133 133 133 0
0.808379 1.347298 54.991736 133 133 133 0
0.943120 1.347315 54.992436 133 133 133 0
1.077907 1.347384 54.995272 131 131 131 0
1.212017 1.346686 54.966764 129 129 129 0
1.345025 1.345025 54.898976 125 125 125 0
1.474803 1.340730 54.723659 125 125 125 0
1.603695 1.336413 54.547454 127 127 127 0
1.729493 1.330379 54.301183 125 125 125 0
1.857236 1.326597 54.146819 125 125 125 0
1.984450 1.322967 53.998649 120 120 120 0
2.112266 1.320166 53.884333 126 126 126 0
2.231233 1.312490 53.571028 123 123 123 0
2.359616 1.310898 53.506039 122 122 122 0
2.483112 1.306901 53.342908 121 121 121 0
2.602918 1.301459 53.120783 121 121 121 0
2.728575 1.299322 53.033535 121 121 121 0
2.847138 1.294154 52.822603 121 121 121 0
2.966810 1.289917 52.649686 119 119 119 0
3.087703 1.286543 52.511964 119 119 119 0
3.206897 1.282759 52.357497 120 120 120 0
3.328410 1.280158 52.251342 119 119 119 0
3.447636 1.276902 52.118462 118 118 118 0
3.562881 1.272458 51.937041 115 115 115 0
3.683000 1.270000 51.836738 117 117 117 0
3.804554 1.268185 51.762633 116 116 116 0
3.919273 1.264282 51.603336 113 113 113 0
4.030836 1.259636 51.413720 117 117 117 0
4.155608 1.259275 51.398991 115 115 115 0
4.278466 1.258372 51.362136 117 117 117 0
4.393425 1.255264 51.235281 114 114 114 0
4.498200 1.249500 51.000000 115 115 115 0
4.624467 1.249856 51.014531 114 114 114 0
4.734919 1.246031 50.858426 113 113 113 0
4.849896 1.243563 50.757675 116 116 116 0
4.977694 1.244424 50.792801 114 114 114 0
5.073704 1.237489 50.509748 113 113 113 0
5.207597 1.239904 50.608332 113 113 113 0
5.321142 1.237475 50.509179 113 113 113 0
5.443352 1.237125 50.494914 113 113 113 0
5.547676 1.232817 50.319058 111 111 111 0
5.670313 1.232677 50.313332 113 113 113 0
5.794440 1.232860 50.320798 117 117 117 0
5.902887 1.229768 50.194617 111 111 111 0
6.023145 1.229213 50.171971 113 113 113 0
6.137473 1.227495 50.101823 114 114 114 0
6.245172 1.224543 49.981365 114 114 114 0
6.366797 1.224384 49.974859 112 112 112 0
6.474220 1.221551 49.859220 112 112 112 0
6.605319 1.223207 49.926829 113 113 113 0
6.709335 1.219879 49.790986 111 111 111 0
6.846502 1.222590 49.901622 113 113 113 0
6.947412 1.218844 49.748740 112 112 112 0
7.058593 1.216999 49.673421 113 113 113 0
7.169988 1.215252 49.602130 112 112 112 0
7.299082 1.216514 49.653617 114 114 114 0
7.431601 1.218295 49.726339 113 113 113 0
7.536939 1.215635 49.617770 110 110 110 0
7.662068 1.216201 49.640871 113 113 113 0
7.794053 1.217821 49.706971 111 111 111 0
7.890750 1.213962 49.549451 110 110 110 0
8.017047 1.214704 49.579761 108 108 108 0
8.140999 1.215075 49.594878 110 110 110 0
8.269634 1.216123 49.637658 110 110 110 0
8.371545 1.213267 49.521116 110 110 110 0
8.501699 1.214528 49.572587 109 109 109 0
8.620991 1.214224 49.560169 111 111 111 0
8.751643 1.215506 49.612490 108 108 108 0
8.869418 1.214989 49.591379 109 109 109 0
8.978406 1.213298 49.522374 112 112 112 0
9.106990 1.214265 49.561853 112 112 112 0
9.234279 1.215037 49.593333 112 112 112 0
9.360645 1.215668 49.619111 110 110 110 0
9.467613 1.213797 49.542717 113 113 113 0
9.615785 1.217188 49.681140 113 113 113 0
-9.863844 1.356279 50.325735 140 140 140 0
-9.362976 1.303706 48.374974 144 144 144 0
-9.913410 1.398045 51.875513 145 145 145 0
-9.615741 1.373677 50.971329 142 142 142 0
-9.095974 1.316523 48.850559 133 133 133 0
-9.544735 1.399894 51.944135 137 137 137 0
-9.969054 1.481886 54.986508 134 134 134 0
-9.320045 1.404390 52.110961 136 136 136 0
-9.176964 1.402036 52.023607 135 135 135 0
-9.562880 1.481573 54.974878 133 133 133 0
-9.378563 1.473774 54.685496 136 136 136 0
-9.020011 1.437973 53.357059 134 134 134 0
-9.119553 1.475222 54.739215 135 135 135 0
-9.013508 1.479830 54.910192 135 135 135 0
-8.878104 1.479684 54.904787 135 135 135 0
-8.743394 1.479651 54.903575 137 137 137 0
-8.608799 1.479637 54.903056 137 137 137 0
-8.474340 1.479647 54.903400 135 135 135 0
-8.339841 1.479649 54.903498 140 140 140 0
-8.205556 1.479690 54.905028 140 140 140 0
-8.070938 1.479672 54.904340 136 136 136 0
-7.936700 1.479724 54.906260 138 138 138 0
-7.802280 1.479743 54.906965 142 142 142 0
-7.667891 1.479769 54.907923 138 138 138 0
-7.533563 1.479807 54.909350 139 139 139 0
-7.399054 1.479811 54.909490 139 139 139 0
-7.264896 1.479886 54.912291 138 138 138 0
-7.130318 1.479877 54.911960 139 139 139 0
-6.995976 1.479918 54.913472 139 139 139 0
-6.861686 1.479971 54.915453 139 139 139 0
-6.727249 1.479995 54.916314 138 138 138 0
-6.593060 1.480075 54.919285 136 136 136 0
-6.458789 1.480139 54.921675 138 138 138 0
-6.324176 1.480126 54.921198 135 135 135 0
-6.190040 1.480227 54.924933 136 136 136 0
-6.055781 1.480302 54.927717 137 137 137 0
-5.921500 1.480375 54.930424 134 134 134 0
-5.787667 1.480566 54.937517 136 136 136 0
-5.653497 1.480678 54.941662 130 130 130 0
-5.522172 1.481558 54.974339 127 127 127 0
-5.388049 1.481714 54.980093 128 128 128 0
-5.253330 1.481708 54.979903 131 131 131 0
-5.118614 1.481704 54.979746 134 134 134 0
-4.683345 1.392346 51.664035 126 126 126 0
-4.552047 1.390903 51.610505 127 127 127 0
-4.432898 1.393197 51.695606 127 127 127 0
-4.319665 1.397539 51.856718 129 129 129 0
-4.192202 1.397401 51.851600 130 130 130 0
-4.065790 1.397615 51.859561 134 134 134 0
-3.946244 1.400280 51.958453 136 136 136 0
-3.829784 1.404254 52.105902 135 135 135 0
-3.702228 1.404294 52.107367 137 137 137 0
-3.770617 1.481314 54.965269 138 138 138 0
-3.635900 1.481293 54.964482 134 134 134 0
-3.327117 1.407627 52.231040 142 142 142 0
-3.195224 1.405899 52.166927 141 141 141 0
-3.071699 1.407862 52.239782 140 140 140 0
-3.097178 1.481259 54.963225 142 142 142 0
-2.962406 1.481203 54.961151 143 143 143 0
-2.827756 1.481206 54.961246 146 146 146 0
-2.693077 1.481192 54.960750 143 143 143 0
-2.558435 1.481199 54.961001 143 143 143 0
-2.423853 1.481244 54.962656 143 143 143 0
-2.289136 1.481206 54.961250 144 144 144 0
-2.154460 1.481191 54.960713 145 145 145 0
-2.019885 1.481249 54.962859 141 141 141 0
-1.885189 1.481220 54.961765 144 144 144 0
-1.750533 1.481221 54.961801 146 146 146 0
-1.615918 1.481258 54.963192 145 145 145 0
-1.481235 1.481235 54.962334 146 146 146 0
-1.346628 1.481291 54.964423 143 143 143 0
-1.211942 1.481263 54.963359 145 145 145 0
-1.077297 1.481283 54.964124 145 145 145 0
-0.942667 1.481335 54.966034 143 143 143 0
-0.807998 1.481330 54.965873 142 142 142 0
-0.673356 1.481383 54.967830 143 143 143 0
-0.538687 1.481388 54.968029 143 143 143 0
-0.404030 1.481443 54.970038 139 139 139 0
-0.269362 1.481491 54.971839 140 140 140 0
-0.134678 1.481461 54.970719 141 141 141 0
0.000000 1.481542 54.973716 139 139 139 0
0.134696 1.481655 54.977904 135 135 135 0
0.269390 1.481644 54.977509 137 137 137 0
0.404119 1.481769 54.982142 140 140 140 0
0.538854 1.481848 54.985067 136 136 136 0
0.673589 1.481897 54.986892 131 131 131 0
0.808325 1.481930 54.988128 134 134 134 0
0.943136 1.482071 54.993355 134 134 134 0
1.077854 1.482049 54.992558 131 131 131 0
1.212696 1.482184 54.997542 130 130 130 0
1.347490 1.482239 54.999600 132 132 132 0
1.478814 1.478814 54.872523 132 132 132 0
1.608241 1.474221 54.702081 128 128 128 0
1.733919 1.467162 54.440143 130 130 130 0
1.865601 1.465829 54.390686 126 126 126 0
1.994764 1.462827 54.279288 125 125 125 0
2.119757 1.457333 54.075428 122 122 122 0
2.248345 1.454812 53.981879 124 124 124 0
2.369052 1.447754 53.719994 121 121 121 0
2.492947 1.443285 53.554168 124 124 124 0
2.618908 1.440400 53.447111 123 123 123 0
2.738014 1.434198 53.216988 124 124 124 0
2.858283 1.429141 53.029360 122 122 122 0
2.977038 1.423801 52.831196 121 121 121 0
3.099250 1.420490 52.708331 123 123 123 0
3.222939 1.418093 52.619411 120 120 120 0
3.338594 1.412482 52.411207 119 119 119 0
3.456882 1.408359 52.258235 121 121 121 0
3.579057 1.406058 52.172846 118 118 118 0
3.696793 1.402232 52.030864 119 119 119 0
3.817013 1.399571 51.932152 122 122 122 0
3.935315 1.396402 51.814546 117 117 117 0
4.058134 1.394984 51.761914 116 116 116 0
4.168819 1.389606 51.562393 117 117 117 0
4.295843 1.389832 51.570749 118 118 118 0
4.414671 1.387468 51.483043 114 114 114 0
4.516647 1.380087 51.209154 118 118 118 0
4.637573 1.378738 51.159106 115 115 115 0
4.767095 1.379949 51.204032 115 115 115 0
4.871397 1.373984 50.982705 115 115 115 0
4.993950 1.373336 50.958673 116 116 116 0
5.113265 1.371852 50.903582 112 112 112 0
5.229936 1.369745 50.825421 113 113 113 0
5.341113 1.366331 50.698750 111 111 111 0
5.462848 1.365712 50.675772 113 113 113 0
5.580431 1.364105 50.616152 113 113 113 0
5.700346 1.363126 50.579826 112 112 112 0
5.811782 1.360204 50.471400 112 112 112 0
5.932379 1.359503 50.445396 115 115 115 0
6.051215 1.358436 50.405792 113 113 113 0
6.164280 1.356142 50.320650 113 113 113 0
6.282979 1.355152 50.283946 114 114 114 0
6.395433 1.352880 50.199630 116 116 116 0
6.504721 1.350036 50.094118 114 114 114 0
6.612254 1.346941 49.979246 113 113 113 0
6.739925 1.347985 50.017994 113 113 113 0
6.845729 1.344697 49.895987 113 113 113 0
6.979893 1.346997 49.981335 114 114 114 0
7.084865 1.343681 49.858306 114 114 114 0
7.208363 1.343932 49.867608 110 110 110 0
7.317550 1.341551 49.779251 111 111 111 0
7.441828 1.341969 49.794770 110 110 110 0
7.560062 1.341301 49.769996 111 111 111 0
7.688802 1.342489 49.814069 110 110 110 0
7.794376 1.339658 49.709028 110 110 110 0
7.914703 1.339411 49.699861 111 111 111 0
8.045816 1.340969 49.757673 112 112 112 0
8.163419 1.340263 49.731459 108 108 108 0
8.296818 1.342132 49.800828 112 112 112 0
8.399402 1.339035 49.685904 109 109 109 0
8.538539 1.341770 49.787397 112 112 112 0
8.646508 1.339600 49.706859 110 110 110 0
8.780984 1.341539 49.778821 110 110 110 0
8.915592 1.343445 49.849547 114 114 114 0
9.024579 1.341492 49.777051 110 110 110 0
9.152460 1.342361 49.809308 111 111 111 0
9.266021 1.341135 49.763809 111 111 111 0
9.383197 1.340457 49.738656 113 113 113 0
9.495168 1.339062 49.686910 112 112 112 0
9.643918 1.342824 49.826494 113 113 113 0
-10.136604 1.520491 51.717369 137 137 137 0
-10.398283 1.579486 53.724017 138 138 138 0
-9.737645 1.498099 50.955758 140 140 140 0
-9.621014 1.499379 50.999277 139 139 139 0
-10.239346 1.616739 54.991118 132 132 132 0
-9.443534 1.510965 51.393381 137 137 137 0
-9.223855 1.495760 50.876202 133 133 133 0
-9.499793 1.561610 53.115982 136 136 136 0
-9.431907 1.571984 53.468859 137 137 137 0
-9.225831 1.559295 53.037259 134 134 134 0
-9.314622 1.596792 54.312667 133 133 133 0
-8.972100 1.560365 53.073645 134 134 134 0
-9.118671 1.609177 54.733920 130 130 130 0
-9.013312 1.614325 54.908997 134 134 134 0
-8.878069 1.614194 54.904568 134 134 134 0
-8.743570 1.614198 54.904678 135 135 135 0
-8.609242 1.614233 54.905879 136 136 136 0
-8.474523 1.614195 54.904585 135 135 135 0
-8.340006 1.614195 54.904582 134 134 134 0
-8.205630 1.614222 54.905519 137 137 137 0
-8.071167 1.614233 54.905900 137 137 137 0
-7.936784 1.614261 54.906845 139 139 139 0
-7.802273 1.614263 54.906915 138 138 138 0
-7.667971 1.614310 54.908495 142 142 142 0
-7.533641 1.614352 54.909916 139 139 139 0
-7.399143 1.614358 54.910149 141 141 141 0
-7.264937 1.614431 54.912602 138 138 138 0
-7.130520 1.614457 54.913517 138 138 138 0
-6.996054 1.614474 54.914085 144 144 144 0
-6.861760 1.614532 54.916045 139 139 139 0
-6.727372 1.614569 54.917321 140 140 140 0
-6.592941 1.614598 54.918289 140 140 140 0
-6.458677 1.614669 54.920719 137 137 137 0
-6.324279 1.614710 54.922097 142 142 142 0
-6.190139 1.614819 54.925812 136 136 136 0
-6.055867 1.614898 54.928498 135 135 135 0
-5.921544 1.614967 54.930837 132 132 132 0
-5.787930 1.615236 54.940008 132 132 132 0
-5.653948 1.615414 54.946040 132 132 132 0
-5.519753 1.615537 54.950254 127 127 127 0
-5.387834 1.616350 54.977895 124 124 124 0
-5.253109 1.616341 54.977590 130 130 130 0
-5.118579 1.616394 54.979372 136 136 136 0
-4.983759 1.616354 54.978031 130 130 130 0
-4.550169 1.516723 51.589215 129 129 129 0
-4.446152 1.524395 51.850173 128 128 128 0
-4.314101 1.522624 51.789928 133 133 133 0
-4.189584 1.523485 51.819218 131 131 131 0
-4.069378 1.526017 51.905326 133 133 133 0
-3.937904 1.524350 51.848634 139 139 139 0
-3.820688 1.528275 51.982149 136 136 136 0
-3.701391 1.531610 52.095587 133 133 133 0
-3.574779 1.532048 52.110484 136 136 136 0
-3.446859 1.531937 52.106709 139 139 139 0
-3.501272 1.615972 54.965029 138 138 138 0
-3.196841 1.534484 52.193329 141 141 141 0
-3.072999 1.536500 52.261891 141 141 141 0
-2.937985 1.532862 52.138158 143 143 143 0
-2.962393 1.615851 54.960908 144 144 144 0
-2.827748 1.615856 54.961084 142 142 142 0
-2.693104 1.615863 54.961316 146 146 146 0
-2.558377 1.615817 54.959766 145 145 145 0
-2.423794 1.615863 54.961317 145 145 145 0
-2.289149 1.615870 54.961551 144 144 144 0
-2.154479 1.615859 54.961202 145 145 145 0
-2.019873 1.615899 54.962540 144 144 144 0
-1.885189 1.615876 54.961782 148 148 148 0
-1.750518 1.615863 54.961332 149 149 149 0
-1.615895 1.615895 54.962432 146 146 146 0
-1.481216 1.615872 54.961643 146 146 146 0
-1.346594 1.615913 54.963035 144 144 144 0
-1.211962 1.615949 54.964244 148 148 148 0
-1.077235 1.615853 54.960976 150 150 150 0
-0.942641 1.615955 54.964462 145 145 145 0
-0.807972 1.615943 54.964053 146 146 146 0
-0.673345 1.616028 54.966942 143 143 143 0
-0.538691 1.616073 54.968473 143 143 143 0
-0.404022 1.616087 54.968956 145 145 145 0
-0.269360 1.616157 54.971332 142 142 142 0
-0.134671 1.616052 54.967747 141 141 141 0
0.000000 1.616173 54.971856 141 141 141 0
0.134683 1.616192 54.972516 141 141 141 0
0.269384 1.616301 54.976226 137 137 137 0
0.404086 1.616345 54.977706 137 137 137 0
0.538818 1.616455 54.981467 136 136 136 0
0.673570 1.616568 54.985319 136 136 136 0
0.808292 1.616584 54.985846 136 136 136 0
0.943071 1.616694 54.989587 135 135 135 0
1.077815 1.616723 54.990578 131 131 131 0
1.212610 1.616813 54.993633 132 132 132 0
1.347415 1.616898 54.996531 129 129 129 0
1.482222 1.616969 54.998944 131 131 131 0
1.611262 1.611262 54.804815 126 126 126 0
1.742612 1.608565 54.713088 131 131 131 0
1.870031 1.602884 54.519866 125 125 125 0
1.998238 1.598590 54.373825 125 125 125 0
2.122295 1.591721 54.140171 127 127 127 0
2.252882 1.590270 54.090810 123 123 123 0
2.374862 1.583241 53.851745 123 123 123 0
2.503594 1.581217 53.782890 123 123 123 0
2.626847 1.576108 53.609127 122 122 122 0
2.745561 1.568892 53.363675 122 122 122 0
2.868205 1.564475 53.213442 125 125 125 0
2.989512 1.559745 53.052566 120 120 120 0
3.114754 1.557377 52.972000 120 120 120 0
3.235375 1.552980 52.822448 121 121 121 0
3.350645 1.546452 52.600396 121 121 121 0
3.471978 1.543101 52.486437 119 119 119 0
3.590877 1.538947 52.345145 121 121 121 0
3.716254 1.537760 52.304768 121 121 121 0
3.837653 1.535061 52.212972 120 120 120 0
3.956098 1.531393 52.088190 119 119 119 0
4.075135 1.528176 51.978761 117 117 117 0
4.188902 1.523237 51.810789 119 119 119 0
4.308735 1.520730 51.725512 116 116 116 0
4.438504 1.521773 51.760980 118 118 118 0
4.542378 1.514126 51.500882 116 116 116 0
4.669305 1.514369 51.509157 118 118 118 0
4.786717 1.511595 51.414794 118 118 118 0
4.901779 1.508240 51.300671 116 116 116 0
5.003033 1.500910 51.051357 114 114 114 0
5.120065 1.498555 50.971275 114 114 114 0
5.249807 1.499945 51.018530 115 115 115 0
5.367199 1.497823 50.946357 115 115 115 0
5.486671 1.496365 50.896767 114 114 114 0
5.614994 1.497332 50.929649 113 113 113 0
5.724969 1.493470 50.798308 114 114 114 0
5.853014 1.494387 50.829474 115 115 115 0
5.953649 1.488412 50.626266 115 115 115 0
6.070260 1.486594 50.564430 116 116 116 0
6.188965 1.485352 50.522162 114 114 114 0
6.310057 1.484719 50.500660 113 113 113 0
6.413521 1.480043 50.341607 112 112 112 0
6.531917 1.478925 50.303557 115 115 115 0
6.660456 1.480101 50.343584 117 117 117 0
6.772852 1.477713 50.262351 116 116 116 0
6.875849 1.473396 50.115516 116 116 116 0
7.002718 1.474256 50.144776 114 114 114 0
7.121848 1.473486 50.118565 113 113 113 0
7.242473 1.473045 50.103581 114 114 114 0
7.346873 1.469375 49.978726 113 113 113 0
7.465074 1.468539 49.950313 112 112 112 0
7.593952 1.469797 49.993100 112 112 112 0
7.727717 1.471946 50.066194 111 111 111 0
7.841674 1.470314 50.010675 113 113 113 0
7.952500 1.468154 49.937204 111 111 111 0
8.070160 1.467302 49.908226 111 111 111 0
8.206083 1.469746 49.991365 110 110 110 0
8.311526 1.466740 49.889112 112 112 112 0
8.436878 1.467283 49.907592 110 110 110 0
8.567134 1.468652 49.954137 109 109 109 0
8.684260 1.467762 49.923885 109 109 109 0
8.817160 1.469527 49.983900 111 111 111 0
8.942500 1.470000 50.000000 113 113 113 0
9.040775 1.466072 49.866381 109 109 109 0
9.175698 1.468112 49.935769 112 112 112 0
9.294053 1.467482 49.914354 111 111 111 0
9.425659 1.468934 49.963739 111 111 111 0
9.547242 1.468806 49.959402 114 114 114 0
9.666126 1.468272 49.941234 112 112 112 0
-9.863844 1.602875 50.325735 135 135 135 0
-9.797868 1.612307 50.621894 142 142 142 0
-9.661011 1.610168 50.554740 139 139 139 0
-9.570025 1.615718 50.728994 136 136 136 0
-9.045821 1.547311 48.581208 132 132 132 0
-9.633031 1.669725 52.424659 134 134 134 0
-9.382833 1.648336 51.753079 136 136 136 0
-9.239344 1.645363 51.659735 136 136 136 0
-9.295446 1.678345 52.695275 137 137 137 0
-9.416590 1.724164 54.133890 136 136 136 0
-9.428696 1.751044 54.977820 134 134 134 0
-9.104590 1.715358 53.857382 138 138 138 0
-9.162569 1.751668 54.997412 136 136 136 0
-9.025991 1.751312 54.986238 134 134 134 0
-8.878434 1.748782 54.906828 137 137 137 0
-8.743929 1.748786 54.906933 134 134 134 0
-8.609548 1.748814 54.907831 133 133 133 0
-8.474896 1.748788 54.907005 137 137 137 0
-8.340423 1.748798 54.907324 133 133 133 0
-8.205926 1.748804 54.907501 139 139 139 0
-8.071303 1.748782 54.906824 140 140 140 0
-7.937006 1.748832 54.908377 138 138 138 0
-7.802531 1.748843 54.908731 141 141 141 0
