ply
format ascii 1.0
element vertex 1117
property float x
property float y
property float z
property uchar red
property uchar green
property uchar blue
property uchar alpha
end_header
3.136594 -3.352911 44.146289 98 98 98 0
3.252595 -3.361015 44.252997 91 91 91 0
3.376090 -3.376090 44.451477 86 86 86 0
3.981719 -3.526665 46.434038 104 104 104 0
4.100261 -3.530780 46.488217 113 113 113 0
4.219665 -3.535395 46.548983 116 116 116 0
4.341973 -3.542136 46.637730 117 117 117 0
4.461700 -3.546480 46.694929 112 112 112 0
4.581896 -3.550969 46.754040 107 107 107 0
4.706801 -3.558801 46.857153 98 98 98 0
4.828813 -3.564124 46.927242 97 97 97 0
4.961294 -3.576747 47.093440 98 98 98 0
5.095533 -3.590035 47.268398 95 95 95 0
5.219789 -3.595855 47.345029 84 84 84 0
5.363450 -3.614499 47.590507 91 91 91 0
5.498358 -3.626577 47.749530 97 97 97 0
5.631944 -3.637297 47.890683 101 101 101 0
5.764816 -3.647128 48.020125 105 105 105 0
5.890284 -3.651976 48.083947 106 106 106 0
6.025719 -3.662692 48.225039 108 108 108 0
6.156287 -3.670094 48.322505 107 107 107 0
6.283125 -3.675035 48.387562 104 104 104 0
6.423007 -3.687282 48.548809 103 103 103 0
6.545112 -3.689063 48.572259 100 100 100 0
6.687574 -3.702050 48.743252 100 100 100 0
6.818867 -3.708507 48.828264 97 97 97 0
6.958422 -3.719157 48.968487 98 98 98 0
7.102428 -3.731784 49.134747 97 97 97 0
7.239286 -3.740298 49.246844 98 98 98 0
7.390880 -3.756021 49.453866 94 94 94 0
7.530680 -3.765340 49.576563 93 93 93 0
7.667156 -3.772728 49.673835 95 95 95 0
7.817068 -3.786392 49.853749 94 94 94 0
7.958037 -3.795371 49.971973 95 95 95 0
8.108219 -3.808406 50.143592 94 94 94 0
8.258883 -3.821274 50.313028 93 93 93 0
8.404569 -3.831495 50.447594 90 90 90 0
8.562720 -3.847019 50.651995 87 87 87 0
8.713942 -3.859031 50.810156 87 87 87 0
8.900516 -3.886141 51.167094 84 84 84 0
-8.035555 -3.013333 40.997730 105 105 105 0
-7.938716 -3.014702 41.016355 98 98 98 0
-7.829554 -3.011367 40.970981 104 104 104 0
-7.727554 -3.010735 40.962386 109 109 109 0
-7.724403 -3.049106 41.484440 129 129 129 0
-7.658732 -3.063493 41.680173 146 146 146 0
-7.583015 -3.074195 41.825785 151 151 151 0
-7.496180 -3.080622 41.913224 157 157 157 0
-7.397366 -3.082236 41.935183 151 151 151 0
-7.283747 -3.077640 41.872649 144 144 144 0
-7.143692 -3.061582 41.654180 139 139 139 0
-7.012848 -3.049065 41.483871 138 138 138 0
-6.872598 -3.032028 41.252086 140 140 140 0
-6.762523 -3.027996 41.197218 143 143 143 0
-6.656385 -3.025630 41.165029 146 146 146 0
-6.547701 -3.022016 41.115859 150 150 150 0
-6.447948 -3.022476 41.122117 151 151 151 0
-6.345622 -3.021725 41.111900 152 152 152 0
-6.239989 -3.019349 41.079582 149 149 149 0
-6.143560 -3.021423 41.107795 144 144 144 0
-6.045088 -3.022544 41.123046 139 139 139 0
-5.948711 -3.024768 41.153310 136 136 136 0
-5.848786 -3.025234 41.159646 131 131 131 0
-5.756285 -3.029624 41.219373 126 126 126 0
-5.659813 -3.032043 41.252280 123 123 123 0
-5.563692 -3.034741 41.288997 121 121 121 0
-5.464787 -3.035993 41.306027 120 120 120 0
-5.380803 -3.045738 41.438607 119 119 119 0
-5.283075 -3.047928 41.468405 122 122 122 0
-5.181289 -3.047817 41.466901 122 122 122 0
-5.091886 -3.055132 41.566420 120 120 120 0
-4.998586 -3.060359 41.637534 118 118 118 0
-4.901120 -3.063200 41.676193 115 115 115 0
-4.807513 -3.068625 41.750002 112 112 112 0
-4.725040 -3.081548 41.925825 102 102 102 0
-4.232720 -2.821813 38.392018 92 92 92 0
-4.150569 -2.829933 38.502492 81 81 81 0
-4.015306 -2.801376 38.113958 76 76 76 0
-4.073605 -2.909718 39.587997 80 80 80 0
-3.935741 -2.879811 39.181096 82 82 82 0
-3.880465 -2.910349 39.596580 88 88 88 0
-3.824479 -2.941907 40.025942 84 84 84 0
-3.338923 -3.035385 41.297752 74 74 74 0
-3.592775 -3.368226 45.826211 138 138 138 0
-3.478499 -3.366289 45.799851 156 156 156 0
-3.369405 -3.369405 45.842239 153 153 153 0
-3.254923 -3.367161 45.811718 153 153 153 0
-3.138772 -3.362970 45.754696 154 154 154 0
-3.028427 -3.364918 45.781203 158 158 158 0
-2.918939 -3.368006 45.823214 147 147 147 0
-2.787293 -3.344751 45.506823 133 133 133 0
-2.621641 -3.277051 44.585729 123 123 123 0
-2.495455 -3.254942 44.284920 121 121 121 0
-2.366416 -3.226931 43.903817 125 125 125 0
-2.237374 -3.196248 43.486368 123 123 123 0
-2.111577 -3.167366 43.093418 120 120 120 0
-1.992977 -3.146806 42.813685 123 123 123 0
-1.879604 -3.132674 42.621411 124 124 124 0
-1.773088 -3.128979 42.571138 128 128 128 0
-1.667999 -3.127498 42.550994 131 131 131 0
-1.560570 -3.121140 42.464495 132 132 132 0
-1.457587 -3.123401 42.495257 130 130 130 0
-1.354372 -3.125474 42.523451 129 129 129 0
-1.249702 -3.124255 42.506876 128 128 128 0
-1.145571 -3.124285 42.507274 127 127 127 0
-1.042933 -3.128800 42.568712 127 127 127 0
-0.937549 -3.125163 42.519228 128 128 128 0
-0.833283 -3.124811 42.514429 129 129 129 0
-0.730819 -3.132080 42.613331 129 129 129 0
-0.626316 -3.131578 42.606510 129 129 129 0
-0.521520 -3.129121 42.573079 129 129 129 0
-0.417526 -3.131448 42.604741 129 129 129 0
-0.313653 -3.136532 42.673909 129 129 129 0
-0.208805 -3.132076 42.613284 129 129 129 0
-0.104487 -3.134605 42.647683 131 131 131 0
0.000000 -3.136648 42.675487 130 130 130 0
0.104574 -3.137213 42.683171 130 130 130 0
0.208972 -3.134583 42.647389 131 131 131 0
0.314066 -3.140658 42.730034 129 129 129 0
0.418735 -3.140512 42.728059 128 128 128 0
0.523130 -3.138782 42.704516 125 125 125 0
0.629071 -3.145354 42.793938 122 122 122 0
0.734826 -3.149254 42.846992 119 119 119 0
0.840900 -3.153377 42.903084 118 118 118 0
0.946869 -3.156231 42.941923 119 119 119 0
1.053334 -3.160001 42.993209 119 119 119 0
1.160239 -3.164288 43.051534 117 117 117 0
1.268534 -3.171335 43.147413 114 114 114 0
1.377456 -3.178745 43.248234 104 104 104 0
1.485875 -3.184017 43.319963 91 91 91 0
1.573401 -3.146801 42.813624 86 86 86 0
1.721714 -3.228214 43.921280 124 124 124 0
1.834109 -3.236664 44.036240 137 137 137 0
1.943545 -3.239242 44.071314 144 144 144 0
2.052663 -3.241046 44.095867 147 147 147 0
2.160901 -3.241352 44.100024 145 145 145 0
2.266319 -3.237599 44.048964 142 142 142 0
2.371600 -3.234000 44.000000 143 143 143 0
2.477533 -3.231564 43.966863 141 141 141 0
2.582236 -3.227794 43.915570 139 139 139 0
2.688643 -3.226371 43.896210 133 133 133 0
2.798374 -3.228893 43.930517 126 126 126 0
2.904021 -3.226690 43.900548 119 119 119 0
3.015161 -3.230530 43.952789 115 115 115 0
3.129591 -3.237508 44.047730 107 107 107 0
3.242962 -3.242962 44.121931 98 98 98 0
3.365055 -3.256505 44.306193 87 87 87 0
4.101445 -3.417871 46.501647 106 106 106 0
4.226155 -3.426612 46.620575 116 116 116 0
4.346513 -3.431458 46.686504 114 114 114 0
4.464259 -3.434045 46.721705 111 111 111 0
4.585448 -3.439086 46.790291 104 104 104 0
4.712803 -3.448393 46.916907 98 98 98 0
4.843856 -3.459897 47.073431 98 98 98 0
4.969902 -3.467374 47.175153 99 99 99 0
5.105708 -3.481164 47.362779 94 94 94 0
5.222099 -3.481400 47.365981 86 86 86 0
5.374584 -3.505164 47.689303 91 91 91 0
5.501024 -3.511292 47.772681 98 98 98 0
5.640651 -3.525407 47.964717 103 103 103 0
5.773644 -3.534884 48.093663 105 105 105 0
5.898997 -3.539398 48.155078 109 109 109 0
6.029478 -3.546752 48.255126 108 108 108 0
6.154273 -3.550542 48.306698 107 107 107 0
6.280813 -3.555177 48.369755 106 106 106 0
6.421566 -3.567537 48.537912 102 102 102 0
6.549529 -3.572471 48.605041 101 101 101 0
6.693332 -3.585714 48.785219 99 99 99 0
6.828827 -3.594120 48.899587 97 97 97 0
6.963413 -3.601765 49.003607 97 97 97 0
7.108712 -3.614599 49.178219 95 95 95 0
7.241917 -3.620958 49.264740 94 94 94 0
7.389318 -3.634091 49.443409 93 93 93 0
7.535405 -3.646164 49.607672 93 93 93 0
7.682467 -3.658318 49.773031 95 95 95 0
7.827536 -3.669157 49.920509 94 94 94 0
7.964541 -3.675942 50.012819 95 95 95 0
8.119579 -3.690718 50.213844 94 94 94 0
8.274987 -3.705218 50.411130 94 94 94 0
7.033383 -3.102963 42.217183 90 90 90 0
8.570732 -3.726405 50.699391 88 88 88 0
8.726436 -3.739901 50.883010 85 85 85 0
8.905841 -3.763031 51.197704 81 81 81 0
-8.029624 -2.910739 40.967468 109 109 109 0
-7.937611 -2.913807 41.010648 102 102 102 0
-7.744788 -2.879472 40.527408 98 98 98 0
-7.694369 -2.897879 40.786480 102 102 102 0
-7.670741 -2.926993 41.196246 115 115 115 0
-7.648575 -2.957449 41.624898 135 135 135 0
-7.572362 -2.967547 41.767027 149 149 149 0
-7.490002 -2.975480 41.878682 159 159 159 0
-7.400513 -2.980762 41.953022 150 150 150 0
-7.294285 -2.979356 41.933230 147 147 147 0
-7.160558 -2.966517 41.752526 145 145 145 0
-7.029786 -2.954548 41.584063 138 138 138 0
-6.881810 -2.934890 41.307383 139 139 139 0
-6.767936 -2.929405 41.230190 143 143 143 0
-6.660930 -2.926772 41.193138 142 142 142 0
-6.551035 -2.922769 41.136795 145 145 145 0
-6.450412 -2.922843 41.137833 146 146 146 0
-6.348279 -2.922224 41.129117 146 146 146 0
-6.243482 -2.920339 41.102583 144 144 144 0
-6.147212 -2.922445 41.132232 138 138 138 0
-6.049033 -2.923699 41.149887 132 132 132 0
-5.952269 -2.925691 41.177924 126 126 126 0
-5.854877 -2.927439 41.202513 123 123 123 0
-5.762593 -2.931845 41.264538 121 121 121 0
-5.671021 -2.936779 41.333976 120 120 120 0
-5.572049 -2.937990 41.351014 119 119 119 0
-5.475221 -2.940397 41.384894 118 118 118 0
-5.384100 -2.946017 41.463997 117 117 117 0
-5.289944 -2.950161 41.522326 119 119 119 0
-5.190454 -2.951435 41.540247 119 119 119 0
-5.097372 -2.956476 41.611201 117 117 117 0
-5.002411 -2.960611 41.669400 118 118 118 0
-4.908094 -2.965307 41.735489 114 114 114 0
-4.814862 -2.970872 41.813823 115 115 115 0
-4.727833 -2.980590 41.950603 111 111 111 0
-4.632891 -2.985641 42.021689 100 100 100 0
-4.151933 -2.736501 38.515150 87 87 87 0
-3.960421 -2.734577 38.488061 81 81 81 0
-3.868766 -2.736444 38.514346 85 85 85 0
-3.851684 -2.792471 39.302903 85 85 85 0
-3.778726 -2.809822 39.547102 86 86 86 0
-3.581685 -3.245902 45.684752 118 118 118 0
-3.479206 -3.254741 45.809164 155 155 155 0
-3.370702 -3.258346 45.859896 153 153 153 0
-3.256311 -3.256311 45.831263 154 154 154 0
-3.139891 -3.252030 45.771002 155 155 155 0
-3.029033 -3.253405 45.790365 151 151 151 0
-2.918261 -3.254983 45.812572 142 142 142 0
-2.744390 -3.183492 44.806368 126 126 126 0
-2.611237 -3.155244 44.408788 122 122 122 0
-2.480852 -3.128030 44.025761 122 122 122 0
-2.346604 -3.093251 43.536257 121 121 121 0
-2.220147 -3.065918 43.151551 121 121 121 0
-2.098648 -3.043040 42.829552 122 122 122 0
-1.985158 -3.029978 42.645708 127 127 127 0
-1.875244 -3.021226 42.522538 132 132 132 0
-1.770712 -3.020627 42.514104 136 136 136 0
-1.665269 -3.018299 42.481340 138 138 138 0
-1.558593 -3.013280 42.410701 137 137 137 0
-1.455913 -3.015820 42.446448 136 136 136 0
-1.352656 -3.017464 42.469588 134 134 134 0
-1.247600 -3.015034 42.435387 131 131 131 0
-1.143702 -3.015214 42.437923 130 130 130 0
-1.041535 -3.020450 42.511613 130 130 130 0
-0.936997 -3.019211 42.494179 129 129 129 0
-0.832254 -3.016920 42.461931 128 128 128 0
-0.729960 -3.024119 42.563257 129 129 129 0
-0.625484 -3.023172 42.549923 129 129 129 0
-0.520817 -3.020741 42.515703 128 128 128 0
-0.417194 -3.024656 42.570805 129 129 129 0
-0.313164 -3.027248 42.607285 129 129 129 0
-0.208562 -3.024143 42.563589 129 129 129 0
-0.104324 -3.025406 42.581365 129 129 129 0
0.000000 -3.029300 42.636169 129 129 129 0
0.104409 -3.027849 42.615753 130 130 130 0
0.208668 -3.025692 42.585392 130 130 130 0
0.313718 -3.032609 42.682739 129 129 129 0
0.418393 -3.033351 42.693189 128 128 128 0
0.522724 -3.031798 42.671328 125 125 125 0
0.628516 -3.037826 42.756168 122 122 122 0
0.734014 -3.040914 42.799636 117 117 117 0
0.839823 -3.044359 42.848125 116 116 116 0
0.946194 -3.048848 42.911305 119 119 119 0
1.053472 -3.055069 42.998857 121 121 121 0
1.160475 -3.059433 43.060282 119 119 119 0
1.267924 -3.064150 43.126673 115 115 115 0
1.377617 -3.073146 43.253280 105 105 105 0
1.488011 -3.082308 43.382242 92 92 92 0
1.576309 -3.047530 42.892751 86 86 86 0
1.721306 -3.119867 43.910867 109 109 109 0
1.833463 -3.127672 44.020722 137 137 137 0
1.942884 -3.130203 44.056334 141 141 141 0
2.051040 -3.130534 44.061003 147 147 147 0
2.157869 -3.128910 44.038138 144 144 144 0
2.265519 -3.128573 44.033404 143 143 143 0
2.369499 -3.123431 43.961023 142 142 142 0
2.476628 -3.122705 43.950816 141 141 141 0
2.580357 -3.117931 43.883623 141 141 141 0
2.686792 -3.116679 43.865992 136 136 136 0
2.796015 -3.118632 43.893489 130 130 130 0
2.900955 -3.115841 43.854196 124 124 124 0
3.013403 -3.121025 43.927164 119 119 119 0
3.124846 -3.124846 43.980939 116 116 116 0
3.236834 -3.128939 44.038557 106 106 106 0
3.354612 -3.138186 44.168694 95 95 95 0
3.020498 -2.737327 38.526765 80 80 80 0
4.096178 -3.299699 46.441925 79 79 79 0
4.228554 -3.314272 46.647040 112 112 112 0
4.350868 -3.320400 46.733279 114 114 114 0
4.471246 -3.324773 46.794834 106 106 106 0
4.595698 -3.331881 46.894876 102 102 102 0
4.719700 -3.338324 46.985565 99 99 99 0
4.843695 -3.344456 47.071869 98 98 98 0
4.975863 -3.355815 47.231732 98 98 98 0
5.107321 -3.366189 47.377746 86 86 86 0
5.239712 -3.376704 47.525735 88 88 88 0
5.382350 -3.393221 47.758211 95 95 95 0
5.514526 -3.402580 47.889937 99 99 99 0
5.645374 -3.410747 48.004884 102 102 102 0
5.775346 -3.418062 48.107836 105 105 105 0
5.901001 -3.422581 48.171440 109 109 109 0
6.034723 -3.431509 48.297107 110 110 110 0
6.158162 -3.434360 48.337221 105 105 105 0
6.288953 -3.441125 48.432448 105 105 105 0
6.426914 -3.451491 48.578336 102 102 102 0
6.555579 -3.456578 48.649938 102 102 102 0
6.703451 -3.471430 48.858970 96 96 96 0
6.830838 -3.475338 48.913983 95 95 95 0
6.970960 -3.485480 49.056720 95 95 95 0
7.115382 -3.497391 49.224363 95 95 95 0
7.252937 -3.505586 49.339707 95 95 95 0
7.400662 -3.518347 49.519314 92 92 92 0
7.542966 -3.528162 49.657445 94 94 94 0
7.685938 -3.537972 49.795520 95 95 95 0
7.832519 -3.549110 49.952289 95 95 95 0
7.982447 -3.561399 50.125256 95 95 95 0
8.125905 -3.570474 50.252970 94 94 94 0
8.274987 -3.581711 50.411130 93 93 93 0
8.430655 -3.595426 50.604172 88 88 88 0
7.162152 -3.010180 42.367065 88 88 88 0
8.741651 -3.621541 50.971729 85 85 85 0
8.939117 -3.651189 51.389001 80 80 80 0
-8.014098 -2.804934 40.888253 110 110 110 0
-7.939926 -2.814151 41.022611 101 101 101 0
-7.802659 -2.800955 40.830243 92 92 92 0
-7.661700 -2.786073 40.613303 97 97 97 0
-7.616165 -2.805955 40.903139 101 101 101 0
-7.622344 -2.845675 41.482146 125 125 125 0
-7.558160 -2.859844 41.688694 142 142 142 0
-7.482009 -2.869812 41.833991 143 143 143 0
-7.402191 -2.878630 41.962536 161 161 161 0
-7.301198 -2.879346 41.972970 155 155 155 0
-7.187774 -2.875110 41.911218 145 145 145 0
-7.057511 -2.863918 41.748069 138 138 138 0
-6.903863 -2.842767 41.439752 137 137 137 0
-6.777855 -2.832536 41.290617 140 140 140 0
-6.667705 -2.828723 41.235031 139 139 139 0
-6.555327 -2.823833 41.163746 143 143 143 0
-6.454670 -2.823918 41.164985 142 142 142 0
-6.353947 -2.823976 41.165834 141 141 141 0
-6.249702 -2.822446 41.143528 138 138 138 0
-6.149482 -2.822713 41.147418 132 132 132 0
-6.057525 -2.826845 41.207656 126 126 126 0
-5.961570 -2.829220 41.242269 124 124 124 0
-5.862061 -2.829961 41.253071 122 122 122 0
-5.770347 -2.834557 41.320066 121 121 121 0
-5.680032 -2.840016 41.399648 119 119 119 0
-5.578524 -2.839976 41.399063 120 120 120 0
-5.486326 -2.844761 41.468826 120 120 120 0
-5.395100 -2.850241 41.548708 117 117 117 0
-5.297417 -2.852455 41.580982 119 119 119 0
-5.200203 -2.855013 41.618268 118 118 118 0
-5.107735 -2.860332 41.695798 119 119 119 0
-5.010868 -2.863353 41.739845 119 119 119 0
-4.919151 -2.869505 41.829514 117 117 117 0
-4.817104 -2.869764 41.833296 117 117 117 0
-4.726096 -2.876754 41.935190 116 116 116 0
-4.632542 -2.882470 42.018520 110 110 110 0
-4.148679 -2.640068 38.484960 98 98 98 0
-4.050811 -2.637737 38.450981 78 78 78 0
-3.868233 -2.641720 38.509042 84 84 84 0
-3.863839 -2.704687 39.426927 89 89 89 0
-3.773553 -2.709218 39.492972 87 87 87 0
-3.667830 -2.702611 39.396666 76 76 76 0
-3.506284 -2.975029 43.367768 70 70 70 0
-3.562046 -3.116791 45.434266 91 91 91 0
-3.477162 -3.140662 45.782248 150 150 150 0
-3.369471 -3.144839 45.843140 157 157 157 0
-3.252484 -3.140329 45.777392 150 150 150 0
-3.137716 -3.137716 45.739302 154 154 154 0
-3.033010 -3.145344 45.850488 151 151 151 0
-2.902794 -3.126085 45.569757 134 134 134 0
-2.727892 -3.055240 44.537020 124 124 124 0
-2.596421 -3.029158 44.156819 121 121 121 0
-2.467289 -3.003657 43.785080 123 123 123 0
-2.332188 -2.968240 43.268802 124 124 124 0
-2.204855 -2.939807 42.854324 122 122 122 0
-2.090643 -2.926901 42.666189 126 126 126 0
-1.981642 -2.920315 42.570190 133 133 133 0
-1.871951 -2.911924 42.447869 139 139 139 0
-1.769501 -2.914472 42.485011 142 142 142 0
-1.664161 -2.912282 42.453094 143 143 143 0
-1.557346 -2.907046 42.376757 142 142 142 0
-1.454943 -2.909885 42.418154 141 141 141 0
-1.351849 -2.911674 42.444232 138 138 138 0
-1.246486 -2.908468 42.397490 136 136 136 0
-1.142522 -2.908238 42.394143 135 135 135 0
-1.040532 -2.913491 42.470714 134 134 134 0
-0.935943 -2.911823 42.446395 132 132 132 0
-0.831276 -2.909465 42.412032 132 132 132 0
-0.729182 -2.916730 42.517923 132 132 132 0
-0.624565 -2.914637 42.487418 131 131 131 0
-0.520002 -2.912013 42.449169 131 131 131 0
-0.416786 -2.917503 42.529193 131 131 131 0
-0.312885 -2.920258 42.569363 130 130 130 0
-0.208285 -2.915993 42.507179 130 130 130 0
-0.104215 -2.918011 42.536598 129 129 129 0
0.000000 -2.922671 42.604538 129 129 129 0
0.104320 -2.920965 42.579664 129 129 129 0
0.208536 -2.919510 42.558457 130 130 130 0
0.313356 -2.924656 42.633475 130 130 130 0
0.418123 -2.926862 42.665630 127 127 127 0
0.522303 -2.924895 42.636956 125 125 125 0
0.628268 -2.931917 42.739310 118 118 118 0
0.733669 -2.934675 42.779519 115 115 115 0
0.839552 -2.938432 42.834283 116 116 116 0
0.946081 -2.943365 42.906190 117 117 117 0
1.052694 -2.947543 42.967097 120 120 120 0
1.159545 -2.951568 43.025777 120 120 120 0
1.267237 -2.956886 43.103293 117 117 117 0
1.376877 -2.965580 43.230035 106 106 106 0
1.483207 -2.966415 43.242196 94 94 94 0
1.569070 -2.928930 42.695774 80 80 80 0
1.717446 -3.005531 43.812405 108 108 108 0
1.832842 -3.018799 44.005809 135 135 135 0
1.940285 -3.018221 43.997396 146 146 146 0
2.049641 -3.020524 44.030955 146 146 146 0
2.159574 -3.023404 44.072949 147 147 147 0
2.263890 -3.018520 44.001754 142 142 142 0
2.369487 -3.015711 43.960805 143 143 143 0
2.475702 -3.013898 43.934380 145 145 145 0
2.578311 -3.008029 43.848823 142 142 142 0
2.685879 -3.008185 43.851092 138 138 138 0
2.794157 -3.009092 43.864320 133 133 133 0
2.898632 -3.005989 43.819075 126 126 126 0
3.011307 -3.011307 43.896598 124 124 124 0
3.122818 -3.015135 43.952402 121 121 121 0
3.233101 -3.017561 43.987769 115 115 115 0
3.347526 -3.023572 44.075394 102 102 102 0
3.466886 -3.033526 44.220490 87 87 87 0
4.223244 -3.195968 46.588461 90 90 90 0
4.356229 -3.209853 46.790857 110 110 110 0
4.474403 -3.212392 46.827869 103 103 103 0
4.602305 -3.221613 46.962293 102 102 102 0
4.725386 -3.227093 47.042169 99 99 99 0
4.853927 -3.235951 47.171298 95 95 95 0
4.980387 -3.243043 47.274676 91 91 91 0
5.118139 -3.256997 47.478097 87 87 87 0
5.248375 -3.265656 47.604311 93 93 93 0
5.383612 -3.276981 47.769401 98 98 98 0
5.513528 -3.284655 47.881269 99 99 99 0
5.649514 -3.295550 48.040087 101 101 101 0
5.781817 -3.303895 48.161739 105 105 105 0
5.908266 -3.308629 48.230741 109 109 109 0
6.042750 -3.317588 48.361348 108 108 108 0
6.160201 -3.317031 48.353223 104 104 104 0
6.294054 -3.325160 48.471726 107 107 107 0
6.435015 -3.336675 48.639573 101 101 101 0
6.559485 -3.339374 48.678923 98 98 98 0
6.702578 -3.351289 48.852612 93 93 93 0
6.842850 -3.361400 49.000000 95 95 95 0
6.980867 -3.370074 49.126440 96 96 96 0
7.134506 -3.385867 49.356667 95 95 95 0
7.269272 -3.392327 49.450829 93 93 93 0
7.407632 -3.400225 49.565958 91 91 91 0
7.549587 -3.409491 49.701031 94 94 94 0
7.700939 -3.422640 49.892708 95 95 95 0
7.844859 -3.432126 50.030990 96 96 96 0
7.989449 -3.441609 50.169224 94 94 94 0
8.135739 -3.451525 50.313782 95 95 95 0
8.284132 -3.462025 50.466841 93 93 93 0
7.045044 -2.900900 42.287176 88 88 88 0
8.594234 -3.487515 50.838417 85 85 85 0
8.752181 -3.500872 51.033123 85 85 85 0
-7.997933 -2.699302 40.805779 112 112 112 0
-7.918378 -2.706281 40.911280 105 105 105 0
-7.844518 -2.715410 41.049281 94 94 94 0
-7.577125 -2.656914 40.164989 92 92 92 0
-7.596744 -2.698843 40.798838 100 100 100 0
-7.584890 -2.730560 41.278314 118 118 118 0
-7.543810 -2.752471 41.609543 139 139 139 0
-7.471322 -2.763366 41.774235 143 143 143 0
-7.399888 -2.774958 41.949479 152 152 152 0
-7.305002 -2.777959 41.994838 159 159 159 0
-7.194686 -2.775093 41.951522 149 149 149 0
-7.080107 -2.770477 41.881735 142 142 142 0
-6.931863 -2.752357 41.607823 138 138 138 0
-6.790340 -2.736406 41.366679 136 136 136 0
-6.681321 -2.733268 41.319242 137 137 137 0
-6.566610 -2.727669 41.234599 138 138 138 0
-6.463547 -2.726809 41.221601 137 137 137 0
-6.362240 -2.726674 41.219563 136 136 136 0
-6.257777 -2.725161 41.196690 132 132 132 0
-6.158223 -2.725771 41.205910 129 129 129 0
-6.068151 -2.730668 41.279936 124 124 124 0
-5.973911 -2.733824 41.327643 122 122 122 0
-5.871805 -2.733427 41.321640 120 120 120 0
-5.780229 -2.738003 41.390827 121 121 121 0
-5.686892 -2.741895 41.449653 120 120 120 0
-5.587772 -2.743088 41.467694 120 120 120 0
-5.492779 -2.746389 41.517602 118 118 118 0
-5.403267 -2.752608 41.611608 118 118 118 0
-5.311555 -2.757923 41.691951 117 117 117 0
-5.208120 -2.757240 41.681629 118 118 118 0
-5.116077 -2.762682 41.763897 118 118 118 0
-5.023036 -2.767795 41.841199 119 119 119 0
-4.923063 -2.769223 41.862783 121 121 121 0
-4.828152 -2.773619 41.929239 122 122 122 0
-4.732229 -2.777612 41.989606 123 123 123 0
-4.634534 -2.780720 42.036585 119 119 119 0
-4.542675 -2.787550 42.139841 106 106 106 0
-4.068868 -2.554871 38.622382 87 87 87 0
-3.912756 -2.576693 38.952275 86 86 86 0
-3.855339 -2.602354 39.340191 86 86 86 0
-3.782218 -2.618459 39.583657 87 87 87 0
-3.667149 -2.605606 39.389360 81 81 81 0
-3.568310 -2.919526 44.134937 72 72 72 0
-3.506628 -2.958718 44.727404 72 72 72 0
-3.475910 -3.027405 45.765763 133 133 133 0
-3.367165 -3.030449 45.811772 154 154 154 0
-3.253205 -3.028846 45.787541 152 152 152 0
-3.141097 -3.028915 45.788582 151 151 151 0
-3.033575 -3.033575 45.859036 141 141 141 0
-2.850717 -2.960360 44.752227 126 126 126 0
-2.711769 -2.928710 44.273774 120 120 120 0
-2.579980 -2.902478 43.877219 121 121 121 0
-2.446912 -2.872462 43.423466 123 123 123 0
-2.318842 -2.845851 43.021186 120 120 120 0
-2.194865 -2.821969 42.660156 126 126 126 0
-2.087483 -2.818102 42.601686 134 134 134 0
-1.979437 -2.812884 42.522817 138 138 138 0
-1.870742 -2.806113 42.420447 145 145 145 0
-1.768263 -2.808418 42.455295 148 148 148 0
-1.663799 -2.807660 42.443845 149 149 149 0
-1.556904 -2.802427 42.364728 147 147 147 0
-1.454689 -2.805471 42.410747 146 146 146 0
-1.351535 -2.807034 42.434370 145 145 145 0
-1.246155 -2.803849 42.386235 142 142 142 0
-1.142283 -2.803786 42.385272 140 140 140 0
-1.039665 -2.807094 42.435290 139 139 139 0
-0.935227 -2.805681 42.413921 139 139 139 0
-0.830703 -2.803622 42.382793 137 137 137 0
-0.728512 -2.809975 42.478830 137 137 137 0
-0.624172 -2.808775 42.460701 135 135 135 0
-0.519449 -2.805027 42.404034 135 135 135 0
-0.416180 -2.809214 42.467327 132 132 132 0
-0.312432 -2.811886 42.507729 132 132 132 0
-0.208040 -2.808542 42.457166 131 131 131 0
-0.104127 -2.811435 42.500910 131 131 131 0
0.000000 -2.815842 42.567522 129 129 129 0
0.104146 -2.811942 42.508576 130 130 130 0
0.208335 -2.812522 42.517346 130 130 130 0
0.313130 -2.818169 42.602703 129 129 129 0
0.417897 -2.820802 42.642504 127 127 127 0
0.521976 -2.818672 42.610314 124 124 124 0
0.628097 -2.826438 42.727711 117 117 117 0
0.733648 -2.829784 42.778295 115 115 115 0
0.839879 -2.834591 42.850962 115 115 115 0
0.945926 -2.837777 42.899121 118 118 118 0
1.052364 -2.841382 42.953627 120 120 120 0
1.159449 -2.845919 43.022209 121 121 121 0
1.266450 -2.849513 43.076536 116 116 116 0
1.375803 -2.857436 43.196317 104 104 104 0
1.484715 -2.863379 43.286151 93 93 93 0
1.586949 -2.856509 43.182292 79 79 79 0
1.718818 -2.900506 43.847405 114 114 114 0
1.832845 -2.910989 44.005888 137 137 137 0
1.942232 -2.913348 44.041548 146 146 146 0
2.051976 -2.915965 44.081110 149 149 149 0
2.158620 -2.914137 44.053466 147 147 147 0
2.263889 -2.910715 44.001739 144 144 144 0
2.371336 -2.910276 43.995099 145 145 145 0
2.474870 -2.905282 43.919603 143 143 143 0
2.577658 -2.899865 43.837719 142 142 142 0
2.685492 -2.900331 43.844765 142 142 142 0
2.792342 -2.899739 43.835817 135 135 135 0
2.897367 -2.897367 43.799961 127 127 127 0
3.009539 -2.902056 43.870836 125 125 125 0
3.120365 -2.905167 43.917876 123 123 123 0
3.227833 -2.905049 43.916090 119 119 119 0
3.344873 -2.913276 44.040459 109 109 109 0
3.459129 -2.918640 44.121548 94 94 94 0
4.358540 -3.096857 46.815678 98 98 98 0
4.481047 -3.102263 46.897405 104 104 104 0
4.610964 -3.112401 47.050652 102 102 102 0
4.734009 -3.117518 47.128015 96 96 96 0
4.865534 -3.127843 47.284102 93 93 93 0
4.994614 -3.136153 47.409721 87 87 87 0
5.124641 -3.144666 47.538413 91 91 91 0
5.256973 -3.154184 47.682299 96 96 96 0
5.394031 -3.166061 47.861851 99 99 99 0
5.518877 -3.170419 47.927724 99 99 99 0
5.657814 -3.182520 48.110660 102 102 102 0
5.783898 -3.187046 48.179076 106 106 106 0
5.912272 -3.192627 48.263448 106 106 106 0
6.046031 -3.200840 48.387606 106 106 106 0
6.167301 -3.202252 48.408953 105 105 105 0
6.300049 -3.209459 48.517894 106 106 106 0
6.442948 -3.221474 48.699528 101 101 101 0
6.566610 -3.223608 48.731797 98 98 98 0
6.717280 -3.238688 48.959764 92 92 92 0
6.849936 -3.244706 49.050740 95 95 95 0
6.986889 -3.252517 49.168818 95 95 95 0
7.135999 -3.265627 49.366994 94 94 94 0
7.283703 -3.277666 49.549001 93 93 93 0
7.413547 -3.281406 49.605533 93 93 93 0
7.565203 -3.294524 49.803841 96 96 96 0
7.716281 -3.306977 49.992101 96 96 96 0
7.854084 -3.313442 50.089824 95 95 95 0
7.995822 -3.321341 50.209243 95 95 95 0
8.138398 -3.329345 50.330227 94 94 94 0
8.291276 -3.341260 50.510362 93 93 93 0
8.451623 -3.355792 50.730033 87 87 87 0
8.609292 -3.368853 50.927487 85 85 85 0
8.768903 -3.382291 51.130629 85 85 85 0
-7.990825 -2.597018 40.769515 117 117 117 0
-7.909428 -2.603103 40.865038 110 110 110 0
-7.820535 -2.606845 40.923785 99 99 99 0
-7.635361 -2.578174 40.473686 94 94 94 0
-7.601162 -2.600398 40.822569 106 106 106 0
-7.530253 -2.610488 40.980966 117 117 117 0
-7.517040 -2.641122 41.461885 126 126 126 0
-7.456276 -2.655660 41.690109 136 136 136 0
-7.388267 -2.667985 41.883602 147 147 147 0
-7.303379 -2.674477 41.985508 160 160 160 0
-7.195266 -2.672527 41.954904 151 151 151 0
-7.084562 -2.669545 41.908088 143 143 143 0
-6.964242 -2.662798 41.802173 140 140 140 0
-6.818652 -2.646044 41.539151 137 137 137 0
-6.695885 -2.637773 41.409305 135 135 135 0
-6.573434 -2.629374 41.277449 136 136 136 0
-6.472831 -2.629588 41.280811 135 135 135 0
-6.369717 -2.628772 41.268006 133 133 133 0
-6.271393 -2.629939 41.286326 128 128 128 0
-6.168007 -2.628987 41.271374 125 125 125 0
-6.073004 -2.631635 41.312949 122 122 122 0
-5.983691 -2.636881 41.395302 121 121 121 0
-5.877099 -2.634562 41.358896 121 121 121 0
-5.790400 -2.641235 41.463659 120 120 120 0
-5.700329 -2.646581 41.547586 119 119 119 0
-5.600657 -2.647583 41.563316 119 119 119 0
-5.497642 -2.647013 41.554364 119 119 119 0
-5.409283 -2.653610 41.657933 120 120 120 0
-5.317741 -2.658871 41.740514 119 119 119 0
-5.218856 -2.660593 41.767556 121 121 121 0
-5.121255 -2.663053 41.806163 121 121 121 0
-5.028542 -2.668206 41.887065 121 121 121 0
-4.932756 -2.671909 41.945203 123 123 123 0
-4.833878 -2.674060 41.978969 125 125 125 0
-4.739354 -2.678765 42.052828 126 126 126 0
-4.640937 -2.681430 42.094664 125 125 125 0
-4.540358 -2.682939 42.118350 116 116 116 0
-4.070394 -2.461168 38.636864 94 94 94 0
-3.947510 -2.443696 38.362581 78 78 78 0
-3.934764 -2.495216 39.171364 83 83 83 0
-3.857576 -2.507424 39.363021 86 86 86 0
-3.774183 -2.516122 39.499558 87 87 87 0
-3.679150 -2.517313 39.518257 91 91 91 0
-3.465741 -2.906751 45.631879 115 115 115 0
-3.366231 -2.917400 45.799057 151 151 151 0
-3.255736 -2.918936 45.823173 152 152 152 0
-3.143330 -2.918807 45.821142 149 149 149 0
-3.021666 -2.909753 45.679008 135 135 135 0
-2.830860 -2.830860 44.440498 120 120 120 0
-2.697262 -2.805153 44.036937 120 120 120 0
-2.562549 -2.776095 43.580768 124 124 124 0
-2.429049 -2.745882 43.106460 122 122 122 0
-2.306448 -2.725803 42.791248 121 121 121 0
-2.190441 -2.711974 42.574165 134 134 134 0
-2.086342 -2.712244 42.578405 140 140 140 0
-1.978997 -2.708101 42.513361 145 145 145 0
-1.871374 -2.703095 42.434775 148 148 148 0
-1.768852 -2.705303 42.469440 145 145 145 0
-1.664491 -2.704798 42.461505 144 144 144 0
-1.557718 -2.700044 42.386876 142 142 142 0
-1.454890 -2.701938 42.416612 142 142 142 0
-1.352149 -2.704299 42.453670 143 143 143 0
-1.245962 -2.699583 42.379644 143 143 143 0
-1.142723 -2.700982 42.401601 143 143 143 0
-1.039857 -2.703627 42.443127 141 141 141 0
-0.935058 -2.701277 42.406238 142 142 142 0
-0.830672 -2.699683 42.381209 142 142 142 0
-0.728448 -2.705662 42.475075 143 143 143 0
-0.623669 -2.702564 42.426444 143 143 143 0
-0.519307 -2.700394 42.392368 141 141 141 0
-0.416143 -2.704926 42.463523 138 138 138 0
-0.312055 -2.704475 42.456435 138 138 138 0
-0.207817 -2.701624 42.411686 135 135 135 0
-0.104011 -2.704286 42.453475 134 134 134 0
0.000000 -2.709287 42.531981 134 134 134 0
0.104051 -2.705325 42.469777 130 130 130 0
0.208212 -2.706752 42.492179 129 129 129 0
0.312923 -2.711997 42.574522 128 128 128 0
0.417388 -2.713021 42.590589 127 127 127 0
0.521802 -2.713370 42.596082 124 124 124 0
0.627572 -2.719478 42.691960 117 117 117 0
0.733494 -2.724407 42.769347 116 116 116 0
0.839044 -2.726894 42.808380 117 117 117 0
0.944887 -2.729674 42.852027 118 118 118 0
1.052620 -2.736813 42.964099 119 119 119 0
1.158560 -2.738416 42.989256 122 122 122 0
1.265364 -2.741622 43.039597 118 118 118 0
1.375803 -2.751605 43.196317 107 107 107 0
1.476900 -2.742814 43.058310 91 91 91 0
1.568158 -2.718140 42.670963 86 86 86 0
1.719189 -2.793682 43.856861 112 112 112 0
1.833099 -2.803563 44.011979 136 136 136 0
1.941024 -2.803701 44.014149 146 146 146 0
2.050373 -2.805773 44.046672 150 150 150 0
2.157170 -2.804321 44.023882 148 148 148 0
2.263128 -2.801968 43.986939 146 146 146 0
2.369532 -2.800356 43.961636 146 146 146 0
2.474870 -2.797679 43.919603 144 144 144 0
2.576786 -2.791519 43.822898 143 143 143 0
2.683778 -2.791129 43.816782 144 144 144 0
2.792490 -2.792490 43.838149 135 135 135 0
2.897180 -2.789877 43.797126 127 127 127 0
3.008372 -2.793488 43.853822 125 125 125 0
3.117846 -2.795311 43.882427 123 123 123 0
3.227157 -2.796869 43.906895 121 121 121 0
3.342237 -2.803166 44.005749 114 114 114 0
3.458618 -2.810127 44.115027 100 100 100 0
4.490638 -2.993759 46.997783 101 101 101 0
4.617390 -3.001304 47.116226 100 100 100 0
4.744252 -3.008550 47.229985 95 95 95 0
4.875593 -3.018224 47.381856 92 92 92 0
4.998394 -3.022285 47.445598 89 89 89 0
5.137292 -3.035672 47.655766 93 93 93 0
5.268861 -3.044231 47.790118 101 101 101 0
5.399838 -3.052082 47.913382 100 100 100 0
5.526422 -3.057170 47.993244 98 98 98 0
5.657592 -3.064529 48.108775 103 103 103 0
5.792162 -3.073392 48.247912 104 104 104 0
5.920993 -3.078917 48.334641 104 104 104 0
6.053472 -3.086084 48.447151 106 106 106 0
6.180075 -3.090037 48.509221 108 108 108 0
6.309072 -3.095016 48.587386 104 104 104 0
6.444651 -3.102980 48.712405 99 99 99 0
6.579421 -3.110272 48.826872 96 96 96 0
6.714908 -3.117636 48.942481 93 93 93 0
6.856649 -3.127594 49.098813 95 95 95 0
6.995656 -3.135984 49.230511 94 94 94 0
7.148434 -3.150158 49.453023 93 93 93 0
7.282910 -3.155928 49.543603 92 92 92 0
7.437884 -3.170246 49.768376 93 93 93 0
7.576046 -3.177052 49.875223 96 96 96 0
7.723062 -3.187295 50.036036 97 97 97 0
7.867430 -3.196143 50.174937 96 96 96 0
8.004836 -3.201934 50.265844 95 95 95 0
8.159888 -3.214501 50.463127 93 93 93 0
8.308215 -3.224083 50.613555 92 92 92 0
8.457142 -3.233613 50.763158 85 85 85 0
8.630462 -3.252058 51.052716 84 84 84 0
8.779582 -3.260988 51.192900 83 83 83 0
-7.986553 -2.495798 40.747717 121 121 121 0
-7.899870 -2.499959 40.815654 112 112 112 0
-7.816394 -2.505255 40.902115 107 107 107 0
-7.149214 -2.321174 37.896710 99 99 99 0
-7.537744 -2.479521 40.481975 92 92 92 0
-7.519353 -2.506451 40.921650 102 102 102 0
-7.479324 -2.526799 41.253856 126 126 126 0
-7.440569 -2.548140 41.602286 131 131 131 0
-7.376668 -2.561343 41.817847 139 139 139 0
-7.308322 -2.573353 42.013922 160 160 160 0
-7.200431 -2.571582 41.985019 156 156 156 0
-7.100340 -2.572587 42.001417 148 148 148 0
-6.984493 -2.567828 41.923728 143 143 143 0
-6.854038 -2.557477 41.754726 139 139 139 0
-6.716242 -2.544031 41.535202 136 136 136 0
-6.593023 -2.535778 41.400458 133 133 133 0
-6.481857 -2.531975 41.338373 133 133 133 0
-6.384092 -2.533370 41.361138 129 129 129 0
-6.283074 -2.533497 41.363224 127 127 127 0
-6.180979 -2.533188 41.358176 126 126 126 0
-6.088660 -2.536942 41.419454 123 123 123 0
-5.990117 -2.538185 41.439758 124 124 124 0
-5.893846 -2.540451 41.476751 120 120 120 0
-5.798653 -2.543269 41.522754 120 120 120 0
-5.709676 -2.548963 41.615714 118 118 118 0
-5.609818 -2.549917 41.631301 120 120 120 0
-5.507313 -2.549682 41.627459 120 120 120 0
-5.421465 -2.557295 41.751756 122 122 122 0
-5.324439 -2.559827 41.793086 121 121 121 0
-5.225952 -2.561741 41.824348 121 121 121 0
-5.131325 -2.565663 41.888370 122 122 122 0
-5.035480 -2.569122 41.944854 124 124 124 0
-4.937121 -2.571417 41.982320 125 125 125 0
-4.837598 -2.573191 42.011276 127 127 127 0
-4.744393 -2.578475 42.097546 128 128 128 0
-4.644262 -2.580145 42.124822 128 128 128 0
-4.543844 -2.581729 42.150685 121 121 121 0
-4.456075 -2.590742 42.297821 104 104 104 0
-3.997727 -2.379599 38.850599 85 85 85 0
-3.948285 -2.407491 39.305977 76 76 76 0
-3.840045 -2.400028 39.184136 85 85 85 0
-3.773582 -2.418963 39.493275 86 86 86 0
-3.699909 -2.434150 39.741231 80 80 80 0
-3.453309 -2.784927 45.468193 91 91 91 0
-3.364364 -2.803637 45.773666 144 144 144 0
-3.256284 -2.807141 45.830874 152 152 152 0
-3.144455 -2.807549 45.837535 141 141 141 0
-2.968692 -2.748789 44.878188 128 128 128 0
-2.819465 -2.711024 44.261619 120 120 120 0
-2.678008 -2.678008 43.722582 119 119 119 0
-2.540257 -2.646101 43.201645 118 118 118 0
-2.415608 -2.625661 42.867939 124 124 124 0
-2.299799 -2.613408 42.667883 132 132 132 0
-2.188615 -2.605494 42.538678 139 139 139 0
-2.084816 -2.606021 42.547274 143 143 143 0
-1.979385 -2.604454 42.521701 146 146 146 0
-1.872428 -2.600595 42.458693 142 142 142 0
-1.770089 -2.603072 42.499135 138 138 138 0
-1.665462 -2.602285 42.486282 139 139 139 0
-1.558813 -2.598021 42.416676 138 138 138 0
-1.456673 -2.601203 42.468614 138 138 138 0
-1.353424 -2.602739 42.493693 137 137 137 0
-1.247635 -2.599240 42.436571 139 139 139 0
-1.143318 -2.598449 42.423657 139 139 139 0
-1.040757 -2.601892 42.479870 141 141 141 0
-0.935392 -2.598312 42.421417 140 140 140 0
-0.830887 -2.596521 42.392178 142 142 142 0
-0.728505 -2.601805 42.478444 144 144 144 0
-0.623869 -2.599454 42.440072 147 147 147 0
-0.519289 -2.596445 42.390931 147 147 147 0
-0.415946 -2.599662 42.443459 146 146 146 0
-0.312085 -2.600709 42.460559 142 142 142 0
-0.207768 -2.597097 42.401585 139 139 139 0
-0.103957 -2.598913 42.431225 136 136 136 0
0.000000 -2.603513 42.506335 135 135 135 0
0.103984 -2.599591 42.442303 132 132 132 0
0.208079 -2.600987 42.465101 130 130 130 0
0.312984 -2.608199 42.582841 127 127 127 0
0.417422 -2.608885 42.594034 126 126 126 0
0.521626 -2.608131 42.581739 123 123 123 0
0.627643 -2.615181 42.696825 118 118 118 0
0.733083 -2.618153 42.745358 118 118 118 0
0.839154 -2.622357 42.813986 116 116 116 0
0.944773 -2.624369 42.846842 119 119 119 0
1.052352 -2.630880 42.953137 120 120 120 0
1.158392 -2.632708 42.982994 122 122 122 0
1.265824 -2.637132 43.055223 119 119 119 0
1.374251 -2.642790 43.147588 106 106 106 0
1.483549 -2.649195 43.252167 95 95 95 0
1.387359 -2.312265 37.751263 91 91 91 0
1.717524 -2.683632 43.814394 115 115 115 0
1.831902 -2.693974 43.983242 135 135 135 0
1.941709 -2.696818 44.029678 144 144 144 0
2.049783 -2.697082 44.033996 148 148 148 0
2.157809 -2.697262 44.036928 149 149 149 0
2.263973 -2.695206 44.003361 146 146 146 0
2.368591 -2.691581 43.944179 144 144 144 0
2.473393 -2.688471 43.893397 144 144 144 0
2.576815 -2.684183 43.823392 144 144 144 0
2.682661 -2.682661 43.798545 147 147 147 0
2.791346 -2.683987 43.820194 140 140 140 0
2.895138 -2.680683 43.766257 129 129 129 0
3.006883 -2.684717 43.832119 125 125 125 0
3.116395 -2.686547 43.861997 123 123 123 0
3.227061 -2.689217 43.905588 121 121 121 0
3.339650 -2.693266 43.971687 117 117 117 0
3.452676 -2.697403 44.039233 105 105 105 0
3.570835 -2.705178 44.166177 84 84 84 0
4.490103 -2.878271 46.992179 93 93 93 0
4.626105 -2.891316 47.205156 100 100 100 0
4.749688 -2.896152 47.284106 94 94 94 0
4.883180 -2.906655 47.455584 90 90 90 0
5.018924 -2.917979 47.640472 92 92 92 0
5.145381 -2.923512 47.730809 95 95 95 0
5.279609 -2.933116 47.887606 100 100 100 0
5.406289 -2.938200 47.970618 99 99 99 0
5.538432 -2.945975 48.097546 100 100 100 0
5.669886 -2.953066 48.213318 103 103 103 0
5.798354 -2.958344 48.299496 104 104 104 0
5.924907 -2.962454 48.366588 105 105 105 0
6.062338 -2.971734 48.518113 104 104 104 0
6.187917 -2.974960 48.570781 106 106 106 0
6.321446 -2.981814 48.682682 106 106 106 0
6.456322 -2.989038 48.800621 100 100 100 0
6.584921 -2.993146 48.867686 95 95 95 0
6.731163 -3.004984 49.060957 93 93 93 0
6.871334 -3.013743 49.203970 95 95 95 0
7.003759 -3.018862 49.287539 94 94 94 0
7.155436 -3.031964 49.501456 93 93 93 0
7.294918 -3.039549 49.625294 91 91 91 0
7.441371 -3.049742 49.791707 94 94 94 0
7.586340 -3.059008 49.942988 96 96 96 0
7.723274 -3.064791 50.037407 96 96 96 0
7.876761 -3.076860 50.234447 95 95 95 0
8.013041 -3.081939 50.317366 93 93 93 0
8.165846 -3.093123 50.499974 94 94 94 0
8.317315 -3.103476 50.668993 89 89 89 0
8.476088 -3.116209 50.876880 85 85 85 0
8.646305 -3.132719 51.146434 87 87 87 0
8.799163 -3.142558 51.307073 81 81 81 0
-7.982763 -2.394829 40.728382 127 127 127 0
-7.901562 -2.400474 40.824395 115 115 115 0
-7.816761 -2.405157 40.904037 111 111 111 0
-7.743975 -2.413707 41.049431 98 98 98 0
-7.546911 -2.383235 40.531211 97 97 97 0
-7.436713 -2.379748 40.471909 94 94 94 0
-7.463473 -2.420586 41.166427 117 117 117 0
-7.427633 -2.441961 41.529957 123 123 123 0
-7.360006 -2.453335 41.723391 138 138 138 0
-7.297987 -2.466925 41.954507 157 157 157 0
-7.197961 -2.467872 41.970615 162 162 162 0
-7.106408 -2.471794 42.037317 155 155 155 0
-6.998154 -2.469937 42.005724 145 145 145 0
-6.882091 -2.465226 41.925620 142 142 142 0
-6.745403 -2.452874 41.715539 137 137 137 0
-6.617012 -2.443205 41.551099 135 135 135 0
-6.498360 -2.436885 41.443622 133 133 133 0
-6.397545 -2.437160 41.448299 128 128 128 0
-6.296487 -2.437350 41.451527 129 129 129 0
-6.191699 -2.436078 41.429903 127 127 127 0
-6.099736 -2.439894 41.494804 126 126 126 0
-6.004638 -2.442565 41.540216 121 121 121 0
-5.904488 -2.443236 41.551640 117 117 117 0
-5.808548 -2.445704 41.593610 117 117 117 0
-5.719239 -2.451102 41.685415 117 117 117 0
-5.620685 -2.452662 41.711946 119 119 119 0
-5.517638 -2.452284 41.705506 120 120 120 0
-5.428305 -2.458100 41.804426 121 121 121 0
-5.331044 -2.460482 41.844933 123 123 123 0
-5.233807 -2.462968 41.887210 123 123 123 0
-5.137820 -2.466153 41.941386 126 126 126 0
-5.042100 -2.469600 42.000000 127 127 127 0
-4.941334 -2.470667 42.018149 127 127 127 0
-4.843097 -2.473071 42.059028 129 129 129 0
-4.748061 -2.477249 42.130089 130 130 130 0
-4.645470 -2.477584 42.135783 128 128 128 0
-4.547307 -2.480349 42.182809 124 124 124 0
-4.454024 -2.485967 42.278351 112 112 112 0
-3.972851 -2.270201 38.608858 91 91 91 0
-3.894512 -2.279714 38.770647 80 80 80 0
-3.818684 -2.291210 38.966160 89 89 89 0
-3.763673 -2.316107 39.389569 91 91 91 0
-3.690588 -2.330898 39.641117 83 83 83 0
-3.846254 -2.494867 42.429718 70 70 70 0
-3.425185 -2.651756 45.097894 74 74 74 0
-3.362811 -2.690249 45.752527 136 136 136 0
-3.257507 -2.695868 45.848095 150 150 150 0
-3.126673 -2.680005 45.578318 136 136 136 0
-2.940910 -2.614142 44.458203 121 121 121 0
-2.807109 -2.591178 44.067646 122 122 122 0
-2.656680 -2.550413 43.374374 116 116 116 0
-2.524810 -2.524810 42.938939 124 124 124 0
-2.409805 -2.514580 42.764959 129 129 129 0
-2.298926 -2.507919 42.651689 139 139 139 0
-2.188164 -2.500759 42.529911 144 144 144 0
-2.085633 -2.502760 42.563948 144 144 144 0
-1.980581 -2.501787 42.547397 142 142 142 0
-1.873366 -2.497821 42.479952 138 138 138 0
-1.771115 -2.500398 42.523772 138 138 138 0
-1.667363 -2.501044 42.534760 134 134 134 0
-1.560590 -2.496945 42.465044 135 135 135 0
-1.457654 -2.498835 42.497201 136 136 136 0
-1.354599 -2.500798 42.530574 137 137 137 0
-1.248765 -2.497529 42.474984 139 139 139 0
-1.144122 -2.496266 42.453504 137 137 137 0
-1.041553 -2.499728 42.512384 138 138 138 0
-0.935937 -2.495832 42.446122 140 140 140 0
-0.831593 -2.494780 42.428233 142 142 142 0
-0.728888 -2.499044 42.500742 145 145 145 0
-0.624301 -2.497203 42.469435 147 147 147 0
-0.519394 -2.493091 42.399512 148 148 148 0
-0.416063 -2.496380 42.455445 147 147 147 0
-0.312126 -2.497011 42.466181 144 144 144 0
-0.207740 -2.492876 42.395842 140 140 140 0
-0.103945 -2.494683 42.426577 136 136 136 0
0.000000 -2.500058 42.517994 134 134 134 0
0.104059 -2.497426 42.473235 131 131 131 0
0.208131 -2.497567 42.475638 129 129 129 0
0.312829 -2.502628 42.561707 127 127 127 0
0.417512 -2.505071 42.603243 126 126 126 0
0.521802 -2.504650 42.596082 123 123 123 0
0.627572 -2.510289 42.691992 120 120 120 0
0.732932 -2.512911 42.736583 118 118 118 0
0.838654 -2.515961 42.788444 118 118 118 0
0.944403 -2.518407 42.830056 119 119 119 0
1.052072 -2.524973 42.941717 121 121 121 0
1.158137 -2.526844 42.973536 121 121 121 0
1.265771 -2.531543 43.053452 119 119 119 0
1.374037 -2.536683 43.140866 106 106 106 0
1.476499 -2.531142 43.046629 95 95 95 0
1.569766 -2.511625 42.714709 90 90 90 0
1.715033 -2.572550 43.750843 116 116 116 0
1.832234 -2.586683 43.991206 137 137 137 0
1.939422 -2.585896 43.977822 146 146 146 0
2.049727 -2.589129 44.032807 149 149 149 0
2.156552 -2.587862 44.011262 147 147 147 0
2.263182 -2.586494 43.987997 145 145 145 0
2.368605 -2.583932 43.944429 144 144 144 0
2.475234 -2.582853 43.926073 144 144 144 0
2.577447 -2.577447 43.834133 144 144 144 0
2.683240 -2.575911 43.808007 146 146 146 0
2.791048 -2.576352 43.815511 143 143 143 0
2.893965 -2.572413 43.748526 132 132 132 0
3.005128 -2.575824 43.806530 123 123 123 0
3.115442 -2.578297 43.848586 122 122 122 0
3.225654 -2.580523 43.886444 121 121 121 0
3.339281 -2.585250 43.966835 119 119 119 0
3.451920 -2.588940 44.029589 108 108 108 0
3.570480 -2.596712 44.161776 88 88 88 0
4.631462 -2.778877 47.259815 98 98 98 0
4.758440 -2.785428 47.371227 93 93 93 0
4.886640 -2.792366 47.489210 93 93 93 0
5.022904 -2.803481 47.678253 93 93 93 0
5.151548 -2.809936 47.788019 97 97 97 0
5.285687 -2.819033 47.942744 100 100 100 0
5.412045 -2.823676 48.021694 101 101 101 0
5.540100 -2.828987 48.112024 101 101 101 0
5.677658 -2.838829 48.279408 103 103 103 0
5.807160 -2.844323 48.372848 103 103 103 0
5.930368 -2.846577 48.411171 105 105 105 0
6.069815 -2.856383 48.577949 105 105 105 0
6.193671 -2.858617 48.615944 105 105 105 0
6.329936 -2.866386 48.748065 104 104 104 0
6.462246 -2.872109 48.845395 99 99 99 0
6.599116 -2.879614 48.973031 96 96 96 0
6.733359 -2.885725 49.076959 94 94 94 0
6.879443 -2.896607 49.262031 95 95 95 0
7.025434 -2.907076 49.440068 94 94 94 0
7.168006 -2.915799 49.588421 93 93 93 0
7.304085 -2.921634 49.687656 90 90 90 0
7.452910 -2.932293 49.868922 94 94 94 0
7.592976 -2.939217 49.986679 96 96 96 0
7.745156 -2.950536 50.179177 96 96 96 0
7.879327 -2.954748 50.250813 95 95 95 0
8.030492 -2.965105 50.426952 94 94 94 0
8.179977 -2.974537 50.587364 92 92 92 0
8.327122 -2.982850 50.728735 85 85 85 0
8.500657 -3.000232 51.024353 85 85 85 0
8.657992 -3.011476 51.215571 84 84 84 0
8.837465 -3.029988 51.530408 78 78 78 0
-7.990461 -2.297258 40.767661 127 127 127 0
-7.899599 -2.299883 40.814252 122 122 122 0
-7.814254 -2.304203 40.890918 116 116 116 0
-7.729663 -2.308860 40.973565 104 104 104 0
-7.621730 -2.306576 40.933031 96 96 96 0
-7.440067 -2.281621 40.490161 97 97 97 0
-7.432956 -2.310243 40.998100 103 103 103 0
-7.410230 -2.334730 41.432656 118 118 118 0
-7.350060 -2.347936 41.667009 127 127 127 0
-7.275397 -2.356819 41.824645 140 140 140 0
-7.193582 -2.363605 41.945082 160 160 160 0
-7.104654 -2.368218 42.026940 158 158 158 0
-7.002065 -2.368345 42.029200 151 151 151 0
-6.892268 -2.366002 41.987621 145 145 145 0
-6.767113 -2.358236 41.849804 139 139 139 0
-6.634653 -2.347646 41.661869 135 135 135 0
-6.510915 -2.339860 41.523693 136 136 136 0
-6.413852 -2.341565 41.553950 132 132 132 0
-6.311790 -2.341471 41.552274 131 131 131 0
-6.204497 -2.339401 41.515539 127 127 127 0
-6.109447 -2.341955 41.560865 125 125 125 0
-6.010761 -2.343178 41.582577 120 120 120 0
-5.912939 -2.344786 41.611112 119 119 119 0
-5.817182 -2.347284 41.655438 118 118 118 0
-5.729778 -2.353302 41.762232 120 120 120 0
-5.632435 -2.355382 41.799148 121 121 121 0
-5.531990 -2.356218 41.813981 123 123 123 0
-5.436825 -2.359377 41.870041 125 125 125 0
-5.338622 -2.361314 41.904411 126 126 126 0
-5.243215 -2.364587 41.962501 127 127 127 0
-5.142538 -2.365568 41.979904 127 127 127 0
-5.046468 -2.368750 42.036381 129 129 129 0
-4.943679 -2.368846 42.038084 130 130 130 0
-4.847789 -2.372322 42.099773 129 129 129 0
-4.750458 -2.375229 42.151359 130 130 130 0
-4.650453 -2.376898 42.180979 130 130 130 0
-4.550905 -2.378882 42.216187 128 128 128 0
-4.455215 -2.383022 42.289652 115 115 115 0
-4.361840 -2.388626 42.389111 100 100 100 0
-3.904235 -2.190181 38.867446 90 90 90 0
-3.845313 -2.211055 39.237888 83 83 83 0
-3.745739 -2.209026 39.201872 89 89 89 0
-3.692167 -2.234733 39.658080 81 81 81 0
-3.872907 -2.407483 42.723742 73 73 73 0
-3.739746 -2.457548 43.612203 65 65 65 0
-3.412700 -2.532003 44.933514 68 68 68 0
-3.359413 -2.575550 45.706298 127 127 127 0
-3.255009 -2.581559 45.812931 136 136 136 0
-3.071558 -2.523065 44.774891 120 120 120 0
-2.925422 -2.492026 44.224072 118 118 118 0
-2.782392 -2.461347 43.679626 116 116 116 0
-2.639412 -2.428259 43.092437 121 121 121 0
-2.517483 -2.412588 42.814340 128 128 128 0
-2.408035 -2.408035 42.733548 138 138 138 0
-2.298667 -2.403152 42.646884 143 143 143 0
-2.188677 -2.397122 42.539882 144 144 144 0
-2.087070 -2.400130 42.593261 141 141 141 0
-1.981946 -2.399198 42.576710 139 139 139 0
-1.875003 -2.395838 42.517083 136 136 136 0
-1.772638 -2.398275 42.560343 136 136 136 0
-1.669216 -2.399498 42.582032 134 134 134 0
-1.563339 -2.397121 42.539850 135 135 135 0
-1.459418 -2.397616 42.548634 136 136 136 0
-1.356252 -2.399523 42.582484 137 137 137 0
-1.249191 -2.394283 42.489491 138 138 138 0
-1.145365 -2.394854 42.499627 142 142 142 0
-1.042373 -2.397459 42.545850 143 143 143 0
-0.936539 -2.393378 42.473430 143 143 143 0
-0.831718 -2.391190 42.434606 147 147 147 0
-0.729127 -2.395702 42.514685 149 149 149 0
-0.624350 -2.393342 42.472799 150 150 150 0
-0.519509 -2.389740 42.408873 149 149 149 0
-0.416308 -2.393768 42.480361 145 145 145 0
-0.312293 -2.394243 42.488785 138 138 138 0
-0.207864 -2.390437 42.421249 133 133 133 0
-0.103997 -2.391935 42.447828 129 129 129 0
0.000000 -2.397137 42.540137 127 127 127 0
0.104149 -2.395428 42.509807 126 126 126 0
0.208230 -2.394646 42.495940 124 124 124 0
0.313003 -2.399687 42.585386 127 127 127 0
0.417623 -2.401330 42.614550 126 126 126 0
0.521571 -2.399228 42.577243 124 124 124 0
0.627614 -2.405855 42.694853 122 122 122 0
0.733160 -2.408955 42.749868 120 120 120 0
0.838476 -2.410619 42.779393 120 120 120 0
0.944271 -2.413138 42.824098 119 119 119 0
1.051904 -2.419379 42.934858 121 121 121 0
1.157800 -2.420854 42.961024 122 122 122 0
1.264200 -2.423050 43.000000 120 120 120 0
1.373676 -2.430350 43.129556 111 111 111 0
