ply
format ascii 1.0
element vertex 1126
property float x
property float y
property float z
property uchar red
property uchar green
property uchar blue
property uchar alpha
end_header
6.686064 1.100238 34.544376 119 119 119 0
-7.464437 1.306276 38.083860 129 129 129 0
-7.386392 1.308981 38.162706 128 128 128 0
-7.294067 1.309192 38.168851 129 129 129 0
-7.211741 1.311226 38.228152 126 126 126 0
-7.144207 1.316038 38.368456 125 125 125 0
-7.051858 1.316347 38.377457 120 120 120 0
-6.971969 1.319021 38.455427 126 126 126 0
-6.870650 1.317659 38.415710 122 122 122 0
-6.791022 1.320476 38.497854 124 124 124 0
-6.731983 1.327433 38.700676 126 126 126 0
-6.673830 1.334766 38.914459 142 142 142 0
-6.606406 1.340430 39.079596 168 168 168 0
-6.512617 1.340833 39.091341 159 159 159 0
-6.417514 1.340973 39.095426 154 154 154 0
-6.293751 1.335038 38.922391 151 151 151 0
-6.195345 1.334382 38.903264 150 150 150 0
-6.101140 1.334624 38.910333 152 152 152 0
-6.006020 1.334671 38.911694 152 152 152 0
-5.907944 1.334052 38.893638 148 148 148 0
-5.818601 1.335417 38.933431 150 150 150 0
-5.723840 1.335563 38.937686 153 153 153 0
-5.625316 1.334821 38.916059 153 153 153 0
-5.522267 1.332961 38.861836 153 153 153 0
-5.431772 1.334119 38.895608 148 148 148 0
-5.335859 1.333965 38.891099 154 154 154 0
-5.246764 1.335540 38.937026 161 161 161 0
-5.153901 1.336197 38.956166 160 160 160 0
-5.053820 1.334971 38.920447 158 158 158 0
-4.951686 1.333146 38.867241 164 164 164 0
-4.852238 1.331987 38.833438 160 160 160 0
-4.753164 1.330886 38.801342 150 150 150 0
-4.646669 1.327620 38.706111 151 151 151 0
-4.537469 1.323429 38.583923 144 144 144 0
-4.438256 1.322034 38.543254 144 144 144 0
-4.321155 1.315134 38.342099 143 143 143 0
-4.225352 1.314554 38.325190 141 141 141 0
-4.122997 1.311863 38.246728 138 138 138 0
-4.028303 1.311541 38.237337 135 135 135 0
-3.932115 1.310705 38.212971 137 137 137 0
-3.834279 1.309266 38.171025 132 132 132 0
-3.739880 1.308958 38.162044 131 131 131 0
-3.644232 1.308186 38.139528 128 128 128 0
-3.552419 1.308786 38.157027 126 126 126 0
-3.463667 1.310577 38.209238 127 127 127 0
-3.367014 1.309394 38.174758 119 119 119 0
-3.278090 1.311236 38.228459 118 118 118 0
-3.189355 1.313264 38.287571 118 118 118 0
-3.101470 1.315775 38.360790 115 115 115 0
-3.008921 1.316403 38.379092 114 114 114 0
-2.918422 1.317997 38.425576 108 108 108 0
-2.834568 1.322798 38.565550 109 109 109 0
-2.742292 1.323865 38.596646 109 109 109 0
-2.649495 1.324748 38.622378 103 103 103 0
-2.315349 1.200551 35.001493 104 104 104 0
-2.237355 1.204730 35.123318 102 102 102 0
-2.385556 1.335911 38.947850 101 101 101 0
-2.066653 1.205547 35.147156 94 94 94 0
-2.001211 1.218128 35.513942 99 99 99 0
-1.921551 1.222805 35.650305 113 113 113 0
-2.038724 1.359149 39.625342 131 131 131 0
-1.944479 1.361135 39.683251 134 134 134 0
-1.850261 1.363350 39.747816 134 134 134 0
-1.752132 1.362769 39.730885 134 134 134 0
-1.655375 1.363250 39.744899 134 134 134 0
-1.561974 1.366727 39.846278 138 138 138 0
-1.466481 1.368716 39.904256 133 133 133 0
-1.366657 1.366657 39.844236 132 132 132 0
-1.273969 1.371966 39.999020 133 133 133 0
-1.176064 1.372074 40.002171 135 135 135 0
-1.079481 1.373885 40.054970 134 134 134 0
-0.983149 1.376408 40.128519 136 136 136 0
-0.885441 1.377353 40.156050 136 136 136 0
-0.787415 1.377977 40.174254 137 137 137 0
-0.689965 1.379929 40.231174 139 139 139 0
-0.592625 1.382792 40.314641 142 142 142 0
-0.492863 1.380017 40.233735 140 140 140 0
-0.394894 1.382130 40.295333 142 142 142 0
-0.296678 1.384498 40.364364 141 141 141 0
-0.197738 1.384169 40.354785 147 147 147 0
-0.098756 1.382591 40.308769 145 145 145 0
0.000000 1.383602 40.338259 146 146 146 0
0.098933 1.385056 40.380647 147 147 147 0
0.197819 1.384731 40.371165 148 148 148 0
0.296445 1.383409 40.332620 148 148 148 0
0.396538 1.387882 40.463028 152 152 152 0
0.495878 1.388458 40.479829 150 150 150 0
0.594898 1.388095 40.469236 145 145 145 0
0.695125 1.390250 40.532068 145 145 145 0
0.795385 1.391924 40.580873 140 140 140 0
0.891453 1.386704 40.428690 136 136 136 0
0.989897 1.385856 40.403968 135 135 135 0
1.086187 1.382420 40.303797 131 131 131 0
1.184785 1.382249 40.298810 131 131 131 0
1.281072 1.379616 40.222049 129 129 129 0
1.381983 1.381983 40.291046 124 124 124 0
1.477418 1.378924 40.201862 127 127 127 0
1.577468 1.380285 40.241539 117 117 117 0
1.676294 1.380477 40.247156 120 120 120 0
1.773818 1.379637 40.222640 118 118 118 0
1.876371 1.382589 40.308732 118 118 118 0
1.976087 1.383261 40.328303 114 114 114 0
2.072363 1.381575 40.279159 117 117 117 0
2.177422 1.385632 40.397441 110 110 110 0
1.993362 1.213351 35.374667 106 106 106 0
2.083514 1.215383 35.433906 107 107 107 0
2.187080 1.224765 35.707430 109 109 109 0
2.285098 1.230437 35.872809 109 109 109 0
2.365064 1.226330 35.753047 107 107 107 0
2.471837 1.235918 36.032608 119 119 119 0
2.567646 1.239553 36.138581 136 136 136 0
2.653372 1.238240 36.100303 141 141 141 0
2.747663 1.240880 36.177265 137 137 137 0
2.837163 1.241259 36.188300 137 137 137 0
2.918403 1.238110 36.096515 135 135 135 0
3.015422 1.241644 36.199548 136 136 136 0
3.579667 1.431867 41.745385 139 139 139 0
3.681844 1.431828 41.744263 140 140 140 0
3.793789 1.435488 41.850956 140 140 140 0
3.894853 1.434946 41.835155 138 138 138 0
3.989059 1.431970 41.748396 143 143 143 0
4.092403 1.432341 41.759215 140 140 140 0
4.193601 1.431961 41.748146 142 142 142 0
4.289530 1.429843 41.686393 148 148 148 0
4.421450 1.439542 41.969149 145 145 145 0
4.536482 1.443426 42.082397 152 152 152 0
4.638921 1.443220 42.076381 148 148 148 0
4.709645 1.433370 41.789215 144 144 144 0
4.793697 1.427910 41.630026 145 145 145 0
4.874754 1.421803 41.451991 144 144 144 0
4.940755 1.411644 41.155808 146 146 146 0
5.039972 1.411192 41.142629 143 143 143 0
5.123460 1.406440 41.004084 144 144 144 0
5.205081 1.401368 40.856205 142 142 142 0
5.294628 1.398581 40.774957 138 138 138 0
5.350273 1.387108 40.440461 137 137 137 0
5.449545 1.387157 40.441896 140 140 140 0
5.526856 1.381714 40.283208 141 141 141 0
5.582795 1.371213 39.977052 137 137 137 0
5.680075 1.371053 39.972377 138 138 138 0
5.752515 1.365004 39.796025 138 138 138 0
5.826130 1.359430 39.633539 138 138 138 0
5.915767 1.357717 39.583588 142 142 142 0
5.982614 1.350913 39.385214 142 142 142 0
6.067943 1.348432 39.312880 141 141 141 0
6.159452 1.347380 39.282220 141 141 141 0
6.235847 1.343105 39.157594 141 141 141 0
6.317701 1.340118 39.070506 138 138 138 0
6.402524 1.337841 39.004108 137 137 137 0
6.497138 1.337646 38.998430 136 136 136 0
6.590988 1.337302 38.988394 140 140 140 0
6.673127 1.334625 38.910359 137 137 137 0
6.934957 1.367456 39.867531 135 135 135 0
6.877067 1.337207 38.985640 134 134 134 0
7.446952 1.428183 41.637974 132 132 132 0
7.388014 1.397732 40.750217 130 130 130 0
7.652122 1.428396 41.644200 130 130 130 0
7.217352 1.329512 38.761290 128 128 128 0
8.196768 1.490321 43.449604 125 125 125 0
8.475182 1.521187 44.349461 124 124 124 0
7.199809 1.275916 37.198704 123 123 123 0
-7.453773 1.397582 38.029452 131 131 131 0
-7.379770 1.401222 38.128496 128 128 128 0
-7.289090 1.401748 38.142804 127 127 127 0
-7.217273 1.405962 38.257478 123 123 123 0
-7.122759 1.405808 38.253271 121 121 121 0
-7.047608 1.409522 38.354330 124 124 124 0
-6.968225 1.412478 38.434775 126 126 126 0
-6.882149 1.414140 38.480003 124 124 124 0
-6.801308 1.416939 38.556166 117 117 117 0
-6.732028 1.422259 38.700936 120 120 120 0
-6.651237 1.425265 38.782721 131 131 131 0
-6.591638 1.432965 38.992242 158 158 158 0
-6.508708 1.435745 39.067878 158 158 158 0
-6.414595 1.436103 39.077640 154 154 154 0
-6.315234 1.435281 39.055252 152 152 152 0
-6.203463 1.431568 38.954242 151 151 151 0
-6.109265 1.431859 38.962152 149 149 149 0
-6.012037 1.431437 38.950675 148 148 148 0
-5.913771 1.430751 38.931999 152 152 152 0
-5.823299 1.431959 38.964862 154 154 154 0
-5.725128 1.431282 38.946447 153 153 153 0
-5.629116 1.431131 38.942347 152 152 152 0
-5.525946 1.429124 38.887727 149 149 149 0
-5.433819 1.429952 38.910266 153 153 153 0
-5.347511 1.432369 38.976027 159 159 159 0
-5.252896 1.432608 38.982530 160 160 160 0
-5.161873 1.433854 39.016427 160 160 160 0
-5.057881 1.431476 38.951723 165 165 165 0
-4.957455 1.430035 38.912522 159 159 159 0
-4.849750 1.426397 38.813529 154 154 154 0
-4.743306 1.422992 38.720866 151 151 151 0
-4.623033 1.415214 38.509225 147 147 147 0
-4.513261 1.410394 38.378074 151 151 151 0
-4.413834 1.408671 38.331170 146 146 146 0
-4.303179 1.403211 38.182599 146 146 146 0
-4.210430 1.403477 38.189841 142 142 142 0
-4.111466 1.401636 38.139759 141 141 141 0
-4.014093 1.400265 38.102445 138 138 138 0
-3.917077 1.398956 38.066833 137 137 137 0
-3.823749 1.398933 38.066191 134 134 134 0
-3.729398 1.398524 38.055079 133 133 133 0
-3.635862 1.398408 38.051932 125 125 125 0
-3.541809 1.398083 38.043063 123 123 123 0
-3.453404 1.400028 38.096013 124 124 124 0
-3.357407 1.398920 38.065839 123 123 123 0
-3.267582 1.400392 38.105914 117 117 117 0
-3.179158 1.402570 38.165165 119 119 119 0
-3.087406 1.403366 38.186839 113 113 113 0
-2.994278 1.403568 38.192319 111 111 111 0
-2.907229 1.406724 38.278198 109 109 109 0
-2.823180 1.411590 38.410617 112 112 112 0
-2.733885 1.414078 38.478321 106 106 106 0
-2.642913 1.415846 38.526434 107 107 107 0
-2.555674 1.419819 38.634523 106 106 106 0
-2.230740 1.286966 35.019472 104 104 104 0
-2.143721 1.286232 34.999520 103 103 103 0
-2.067317 1.292073 35.158451 100 100 100 0
-1.989914 1.297770 35.313466 96 96 96 0
-1.910509 1.302620 35.445444 98 98 98 0
-1.829635 1.306882 35.561424 111 111 111 0
-1.943771 1.457828 39.668791 137 137 137 0
-1.852084 1.462172 39.786987 135 135 135 0
-1.755185 1.462654 39.800117 136 136 136 0
-1.658302 1.463208 39.815177 131 131 131 0
-1.565294 1.467463 39.930968 131 131 131 0
-1.466401 1.466401 39.902068 135 135 135 0
-1.370239 1.468114 39.948669 136 136 136 0
-1.274898 1.471036 40.028203 139 139 139 0
-1.176960 1.471200 40.032648 138 138 138 0
-1.080712 1.473699 40.100644 135 135 135 0
-0.983824 1.475736 40.156077 136 136 136 0
-0.886011 1.476685 40.181904 134 134 134 0
-0.788137 1.477757 40.211063 136 136 136 0
-0.690812 1.480312 40.280609 142 142 142 0
-0.593053 1.482631 40.343710 143 143 143 0
-0.493226 1.479678 40.263345 141 141 141 0
-0.394848 1.480680 40.290624 146 146 146 0
-0.296525 1.482627 40.343583 147 147 147 0
-0.197718 1.482883 40.350546 145 145 145 0
-0.098679 1.480178 40.276961 144 144 144 0
0.000000 1.482485 40.339730 146 146 146 0
0.099000 1.485004 40.408285 148 148 148 0
0.198113 1.485846 40.431184 154 154 154 0
0.296828 1.484140 40.384763 153 153 153 0
0.397006 1.488771 40.510782 150 150 150 0
0.496427 1.489281 40.524650 149 149 149 0
0.594771 1.486927 40.460604 145 145 145 0
0.694540 1.488300 40.497947 140 140 140 0
0.792732 1.486372 40.445496 135 135 135 0
0.887531 1.479219 40.250859 136 136 136 0
0.984841 1.477262 40.197605 133 133 133 0
1.080195 1.472993 40.081443 131 131 131 0
1.179992 1.474990 40.135792 129 129 129 0
1.276185 1.472521 40.068599 128 128 128 0
1.373001 1.471073 40.029198 123 123 123 0
1.472105 1.472105 40.057287 124 124 124 0
1.569295 1.471214 40.033037 122 122 122 0
1.669290 1.472903 40.078997 117 117 117 0
1.768477 1.473731 40.101512 116 116 116 0
1.869050 1.475566 40.151451 114 114 114 0
1.965975 1.474481 40.121929 114 114 114 0
1.810195 1.292996 35.183567 114 114 114 0
1.896715 1.293215 35.189527 109 109 109 0
1.985045 1.294595 35.227068 112 112 112 0
2.074819 1.296762 35.286045 107 107 107 0
2.162476 1.297485 35.305725 107 107 107 0
2.260946 1.304392 35.493659 102 102 102 0
2.342990 1.301661 35.419350 104 104 104 0
2.458785 1.317206 35.842349 113 113 113 0
2.560467 1.324380 36.037541 125 125 125 0
2.657962 1.328981 36.162753 137 137 137 0
2.746217 1.328815 36.158225 140 140 140 0
2.834725 1.328777 36.157207 135 135 135 0
2.926939 1.330427 36.202088 138 138 138 0
3.018318 1.331611 36.234308 144 144 144 0
3.105142 1.330775 36.211571 143 143 143 0
3.682652 1.534439 41.753429 141 141 141 0
3.791526 1.537105 41.825990 144 144 144 0
3.900033 1.539487 41.890795 142 142 142 0
3.995938 1.536899 41.820386 145 145 145 0
4.090260 1.533848 41.737347 147 147 147 0
4.196469 1.535294 41.776694 148 148 148 0
4.310205 1.539359 41.887320 141 141 141 0
4.443093 1.549916 42.174587 149 149 149 0
4.542908 1.548719 42.142003 152 152 152 0
4.627642 1.542547 41.974077 147 147 147 0
4.689496 1.529183 41.610432 147 147 147 0
4.776785 1.524506 41.483154 145 145 145 0
4.877121 1.524100 41.472118 147 147 147 0
4.945250 1.513852 41.193251 145 145 145 0
5.039571 1.511871 41.139355 141 141 141 0
5.122950 1.506750 41.000000 140 140 140 0
5.214219 1.504102 40.927938 141 141 141 0
5.280326 1.494432 40.664812 138 138 138 0
5.344656 1.484627 40.398002 140 140 140 0
5.437698 1.483008 40.353973 139 139 139 0
5.515559 1.477382 40.200867 137 137 137 0
5.594935 1.472351 40.063983 140 140 140 0
5.657883 1.463246 39.816207 140 140 140 0
5.738275 1.458884 39.697511 142 142 142 0
5.819918 1.454980 39.591280 138 138 138 0
5.903870 1.451771 39.503982 140 140 140 0
5.981208 1.447066 39.375958 142 142 142 0
6.065247 1.444107 39.295415 142 142 142 0
6.145181 1.440277 39.191205 142 142 142 0
6.223569 1.436208 39.080497 142 142 142 0
6.319763 1.436310 39.083262 144 144 144 0
6.390697 1.430753 38.932054 142 142 142 0
6.481408 1.429722 38.904010 141 141 141 0
6.590949 1.432815 38.988162 138 138 138 0
6.653856 1.425826 38.797992 142 142 142 0
6.746688 1.425357 38.785214 137 137 137 0
7.030168 1.464618 39.853562 135 135 135 0
7.446968 1.530199 41.638065 135 135 135 0
7.018047 1.422577 38.709580 135 135 135 0
7.322617 1.464523 39.850976 134 134 134 0
6.926417 1.367056 37.198800 131 131 131 0
8.025707 1.563449 42.542843 130 130 130 0
7.400493 1.423172 38.725761 127 127 127 0
8.755999 1.662532 45.238953 126 126 126 0
-7.450894 1.490179 38.014766 131 131 131 0
-7.365778 1.491803 38.056205 128 128 128 0
-7.283061 1.493961 38.111257 128 128 128 0
-7.202546 1.496633 38.179412 123 123 123 0
-7.119077 1.498753 38.233497 120 120 120 0
-6.492687 1.385107 35.334353 122 122 122 0
-6.400519 1.383896 35.303469 123 123 123 0
-6.864436 1.504534 38.380965 118 118 118 0
-6.259776 1.391061 35.486256 121 121 121 0
-6.174021 1.391329 35.493078 123 123 123 0
-6.636068 1.516816 38.694273 132 132 132 0
-6.577777 1.525282 38.910246 141 141 141 0
-6.506750 1.531000 39.056122 152 152 152 0
-6.415835 1.532140 39.085196 154 154 154 0
-6.324286 1.533160 39.111232 155 155 155 0
-6.230224 1.533594 39.122287 154 154 154 0
-6.113301 1.528325 38.987886 146 146 146 0
-6.017045 1.528138 38.983123 146 146 146 0
-5.923360 1.528609 38.995126 149 149 149 0
-5.827613 1.528554 38.993727 154 154 154 0
-5.723716 1.526324 38.936840 156 156 156 0
-5.632742 1.527523 38.967431 153 153 153 0
-5.532542 1.526218 38.934142 148 148 148 0
-5.439845 1.526974 38.953418 162 162 162 0
-5.356188 1.530339 39.039269 158 158 158 0
-5.264559 1.531508 39.069080 163 163 163 0
-5.160066 1.528908 39.002763 162 162 162 0
-5.058897 1.527214 38.959543 157 157 157 0
-4.946787 1.522088 38.828783 153 153 153 0
-4.832840 1.516185 38.678188 151 151 151 0
-4.723618 1.511558 38.560148 150 150 150 0
-4.604478 1.503503 38.354667 146 146 146 0
-4.501280 1.500427 38.276190 148 148 148 0
-4.395277 1.496264 38.170010 142 142 142 0
-4.292751 1.493131 38.090074 144 144 144 0
-4.198423 1.492772 38.080930 140 140 140 0
-4.101131 1.491320 38.043885 144 144 144 0
-4.002645 1.489356 37.993779 135 135 135 0
-3.903787 1.487157 37.937680 134 134 134 0
-3.809362 1.486580 37.922971 132 132 132 0
-3.718129 1.487252 37.940096 131 131 131 0
-3.623760 1.486671 37.925270 130 130 130 0
-3.530361 1.486468 37.920099 128 128 128 0
-3.442519 1.488657 37.975937 125 125 125 0
-3.352588 1.490039 38.011207 121 121 121 0
-3.258823 1.489747 38.003761 121 121 121 0
-3.168993 1.491291 38.043139 118 118 118 0
-3.081829 1.494220 38.117862 114 114 114 0
-2.989286 1.494643 38.128646 111 111 111 0
-2.902153 1.497886 38.211365 111 111 111 0
-2.818316 1.503102 38.344430 112 112 112 0
-2.727309 1.504722 38.385767 107 107 107 0
-2.632863 1.504493 38.379930 104 104 104 0
-2.301066 1.363595 34.785576 104 104 104 0
-2.220589 1.366516 34.860104 107 107 107 0
-2.138715 1.368778 34.917803 106 106 106 0
-2.059836 1.373224 35.031225 106 106 106 0
-1.975771 1.374449 35.062486 95 95 95 0
-1.893634 1.377188 35.132355 97 97 97 0
-1.819089 1.385973 35.356447 96 96 96 0
-1.747356 1.397885 35.660334 113 113 113 0
-1.852511 1.560009 39.796151 136 136 136 0
-1.757864 1.562546 39.860868 138 138 138 0
-1.492327 1.404543 35.830188 133 133 133 0
-1.407189 1.407189 35.897689 137 137 137 0
-1.469728 1.567710 39.992591 138 138 138 0
-1.370775 1.566600 39.964278 135 135 135 0
-1.275728 1.570127 40.054259 135 135 135 0
-1.178616 1.571489 40.088993 136 136 136 0
-1.081950 1.573746 40.146570 136 136 136 0
-0.984441 1.575106 40.181281 137 137 137 0
-0.886840 1.576605 40.219504 136 136 136 0
-0.789065 1.578129 40.258397 140 140 140 0
-0.691318 1.580154 40.310061 148 148 148 0
-0.593130 1.581681 40.348995 144 144 144 0
-0.493367 1.578776 40.274890 145 145 145 0
-0.394920 1.579681 40.297981 144 144 144 0
-0.296437 1.580995 40.331502 150 150 150 0
-0.197716 1.581727 40.350187 143 143 143 0
-0.098739 1.579827 40.301717 143 143 143 0
0.000000 1.582420 40.367867 148 148 148 0
0.099122 1.585959 40.458141 157 157 157 0
0.198231 1.585852 40.455399 161 161 161 0
0.297339 1.585806 40.454244 155 155 155 0
0.397691 1.590766 40.580756 153 153 153 0
0.496719 1.589500 40.548471 143 143 143 0
0.594247 1.584660 40.424994 139 139 139 0
0.691479 1.580523 40.319468 136 136 136 0
0.788625 1.577250 40.235969 135 135 135 0
0.884755 1.572897 40.124931 135 135 135 0
0.983010 1.572816 40.122862 137 137 137 0
1.078838 1.569219 40.031093 131 131 131 0
1.175454 1.567271 39.981412 131 131 131 0
1.271647 1.565104 39.926119 127 127 127 0
1.368269 1.563736 39.891235 127 127 127 0
1.467280 1.565099 39.925984 123 123 123 0
1.565388 1.565388 39.933367 123 123 123 0
1.660142 1.562486 39.859342 119 119 119 0
1.759166 1.563704 39.890396 119 119 119 0
1.863590 1.569339 40.034154 116 116 116 0
1.955034 1.564027 39.898657 113 113 113 0
2.059539 1.569172 40.029906 113 113 113 0
1.894286 1.377663 35.144458 112 112 112 0
2.260173 1.572294 40.109542 108 108 108 0
2.059281 1.372854 35.021783 111 111 111 0
2.156354 1.380067 35.205779 112 112 112 0
2.252778 1.386325 35.365426 106 106 106 0
2.341841 1.387757 35.401973 106 106 106 0
2.433624 1.390642 35.475567 108 108 108 0
2.529167 1.395403 35.597008 108 108 108 0
2.661759 1.419605 36.214408 113 113 113 0
2.757710 1.423334 36.309546 138 138 138 0
2.850207 1.425103 36.354677 145 145 145 0
2.929287 1.420260 36.231134 135 135 135 0
3.020289 1.421312 36.257966 141 141 141 0
3.104369 1.419140 36.202558 141 141 141 0
3.694531 1.642014 41.888104 145 145 145 0
3.799821 1.643166 41.917497 142 142 142 0
3.905797 1.644546 41.952707 145 145 145 0
4.000322 1.641158 41.866271 144 144 144 0
4.092393 1.636957 41.759117 144 144 144 0
4.205189 1.641049 41.863502 145 145 145 0
4.334579 1.651268 42.124192 149 149 149 0
4.447892 1.655030 42.220147 147 147 147 0
4.536187 1.649522 42.079654 148 148 148 0
4.626732 1.645060 41.965823 148 148 148 0
4.688990 1.630953 41.605945 145 145 145 0
4.780514 1.627409 41.515539 145 145 145 0
4.871408 1.623803 41.423538 146 146 146 0
4.943337 1.614151 41.177316 143 143 143 0
5.041441 1.613261 41.154617 142 142 142 0
5.122671 1.607113 40.997769 145 145 145 0
5.202864 1.600881 40.838806 141 141 141 0
5.284881 1.595436 40.699895 138 138 138 0
5.360576 1.588319 40.518337 142 142 142 0
5.435421 1.581213 40.337074 141 141 141 0
5.504297 1.572656 40.118784 140 140 140 0
5.574112 1.564663 39.914873 138 138 138 0
5.663587 1.562369 39.856350 143 143 143 0
5.738501 1.556204 39.699071 138 138 138 0
5.822474 1.552660 39.608668 138 138 138 0
5.896221 1.546550 39.452802 141 141 141 0
5.971459 1.541022 39.311775 142 142 142 0
6.057656 1.538452 39.246233 141 141 141 0
6.128929 1.532232 39.087556 143 143 143 0
6.217073 1.530356 39.039705 144 144 144 0
6.297005 1.526547 38.942518 144 144 144 0
6.113475 1.459934 37.243221 144 144 144 0
6.476515 1.523886 38.874641 143 143 143 0
6.589389 1.527974 38.978935 145 145 145 0
6.837120 1.562770 39.866588 145 145 145 0
6.747767 1.520624 38.791419 143 143 143 0
7.186465 1.596992 40.739599 141 141 141 0
6.653325 1.458263 37.200587 139 139 139 0
7.386713 1.597127 40.743041 139 139 139 0
7.101823 1.515056 38.649375 137 137 137 0
7.587008 1.597265 40.746552 135 135 135 0
7.301801 1.517257 38.705545 134 134 134 0
7.396653 1.517262 38.705669 132 132 132 0
8.060089 1.632423 41.643445 130 130 130 0
-7.439121 1.580813 37.954699 134 134 134 0
-7.356553 1.583056 38.008539 133 133 133 0
-7.274077 1.585376 38.064245 126 126 126 0
-7.189079 1.587199 38.108025 122 122 122 0
-7.101457 1.588484 38.138867 120 120 120 0
-6.485613 1.470072 35.295853 124 124 124 0
-6.400350 1.470351 35.302536 123 123 123 0
-6.318688 1.471475 35.329540 120 120 120 0
-6.248790 1.475409 35.423978 120 120 120 0
-6.716160 1.608095 38.609718 122 122 122 0
-6.627261 1.609478 38.642923 123 123 123 0
-6.567717 1.618133 38.850734 134 134 134 0
-6.504863 1.626216 39.044798 147 147 147 0
-6.420187 1.629003 39.111707 151 151 151 0
-6.330653 1.630623 39.150608 152 152 152 0
-6.239559 1.631885 39.180903 158 158 158 0
-6.140816 1.631154 39.163369 151 151 151 0
-6.030892 1.627384 39.072834 153 153 153 0
-5.924070 1.624342 38.999805 149 149 149 0
-5.833415 1.625706 39.032554 153 153 153 0
-5.728413 1.623050 38.968793 151 151 151 0
-5.635829 1.623883 38.988784 148 148 148 0
-5.544442 1.625095 39.017886 151 151 151 0
-5.453481 1.626477 39.051066 155 155 155 0
-5.361928 1.627728 39.081111 162 162 162 0
-5.261143 1.626172 39.043736 160 160 160 0
-5.161856 1.625029 39.016299 153 153 153 0
-5.050021 1.619818 38.891192 155 155 155 0
-4.924852 1.610048 38.656612 155 155 155 0
-4.816984 1.605661 38.551295 151 151 151 0
-4.687893 1.593884 38.268516 146 146 146 0
-4.586379 1.591193 38.203906 147 147 147 0
-4.488047 1.589517 38.163667 144 144 144 0
-4.387621 1.587012 38.103522 144 144 144 0
-4.285337 1.583711 38.024282 144 144 144 0
-4.184071 1.580649 37.950756 143 143 143 0
-4.086626 1.578924 37.909330 140 140 140 0
-3.994065 1.579049 37.912342 141 141 141 0
-3.889392 1.574278 37.797788 139 139 139 0
-3.800071 1.575639 37.830470 136 136 136 0
-3.706470 1.575250 37.821127 131 131 131 0
-3.612725 1.574778 37.809790 130 130 130 0
-3.515459 1.572705 37.760036 129 129 129 0
-3.432501 1.577095 37.865430 122 122 122 0
-3.343155 1.578712 37.904251 123 123 123 0
-3.247956 1.577579 37.877035 121 121 121 0
-3.160902 1.580451 37.945997 120 120 120 0
-3.072479 1.582792 38.002216 114 114 114 0
-2.983700 1.585090 38.057393 114 114 114 0
-2.892779 1.586363 38.087936 111 111 111 0
-2.811043 1.592924 38.245480 110 110 110 0
-2.715348 1.591756 38.217423 106 106 106 0
-2.375821 1.442463 34.632960 108 108 108 0
-2.302110 1.449477 34.801365 108 108 108 0
-2.213532 1.447310 34.749329 103 103 103 0
-2.135151 1.451903 34.859612 101 101 101 0
-2.052836 1.454092 34.912169 102 102 102 0
-1.977666 1.461753 35.096118 100 100 100 0
-1.890118 1.460546 35.067126 103 103 103 0
-1.808061 1.463668 35.142100 94 94 94 0
-1.733009 1.473057 35.367524 101 101 101 0
-1.850319 1.655549 39.749073 117 117 117 0
-1.582837 1.494901 35.891993 129 129 129 0
-1.662709 1.662709 39.920990 142 142 142 0
-1.567221 1.665173 39.980136 144 144 144 0
-1.470284 1.666321 40.007716 136 136 136 0
-1.373414 1.667717 40.041219 133 133 133 0
-1.276396 1.669133 40.075222 133 133 133 0
-1.179938 1.671579 40.133944 138 138 138 0
-1.082517 1.672981 40.167613 134 134 134 0
-0.985608 1.675533 40.228888 139 139 139 0
-0.888024 1.677378 40.273176 137 137 137 0
-0.789462 1.677608 40.278699 135 135 135 0
-0.691226 1.678691 40.304701 142 142 142 0
-0.593635 1.681966 40.383339 144 144 144 0
-0.493852 1.679097 40.314451 147 147 147 0
-0.395057 1.678992 40.311928 145 145 145 0
-0.296450 1.679882 40.333306 148 148 148 0
-0.197770 1.681046 40.361245 146 146 146 0
-0.098972 1.682520 40.396635 148 148 148 0
0.000000 1.684622 40.447110 155 155 155 0
0.099191 1.686254 40.486279 164 164 164 0
0.198184 1.684566 40.445771 156 156 156 0
0.297590 1.686342 40.488403 148 148 148 0
0.397186 1.688040 40.529163 147 147 147 0
0.496072 1.686645 40.495677 145 145 145 0
0.591543 1.676038 40.241008 139 139 139 0
0.688343 1.671691 40.136631 139 139 139 0
0.785547 1.669288 40.078948 133 133 133 0
0.881506 1.665066 39.977583 133 133 133 0
0.977855 1.662353 39.912444 128 128 128 0
1.074294 1.660272 39.862472 136 136 136 0
1.171203 1.659204 39.836828 133 133 133 0
1.267194 1.657099 39.786302 129 129 129 0
1.364115 1.656426 39.770123 125 125 125 0
1.462674 1.657697 39.800649 127 127 127 0
1.559989 1.657488 39.795641 123 123 123 0
1.654548 1.654548 39.725051 121 121 121 0
1.754896 1.657402 39.793561 118 118 118 0
1.853389 1.658295 39.815013 117 117 117 0
1.951033 1.658378 39.816997 114 114 114 0
2.051757 1.660946 39.878651 112 112 112 0
2.156290 1.666224 40.005377 110 110 110 0
2.253766 1.665827 39.995850 106 106 106 0
2.054361 1.455172 34.938106 107 107 107 0
2.141959 1.456532 34.970755 111 111 111 0
2.243002 1.466578 35.211957 109 109 109 0
2.321422 1.461636 35.093309 100 100 100 0
2.408278 1.462169 35.106090 106 106 106 0
2.515027 1.474326 35.397988 106 106 106 0
2.628372 1.489411 35.760159 103 103 103 0
2.741789 1.503562 36.099927 109 109 109 0
2.852523 1.515403 36.384221 138 138 138 0
2.934168 1.511541 36.291505 140 140 140 0
3.019014 1.509507 36.242667 142 142 142 0
3.118045 1.514479 36.362038 146 146 146 0
3.700745 1.747574 41.958558 143 143 143 0
3.809856 1.750475 42.028201 148 148 148 0
3.899570 1.744544 41.885821 141 141 141 0
4.001978 1.744452 41.883596 145 145 145 0
4.113974 1.748439 41.979329 152 152 152 0
4.221960 1.750569 42.030461 145 145 145 0
4.339765 1.756572 42.174589 149 149 149 0
4.443663 1.756797 42.179996 151 151 151 0
4.531364 1.750754 42.034913 144 144 144 0
4.610345 1.741686 41.817189 144 144 144 0
4.686558 1.731989 41.584367 145 145 145 0
4.776669 1.727731 41.482143 147 147 147 0
4.874631 1.726432 41.450946 145 145 145 0
4.954125 1.718778 41.267182 143 143 143 0
5.025660 1.708724 41.025798 141 141 141 0
5.128469 1.709490 41.044166 140 140 140 0
5.203644 1.701191 40.844928 140 140 140 0
5.262931 1.688110 40.530853 139 139 139 0
5.348976 1.683937 40.430661 140 140 140 0
5.419717 1.675185 40.220531 140 140 140 0
5.501021 1.669953 40.094903 138 138 138 0
5.573631 1.662311 39.911426 137 137 137 0
5.657866 1.658340 39.816090 139 139 139 0
5.738072 1.653343 39.696108 141 141 141 0
5.804242 1.644535 39.484637 139 139 139 0
5.897500 1.643566 39.461359 142 142 142 0
5.956879 1.633338 39.215790 140 140 140 0
6.048275 1.632074 39.185456 141 141 141 0
6.133309 1.629160 39.115494 141 141 141 0
6.214257 1.625267 39.022022 145 145 145 0
6.306016 1.624277 38.998243 145 145 145 0
6.392165 1.621892 38.940996 147 147 147 0
6.641552 1.660388 39.865255 147 147 147 0
6.736925 1.659822 39.851674 147 147 147 0
6.650211 1.615051 38.776741 149 149 149 0
6.732140 1.611921 38.701583 151 151 151 0
7.029388 1.659717 39.849137 151 151 151 0
6.653551 1.549457 37.201850 146 146 146 0
7.386194 1.696828 40.740177 145 145 145 0
7.812263 1.770780 42.515715 142 142 142 0
7.203249 1.611253 38.685545 137 137 137 0
7.293558 1.610266 38.661849 133 133 133 0
7.394306 1.611579 38.693385 132 132 132 0
8.929294 1.921494 46.134300 129 129 129 0
-7.428110 1.671325 37.898520 135 135 135 0
-7.341147 1.672666 37.928944 127 127 127 0
-7.261901 1.675823 38.000531 125 125 125 0
-7.172484 1.676685 38.020057 121 121 121 0
-7.105951 1.682988 38.163004 118 118 118 0
-7.009533 1.682288 38.147119 124 124 124 0
-6.386747 1.553533 35.227507 120 120 120 0
-6.315477 1.557241 35.311587 118 118 118 0
-6.247309 1.561827 35.415582 120 120 120 0
-6.171668 1.564648 35.479549 124 124 124 0
-6.091884 1.566484 35.521187 124 124 124 0
-6.024772 1.571680 35.638994 126 126 126 0
-6.497494 1.719925 39.000565 139 139 139 0
-6.420102 1.724803 39.111190 145 145 145 0
-6.334094 1.727480 39.171885 156 156 156 0
-6.252966 1.731591 39.265094 152 152 152 0
-6.148551 1.729280 39.212700 151 151 151 0
-6.040983 1.725995 39.138211 149 149 149 0
-5.937583 1.723814 39.088760 150 150 150 0
-5.833233 1.721282 39.031332 148 148 148 0
-5.740481 1.722144 39.050890 144 144 144 0
-5.636372 1.719571 38.992543 149 149 149 0
-5.565506 1.727226 39.166122 159 159 159 0
-5.465189 1.725849 39.134901 163 163 163 0
-5.363062 1.723841 39.089370 159 159 159 0
-5.265478 1.723247 39.075905 158 158 158 0
-5.153714 1.717905 38.954751 155 155 155 0
-5.025907 1.706912 38.705483 152 152 152 0
-4.897703 1.695359 38.443512 150 150 150 0
-4.788281 1.689981 38.321576 146 146 146 0
-4.680565 1.685003 38.208694 148 148 148 0
-4.581311 1.682931 38.161692 149 149 149 0
-4.475819 1.678432 38.059681 146 146 146 0
-4.369777 1.673532 37.948562 145 145 145 0
-4.275913 1.673183 37.940669 146 146 146 0
-4.178847 1.671539 37.903375 142 142 142 0
-4.082050 1.669930 37.866884 143 143 143 0
-3.983957 1.667703 37.816389 140 140 140 0
-3.878810 1.662347 37.694942 137 137 137 0
-3.789585 1.663720 37.726078 136 136 136 0
-3.699907 1.664958 37.754156 135 135 135 0
-3.606725 1.664642 37.746995 132 132 132 0
-3.509688 1.662484 37.698044 128 128 128 0
-3.424318 1.665885 37.775162 124 124 124 0
-3.331671 1.665836 37.774053 118 118 118 0
-3.239097 1.665821 37.773724 121 121 121 0
-3.150857 1.668101 37.825410 117 117 117 0
-3.062914 1.670680 37.883909 119 119 119 0
-2.975755 1.673862 37.956053 115 115 115 0
-2.885441 1.675417 37.991324 114 114 114 0
-2.526021 1.515613 34.367637 109 109 109 0
-2.707489 1.680510 38.106808 106 106 106 0
-2.368686 1.522727 34.528952 107 107 107 0
-2.535410 1.690273 38.328194 102 102 102 0
-2.209167 1.529423 34.680795 109 109 109 0
-2.128837 1.532763 34.756523 103 103 103 0
-2.048783 1.536587 34.843245 97 97 97 0
-1.976065 1.546486 35.067706 98 98 98 0
-1.886196 1.543251 34.994364 97 97 97 0
-1.804128 1.546395 35.065652 98 98 98 0
-1.728297 1.555467 35.271366 95 95 95 0
-1.649604 1.562783 35.437261 103 103 103 0
-1.755913 1.755913 39.816627 116 116 116 0
-1.668262 1.766395 40.054308 140 140 140 0
-1.570417 1.766720 40.061669 136 136 136 0
-1.471298 1.765558 40.035327 130 130 130 0
-1.374749 1.767535 40.080158 137 137 137 0
-1.279754 1.771968 40.180671 140 140 140 0
-1.182814 1.774222 40.231783 136 136 136 0
-1.083798 1.773488 40.215146 143 143 143 0
-0.987829 1.778093 40.319566 138 138 138 0
-0.888814 1.777628 40.309019 142 142 142 0
-0.789746 1.776927 40.293140 142 142 142 0
-0.691355 1.777769 40.312223 141 141 141 0
-0.594035 1.782106 40.410558 145 145 145 0
-0.495148 1.782534 40.420280 146 146 146 0
-0.395182 1.778321 40.324729 149 149 149 0
-0.296645 1.779872 40.359906 148 148 148 0
-0.198036 1.782323 40.415479 147 147 147 0
-0.099010 1.782187 40.412410 156 156 156 0
0.000000 1.784624 40.467658 162 162 162 0
0.099287 1.787157 40.525104 157 157 157 0
0.198375 1.785377 40.484743 153 153 153 0
0.297307 1.783844 40.449982 143 143 143 0
0.396153 1.782690 40.423819 139 139 139 0
0.493603 1.776970 40.294103 140 140 140 0
0.588822 1.766465 40.055906 140 140 140 0
0.685423 1.762516 39.966357 137 137 137 0
0.782193 1.759934 39.907807 136 136 136 0
0.878594 1.757188 39.845541 138 138 138 0
0.975274 1.755493 39.807093 134 134 134 0
1.071168 1.752821 39.746507 130 130 130 0
1.168127 1.752191 39.732222 131 131 131 0
1.264733 1.751169 39.709039 132 132 132 0
1.359206 1.747551 39.626996 128 128 128 0
1.458180 1.749816 39.678365 125 125 125 0
1.554785 1.749133 39.662885 126 126 126 0
1.651286 1.748420 39.646713 124 124 124 0
1.748694 1.748694 39.652936 121 121 121 0
1.847664 1.750419 39.692038 118 118 118 0
1.945876 1.751288 39.711748 114 114 114 0
1.784183 1.529300 34.677994 113 113 113 0
2.148494 1.757859 39.860742 110 110 110 0
1.968519 1.540580 34.933792 107 107 107 0
2.048030 1.536023 34.830444 108 108 108 0
2.139369 1.540346 34.928480 108 108 108 0
2.237449 1.549003 35.124795 108 108 108 0
2.321422 1.547615 35.093309 104 104 104 0
2.414748 1.552338 35.200413 101 101 101 0
2.493699 1.547813 35.097811 109 109 109 0
2.602038 1.561223 35.401879 106 106 106 0
2.743563 1.593036 36.123276 105 105 105 0
2.855100 1.605994 36.417093 115 115 115 0
2.939364 1.603289 36.355769 142 142 142 0
3.028678 1.603418 36.358675 144 144 144 0
3.118304 1.603699 36.365057 143 143 143 0
3.704867 1.852434 42.005298 145 145 145 0
3.809945 1.853487 42.029178 145 145 145 0
3.899010 1.846900 41.879808 146 146 146 0
4.010222 1.850872 41.969883 148 148 148 0
4.115486 1.851969 41.994752 149 149 149 0
4.238698 1.860892 42.197091 152 152 152 0
4.345890 1.862524 42.234108 150 150 150 0
4.448466 1.862149 42.225590 148 148 148 0
4.518967 1.848668 41.919916 150 150 150 0
4.598273 1.839309 41.707690 148 148 148 0
4.684338 1.833002 41.564664 143 143 143 0
4.780926 1.830993 41.519113 145 145 145 0
4.861279 1.822980 41.337408 146 146 146 0
4.939989 1.814690 41.149426 141 141 141 0
5.020525 1.807389 40.983879 143 143 143 0
5.117145 1.806051 40.953538 142 142 142 0
5.204224 1.801462 40.849480 139 139 139 0
5.275390 1.791642 40.626797 138 138 138 0
5.348507 1.782836 40.427115 138 138 138 0
5.429693 1.776990 40.294565 139 139 139 0
5.500875 1.768138 40.093843 138 138 138 0
5.574943 1.760508 39.920822 137 137 137 0
5.651242 1.753834 39.769472 138 138 138 0
5.730020 1.748142 39.640403 137 137 137 0
5.813309 1.743993 39.546317 140 140 140 0
5.892483 1.738765 39.427787 139 139 139 0
5.969315 1.733027 39.297665 142 142 142 0
6.043878 1.726822 39.156969 144 144 144 0
6.124022 1.722381 39.056262 144 144 144 0
6.214968 1.721068 39.026489 143 143 143 0
6.305739 1.719747 38.996531 143 143 143 0
6.385105 1.715401 38.897992 148 148 148 0
6.460502 1.710133 38.778521 150 150 150 0
6.589182 1.718917 38.977710 149 149 149 0
6.382208 1.641139 37.214039 150 150 150 0
6.932970 1.757654 39.856106 153 153 153 0
6.821343 1.705336 38.669743 150 150 150 0
6.929119 1.708550 38.742628 149 149 149 0
7.386097 1.796618 40.739639 146 146 146 0
7.094580 1.702699 38.609957 141 141 141 0
7.203249 1.706033 38.685545 138 138 138 0
7.014980 1.639866 37.185159 135 135 135 0
8.471580 1.954980 44.330613 131 131 131 0
7.481336 1.704608 38.653246 126 126 126 0
-7.420131 1.762281 37.857812 137 137 137 0
-7.337038 1.764604 37.907714 132 132 132 0
-7.248120 1.765568 37.928413 127 127 127 0
-7.164136 1.767774 37.975808 123 123 123 0
-7.086308 1.771577 38.057507 120 120 120 0
-6.455603 1.635419 35.132535 120 120 120 0
-6.918272 1.776313 38.159249 117 117 117 0
-6.305730 1.641217 35.257084 120 120 120 0
-6.238244 1.646203 35.364194 121 121 121 0
-6.164335 1.649611 35.437394 122 122 122 0
-6.065146 1.646254 35.365285 122 122 122 0
-6.013509 1.655894 35.572369 126 126 126 0
-5.962009 1.665855 35.786366 128 128 128 0
-6.422992 1.821446 39.128797 148 148 148 0
-6.337009 1.824291 39.189915 151 151 151 0
-6.252966 1.827790 39.265094 148 148 148 0
-6.158775 1.828386 39.277900 150 150 150 0
-6.055905 1.826384 39.234890 150 150 150 0
-5.955011 1.824923 39.203497 152 152 152 0
-5.851896 1.822722 39.156214 149 149 149 0
-5.746210 1.819633 39.089863 156 156 156 0
-5.659138 1.822434 39.150035 158 158 158 0
-5.577500 1.827112 39.250530 158 158 158 0
-5.475598 1.825199 39.209438 160 160 160 0
-5.364397 1.820063 39.099104 160 160 160 0
-5.261740 1.817692 39.048164 155 155 155 0
-5.137623 1.807682 38.833132 153 153 153 0
-4.991317 1.789340 38.439098 148 148 148 0
-4.879470 1.782883 38.300395 148 148 148 0
-4.780716 1.781051 38.261031 149 149 149 0
-4.670310 1.774718 38.124977 150 150 150 0
-4.568134 1.771317 38.051929 146 146 146 0
-4.468845 1.768918 38.000382 144 144 144 0
-4.366232 1.765073 37.917777 149 149 149 0
-4.266081 1.762077 37.853423 151 151 151 0
-4.162740 1.757601 37.757281 144 144 144 0
-4.068330 1.756779 37.739611 142 142 142 0
-3.969937 1.754158 37.683316 137 137 137 0
-3.869518 1.750496 37.604649 138 138 138 0
-3.779473 1.751463 37.625411 131 131 131 0
-3.689762 1.752637 37.650635 131 131 131 0
-3.593849 1.750850 37.612236 131 131 131 0
-3.499469 1.749735 37.588282 128 128 128 0
-3.414291 1.753285 37.664550 124 124 124 0
-3.323815 1.754236 37.684981 122 122 122 0
-3.233469 1.755312 37.708097 124 124 124 0
-3.146928 1.758577 37.778242 120 120 120 0
-3.054583 1.758699 37.780867 116 116 116 0
-2.966337 1.761262 37.835929 118 118 118 0
-2.871828 1.760153 37.812088 113 113 113 0
-2.788097 1.765795 37.933293 109 109 109 0
-2.438663 1.597744 34.323190 107 107 107 0
-2.364670 1.604598 34.470413 105 105 105 0
-2.281267 1.605336 34.486270 98 98 98 0
-2.202291 1.609367 34.572857 103 103 103 0
-2.122861 1.613374 34.658954 101 101 101 0
-2.045703 1.619515 34.790867 103 103 103 0
-1.963527 1.622044 34.845207 95 95 95 0
-1.883701 1.626833 34.948075 99 99 99 0
-1.800581 1.629097 34.996708 102 102 102 0
-1.721393 1.635324 35.130479 96 96 96 0
-1.642575 1.642575 35.286251 89 89 89 0
-1.562240 1.649031 35.424951 99 99 99 0
-1.494405 1.670218 35.880083 112 112 112 0
-1.572876 1.867790 40.124376 136 136 136 0
-1.474493 1.867691 40.122262 135 135 135 0
-1.379073 1.871599 40.206217 139 139 139 0
-1.282108 1.873850 40.254572 134 134 134 0
-1.183943 1.874577 40.270184 136 136 136 0
-1.085272 1.874560 40.269823 138 138 138 0
-0.988282 1.877736 40.338039 144 144 144 0
-0.890648 1.880256 40.392181 145 145 145 0
-0.791627 1.880115 40.389146 141 141 141 0
-0.692947 1.880856 40.405075 142 142 142 0
-0.594660 1.883090 40.453056 146 146 146 0
-0.495285 1.882084 40.431459 150 150 150 0
-0.395579 1.879000 40.365193 151 151 151 0
-0.297154 1.881975 40.429115 150 150 150 0
-0.198423 1.885014 40.494395 158 158 158 0
-0.099153 1.883913 40.470734 163 163 163 0
0.000000 1.884995 40.493991 155 155 155 0
0.099310 1.886885 40.534596 148 148 148 0
0.198344 1.884270 40.478415 145 145 145 0
0.296672 1.878920 40.363484 140 140 140 0
0.393643 1.869805 40.167676 142 142 142 0
0.490420 1.863596 40.034290 136 136 136 0
0.586465 1.857138 39.895559 137 137 137 0
0.682862 1.853483 39.817030 138 138 138 0
0.779312 1.850865 39.760791 135 135 135 0
0.876357 1.850087 39.744072 135 135 135 0
0.971520 1.845888 39.653885 137 137 137 0
1.068907 1.846293 39.662579 136 136 136 0
1.165390 1.845200 39.639103 133 133 133 0
1.260052 1.841614 39.562068 130 130 130 0
1.356145 1.840483 39.537765 132 132 132 0
1.453974 1.841700 39.563913 126 126 126 0
1.552479 1.843569 39.604054 124 124 124 0
1.646876 1.840626 39.540829 126 126 126 0
1.744542 1.841460 39.558764 120 120 120 0
1.841283 1.841283 39.554954 120 120 120 0
1.938979 1.842030 39.570995 116 116 116 0
2.040839 1.846474 39.666461 111 111 111 0
1.870970 1.615837 34.711865 110 110 110 0
2.240002 1.850437 39.751597 109 109 109 0
2.041263 1.616000 34.715350 110 110 110 0
2.132731 1.620876 34.820103 106 106 106 0
2.220409 1.622607 34.857289 106 106 106 0
2.313656 1.628129 34.975910 105 105 105 0
2.384919 1.618338 34.765586 104 104 104 0
2.498280 1.636804 35.162276 104 104 104 0
2.579884 1.633926 35.100459 107 107 107 0
2.717639 1.665650 35.781948 101 101 101 0
2.868284 1.703043 36.585250 100 100 100 0
2.942167 1.693975 36.390434 119 119 119 0
3.027724 1.691963 36.347228 143 143 143 0
3.119931 1.693677 36.384034 145 145 145 0
3.692072 1.948594 41.860227 145 145 145 0
3.803627 1.953214 41.959483 145 145 145 0
3.903121 1.951560 41.923962 147 147 147 0
3.998788 1.948128 41.850216 149 149 149 0
4.135961 1.964581 42.203681 155 155 155 0
4.257804 1.973129 42.387295 154 154 154 0
4.350399 1.968037 42.277926 151 151 151 0
4.442261 1.962859 42.166690 147 147 147 0
4.513732 1.949112 41.871356 145 145 145 0
4.602994 1.943486 41.750514 143 143 143 0
4.678509 1.932428 41.512947 146 146 146 0
4.774450 1.930097 41.462871 143 143 143 0
4.862119 1.924589 41.344547 143 143 143 0
4.939275 1.915229 41.143482 140 140 140 0
5.036831 1.913996 41.116989 140 140 140 0
5.115007 1.905591 40.936430 140 140 140 0
5.198962 1.899621 40.808181 140 140 140 0
5.266743 1.888078 40.560210 137 137 137 0
5.349884 1.882367 40.437523 136 136 136 0
5.415040 1.870650 40.185822 138 138 138 0
5.496863 1.865007 40.064597 137 137 137 0
5.587198 1.862399 40.008580 138 138 138 0
5.660948 1.854449 39.837779 137 137 137 0
5.720437 1.842175 39.574106 139 139 139 0
5.811476 1.840301 39.533850 140 140 140 0
5.901077 1.838040 39.485293 140 140 140 0
5.961856 1.827020 39.248558 141 141 141 0
6.049415 1.824427 39.192838 144 144 144 0
6.120198 1.816934 39.031877 144 144 144 0
6.218395 1.817685 39.048004 141 141 141 0
6.305969 1.815355 38.997954 142 142 142 0
6.390133 1.812127 38.928621 145 145 145 0
6.468793 1.807457 38.828287 145 145 145 0
6.589836 1.814593 38.981581 145 145 145 0
6.382914 1.732505 37.218160 144 144 144 0
6.318357 1.690828 36.322836 142 142 142 0
6.827575 1.801721 38.705075 141 141 141 0
6.653325 1.731687 37.200587 141 141 141 0
7.386021 1.896411 40.739224 138 138 138 0
7.099730 1.798598 38.637984 135 135 135 0
7.203249 1.800812 38.685545 134 134 134 0
7.302133 1.801825 38.707302 133 133 133 0
7.957871 1.938456 41.642444 128 128 128 0
8.408250 2.022237 43.442263 120 120 120 0
-7.409209 1.852302 37.802086 141 141 141 0
-7.329294 1.855517 37.867704 135 135 135 0
-7.242739 1.857113 37.900258 129 129 129 0
-7.149980 1.857138 37.900768 123 123 123 0
-7.066450 1.859592 37.950858 119 119 119 0
-6.441342 1.717691 35.054922 116 116 116 0
-6.372149 1.722202 35.146988 120 120 120 0
-6.303647 1.727027 35.245443 121 121 121 0
-6.231237 1.730899 35.324471 118 118 118 0
-6.158588 1.734814 35.404360 120 120 120 0
-6.079409 1.736974 35.448451 119 119 119 0
-6.523458 1.890857 38.588927 123 123 123 0
-6.467426 1.902184 38.820084 119 119 119 0
-5.911256 1.764554 36.011309 133 133 133 0
-6.342359 1.921927 39.222999 139 139 139 0
-6.259572 1.926022 39.306572 148 148 148 0
-6.162237 1.925699 39.299980 157 157 157 0
-6.064995 1.925395 39.293778 154 154 154 0
-5.964562 1.924052 39.266375 153 153 153 0
-5.867963 1.923922 39.263719 151 151 151 0
-5.766483 1.922161 39.227775 156 156 156 0
-5.678255 1.924832 39.282288 161 161 161 0
-5.584842 1.925808 39.302196 160 160 160 0
-5.480710 1.923056 39.246046 159 159 159 0
-5.367743 1.917051 39.123493 159 159 159 0
-5.233244 1.902998 38.836688 149 149 149 0
-5.104061 1.890393 38.579446 151 151 151 0
-4.974267 1.877082 38.307791 150 150 150 0
-4.868751 1.872596 38.216253 149 149 149 0
-4.771210 1.871063 38.184953 147 147 147 0
-4.660693 1.864277 38.046477 145 145 145 0
-4.548873 1.856683 37.891486 145 145 145 0
-4.455792 1.856580 37.889392 146 146 146 0
-4.353355 1.852492 37.805952 145 145 145 0
-4.252348 1.848847 37.731571 146 146 146 0
-4.153326 1.845923 37.671889 140 140 140 0
-4.061915 1.846325 37.680100 144 144 144 0
-3.960162 1.841936 37.590522 140 140 140 0
-3.859357 1.837789 37.505898 141 141 141 0
-3.773245 1.840607 37.563418 135 135 135 0
-3.677645 1.838823 37.526990 133 133 133 0
-3.583212 1.837544 37.500906 132 132 132 0
-3.492505 1.838161 37.513483 126 126 126 0
-3.404031 1.840017 37.551357 128 128 128 0
-3.313392 1.840773 37.566798 126 126 126 0
-3.216646 1.838083 37.511902 122 122 122 0
-3.133155 1.843032 37.612907 116 116 116 0
-3.047641 1.847055 37.695003 114 114 114 0
-2.954835 1.846772 37.689224 114 114 114 0
-2.862978 1.847083 37.695565 110 110 110 0
-2.781960 1.854640 37.849793 110 110 110 0
-2.435371 1.679566 34.276858 108 108 108 0
-2.354371 1.681694 34.320278 107 107 107 0
-2.272806 1.683560 34.358367 99 99 99 0
-2.200666 1.692820 34.547347 100 100 100 0
-2.116610 1.693288 34.556902 98 98 98 0
-2.035685 1.696405 34.620501 104 104 104 0
-1.965985 1.709552 34.888816 98 98 98 0
-1.886195 1.714722 34.994336 101 101 101 0
-1.798476 1.712834 34.955797 97 97 97 0
-1.724736 1.724736 35.198697 98 98 98 0
-1.634481 1.720506 35.112372 95 95 95 0
-1.543851 1.715390 35.007965 99 99 99 0
-1.484116 1.746019 35.633035 105 105 105 0
-1.412842 1.766052 36.041877 118 118 118 0
-1.479804 1.973072 40.266779 128 128 128 0
-1.381300 1.973285 40.271132 136 136 136 0
-1.284761 1.976556 40.337873 134 134 134 0
-1.184105 1.973509 40.275689 137 137 137 0
-1.086166 1.974848 40.303017 141 141 141 0
-0.988165 1.976331 40.333280 144 144 144 0
-0.891111 1.980247 40.413209 140 140 140 0
-0.792765 1.981913 40.447202 141 141 141 0
-0.693136 1.980390 40.416115 146 146 146 0
-0.595577 1.985257 40.515458 147 147 147 0
-0.495400 1.981598 40.440781 152 152 152 0
-0.395969 1.979847 40.405042 148 148 148 0
-0.297788 1.985252 40.515337 154 154 154 0
-0.198635 1.986354 40.537846 160 160 160 0
-0.099171 1.983423 40.478012 159 159 159 0
0.000000 1.983951 40.488806 154 154 154 0
0.099431 1.988615 40.583982 146 146 146 0
0.197811 1.978114 40.369665 146 146 146 0
0.294816 1.965438 40.110976 141 141 141 0
0.392185 1.960925 40.018879 142 142 142 0
0.488699 1.954797 39.893815 139 139 139 0
0.585048 1.950159 39.799155 138 138 138 0
0.683111 1.951746 39.831560 139 139 139 0
0.777261 1.943153 39.656176 137 137 137 0
0.875596 1.945770 39.709587 133 133 133 0
0.969039 1.938078 39.552610 134 134 134 0
1.064892 1.936167 39.513609 133 133 133 0
1.163554 1.939256 39.576655 132 132 132 0
1.258166 1.935640 39.502859 130 130 130 0
1.353148 1.933068 39.450365 130 130 130 0
1.448641 1.931521 39.418793 127 127 127 0
1.544985 1.931231 39.412885 129 129 129 0
1.641938 1.931692 39.422288 122 122 122 0
1.736177 1.929086 39.369095 120 120 120 0
1.837609 1.934325 39.476027 113 113 113 0
1.931303 1.931303 39.414338 115 115 115 0
2.031671 1.934924 39.488254 117 117 117 0
1.863084 1.693713 34.565572 112 112 112 0
2.233715 1.942361 39.640017 112 112 112 0
2.333419 1.944515 39.683989 107 107 107 0
2.125153 1.700122 34.696373 112 112 112 0
2.205939 1.696876 34.630118 105 105 105 0
2.302774 1.705759 34.811405 109 109 109 0
2.385819 1.704156 34.778704 107 107 107 0
2.490875 1.717845 35.058055 107 107 107 0
2.613339 1.742226 35.555627 104 104 104 0
2.669316 1.722139 35.145699 101 101 101 0
2.584066 1.615041 32.960023 98 98 98 0
2.887667 1.750101 35.716351 91 91 91 0
3.030002 1.782354 36.374570 134 134 134 0
3.610252 2.063001 42.102065 144 144 144 0
3.703490 2.057494 41.989679 143 143 143 0
3.803512 2.055953 41.958216 144 144 144 0
3.912059 2.058978 42.019963 145 145 145 0
4.021103 2.062104 42.083762 145 145 145 0
4.152775 2.076388 42.375256 156 156 156 0
4.255177 2.075696 42.361147 152 152 152 0
4.346514 2.069768 42.240172 148 148 148 0
4.429714 2.060332 42.047593 147 147 147 0
4.519488 2.054313 41.924745 144 144 144 0
4.594052 2.041801 41.669402 146 146 146 0
4.675565 2.032854 41.486819 144 144 144 0
4.762636 2.026654 41.360282 145 145 145 0
4.862519 2.026050 41.347951 143 143 143 0
4.953101 2.021674 41.258647 139 139 139 0
5.032682 2.013073 41.083119 141 141 141 0
5.094438 1.997819 40.771812 138 138 138 0
5.188312 1.995505 40.724587 141 141 141 0
5.271643 1.989299 40.597942 139 139 139 0
5.341982 1.978512 40.377797 139 139 139 0
5.424705 1.972620 40.257551 141 141 141 0
5.513839 1.969228 40.188328 137 137 137 0
5.570621 1.954604 39.889874 141 141 141 0
5.657068 1.950713 39.810471 139 139 139 0
5.738116 1.945124 39.696412 133 133 133 0
5.809384 1.936461 39.519618 137 137 137 0
5.897500 1.933607 39.461359 138 138 138 0
5.966112 1.924552 39.276579 138 138 138 0
6.044607 1.918923 39.161691 135 135 135 0
6.146923 1.920914 39.202317 138 138 138 0
6.220806 1.914094 39.063148 138 138 138 0
6.305723 1.910825 38.996431 139 139 139 0
6.382900 1.905343 38.884559 139 139 139 0
6.494768 1.910226 38.984202 134 134 134 0
6.590180 1.910197 38.983614 135 135 135 0
6.684477 1.909850 38.976540 136 136 136 0
6.934458 1.953368 39.864660 133 133 133 0
7.187195 1.996443 40.743734 133 133 133 0
7.445776 2.039939 41.631402 131 131 131 0
7.024572 1.898533 38.745573 131 131 131 0
7.650331 2.040088 41.634454 131 131 131 0
7.211100 1.897658 38.727712 129 129 129 0
8.193846 2.128272 43.434114 127 127 127 0
7.410262 1.900067 38.776883 123 123 123 0
8.583722 2.173094 44.348863 111 111 111 0
-7.399894 1.942472 37.754561 140 140 140 0
-7.317570 1.945177 37.807129 138 138 138 0
-7.233397 1.947453 37.851372 136 136 136 0
-7.143889 1.948333 37.868482 125 125 125 0
-6.510800 1.799037 34.966704 118 118 118 0
