ply
format ascii 1.0
element vertex 1099
property float x
property float y
property float z
property uchar red
property uchar green
property uchar blue
property uchar alpha
end_header
-2.050541 -2.358122 41.847767 135 135 135 0
-1.948984 -2.359296 41.868607 136 136 136 0
-1.846175 -2.359001 41.863369 135 135 135 0
-1.744107 -2.359674 41.875316 134 134 134 0
-1.642478 -2.361063 41.899957 131 131 131 0
-1.539144 -2.360020 41.881463 131 131 131 0
-1.437166 -2.361058 41.899875 129 129 129 0
-1.335466 -2.362747 41.929856 130 130 130 0
-1.233482 -2.364174 41.955178 131 131 131 0
-1.130831 -2.364464 41.960316 129 129 129 0
-1.028712 -2.366038 41.988255 132 132 132 0
-0.925411 -2.364939 41.968753 133 133 133 0
-0.823384 -2.367228 42.009372 135 135 135 0
-0.721098 -2.369321 42.046518 133 133 133 0
-0.618055 -2.369211 42.044554 132 132 132 0
-0.514883 -2.368462 42.031263 132 132 132 0
-0.412466 -2.371678 42.088346 134 134 134 0
-0.309435 -2.372332 42.099955 131 131 131 0
-0.206285 -2.372278 42.098980 131 131 131 0
-0.103234 -2.374390 42.136473 130 130 130 0
0.000000 -2.376414 42.172381 131 131 131 0
0.103287 -2.375601 42.157966 130 130 130 0
0.206644 -2.376405 42.172228 131 131 131 0
0.310518 -2.380639 42.247369 131 131 131 0
0.413721 -2.378897 42.216454 129 129 129 0
0.517265 -2.379419 42.225712 129 129 129 0
0.621501 -2.382420 42.278973 128 128 128 0
0.725909 -2.385128 42.327030 127 127 127 0
0.828824 -2.382869 42.286944 128 128 128 0
0.934125 -2.387207 42.363924 126 126 126 0
1.039340 -2.390482 42.422039 125 125 125 0
1.143271 -2.390476 42.421928 127 127 127 0
1.247795 -2.391607 42.442013 125 125 125 0
1.355223 -2.397703 42.550183 126 126 126 0
1.458333 -2.395832 42.516984 124 124 124 0
1.380266 -2.116407 37.558249 126 126 126 0
1.670279 -2.401026 42.609164 123 123 123 0
1.778082 -2.405640 42.691038 125 125 125 0
1.881655 -2.404337 42.667914 123 123 123 0
1.988814 -2.407511 42.724249 124 124 124 0
2.098596 -2.413386 42.828495 125 125 125 0
2.201972 -2.411684 42.798294 126 126 126 0
2.309463 -2.414439 42.847179 127 127 127 0
2.417667 -2.417667 42.904464 126 126 126 0
2.522576 -2.417469 42.900954 125 125 125 0
2.629511 -2.419150 42.930790 125 125 125 0
2.738356 -2.422392 42.988320 123 123 123 0
2.846442 -2.424747 43.030109 126 126 126 0
2.955374 -2.427629 43.081253 126 126 126 0
3.063951 -2.430030 43.123864 130 130 130 0
3.167311 -2.428272 43.092662 129 129 129 0
3.279652 -2.433290 43.181728 129 129 129 0
3.387696 -2.434907 43.210408 125 125 125 0
3.496213 -2.436754 43.243198 128 128 128 0
3.602053 -2.436683 43.241936 128 128 128 0
3.713230 -2.440123 43.302977 127 127 127 0
3.825891 -2.444319 43.377452 129 129 129 0
3.926365 -2.440713 43.313454 127 127 127 0
4.045884 -2.448825 43.457402 127 127 127 0
4.149695 -2.447256 43.429568 126 126 126 0
4.262019 -2.450661 43.489988 128 128 128 0
4.369564 -2.451219 43.499889 127 127 127 0
4.482553 -2.454731 43.562223 133 133 133 0
4.582869 -2.451302 43.501366 134 134 134 0
4.687400 -2.450232 43.482376 136 136 136 0
4.802272 -2.454495 43.558026 137 137 137 0
4.907393 -2.453697 43.543861 137 137 137 0
5.015712 -2.454497 43.558070 137 137 137 0
5.123778 -2.455143 43.569537 135 135 135 0
5.231207 -2.455465 43.575239 137 137 137 0
5.329873 -2.451742 43.509170 137 137 137 0
5.446076 -2.456074 43.586044 139 139 139 0
5.552449 -2.455891 43.582800 139 139 139 0
5.650513 -2.452110 43.515699 141 141 141 0
5.762325 -2.454324 43.554989 147 147 147 0
5.870821 -2.455071 43.568246 149 149 149 0
5.968163 -2.451210 43.499733 148 148 148 0
6.069248 -2.448995 43.460423 143 143 143 0
6.184279 -2.452387 43.520612 141 141 141 0
6.280503 -2.448332 43.448654 138 138 138 0
6.382248 -2.446528 43.416655 142 142 142 0
6.498165 -2.450128 43.480531 138 138 138 0
6.602556 -2.449335 43.466468 136 136 136 0
6.696604 -2.444792 43.385835 136 136 136 0
6.814785 -2.449063 43.461641 135 135 135 0
6.922452 -2.449483 43.469084 132 132 132 0
7.025927 -2.448429 43.450381 128 128 128 0
7.132284 -2.448396 43.449798 128 128 128 0
7.253794 -2.453489 43.540179 129 129 129 0
7.351116 -2.450372 43.484862 130 130 130 0
7.464308 -2.452558 43.523661 132 132 132 0
7.576888 -2.454485 43.557847 131 131 131 0
7.685435 -2.455070 43.568228 129 129 129 0
7.781672 -2.451760 43.509487 125 125 125 0
7.906180 -2.457326 43.608272 126 126 126 0
8.026737 -2.461533 43.682921 124 124 124 0
8.121037 -2.457682 43.614590 123 123 123 0
8.294947 -2.477711 43.970032 127 127 127 0
8.362604 -2.465896 43.760354 129 129 129 0
8.685846 -2.528791 44.876495 130 130 130 0
-8.072382 -2.219905 41.185624 129 129 129 0
-7.986247 -2.224018 41.261930 128 128 128 0
-7.888336 -2.224915 41.278577 130 130 130 0
-7.791224 -2.226064 41.299887 130 130 130 0
-7.706462 -2.230818 41.388088 131 131 131 0
-7.606106 -2.231124 41.393775 131 131 131 0
-7.508580 -2.232281 41.415225 133 133 133 0
-7.414215 -2.234421 41.454932 132 132 132 0
-7.315047 -2.235153 41.468520 135 135 135 0
-7.212144 -2.234749 41.461016 134 134 134 0
-7.117606 -2.236962 41.502077 134 134 134 0
-7.027272 -2.240580 41.569193 133 133 133 0
-6.920263 -2.238909 41.538195 135 135 135 0
-6.820091 -2.239433 41.547922 133 133 133 0
-6.729747 -2.243249 41.618718 135 135 135 0
-6.630500 -2.244169 41.635795 135 135 135 0
-6.528172 -2.244059 41.633748 133 133 133 0
-6.430226 -2.245476 41.660032 135 135 135 0
-6.337898 -2.248932 41.724150 132 132 132 0
-6.233102 -2.248004 41.706936 131 131 131 0
-6.132531 -2.248595 41.717895 134 134 134 0
-6.038171 -2.251521 41.772197 132 132 132 0
-5.935355 -2.251342 41.768863 132 132 132 0
-5.837683 -2.253141 41.802240 133 133 133 0
-5.738269 -2.254320 41.824119 133 133 133 0
-5.644031 -2.257612 41.885199 132 132 132 0
-5.539210 -2.256715 41.868558 132 132 132 0
-5.439822 -2.258040 41.893126 133 133 133 0
-5.340676 -2.259517 41.920531 135 135 135 0
-5.242544 -2.261489 41.957133 136 136 136 0
-5.138622 -2.260994 41.947936 136 136 136 0
-5.038064 -2.261988 41.966382 138 138 138 0
-4.935510 -2.262109 41.968624 137 137 137 0
-4.833963 -2.262706 41.979701 136 136 136 0
-4.732184 -2.263218 41.989211 135 135 135 0
-4.629460 -2.263292 41.990567 139 139 139 0
-4.529353 -2.264676 42.016259 138 138 138 0
-4.424851 -2.263877 42.001435 137 137 137 0
-4.322447 -2.264139 42.006288 139 139 139 0
-4.218356 -2.263508 41.994582 136 136 136 0
-4.114597 -2.263028 41.985679 136 136 136 0
-4.010343 -2.262245 41.971143 139 139 139 0
-3.908356 -2.262732 41.980191 143 143 143 0
-3.803590 -2.261594 41.959069 141 141 141 0
-3.700161 -2.261209 41.951937 138 138 138 0
-3.599047 -2.262258 41.971392 139 139 139 0
-3.491420 -2.259154 41.913807 138 138 138 0
-3.388592 -2.259061 41.912085 141 141 141 0
-3.286756 -2.259645 41.922908 139 139 139 0
-3.180207 -2.256921 41.872376 140 140 140 0
-3.077430 -2.256782 41.869798 139 139 139 0
-2.974713 -2.256679 41.867888 139 139 139 0
-2.869988 -2.254990 41.836554 138 138 138 0
-2.767812 -2.255254 41.841448 137 137 137 0
-2.665703 -2.255595 41.847766 139 139 139 0
-2.560623 -2.253349 41.806097 137 137 137 0
-2.456424 -2.251722 41.775920 137 137 137 0
-2.357269 -2.254779 41.832633 136 136 136 0
-2.253617 -2.253617 41.811076 135 135 135 0
-2.150901 -2.253325 41.805654 134 134 134 0
-2.047736 -2.252509 41.790521 135 135 135 0
-1.947467 -2.254962 41.836032 136 136 136 0
-1.843702 -2.253414 41.807304 135 135 135 0
-1.741030 -2.253097 41.801430 133 133 133 0
-1.640672 -2.255924 41.853878 129 129 129 0
-1.537538 -2.255056 41.837780 129 129 129 0
-1.435230 -2.255362 41.843449 129 129 129 0
-1.333982 -2.257508 41.883259 131 131 131 0
-1.232326 -2.259265 41.915861 130 130 130 0
-1.128260 -2.256521 41.864945 133 133 133 0
-1.026807 -2.258976 41.910505 134 134 134 0
-0.924796 -2.260614 41.940883 133 133 133 0
-0.822190 -2.261022 41.948466 134 134 134 0
-0.720185 -2.263438 41.993292 136 136 136 0
-0.617713 -2.264949 42.021314 134 134 134 0
-0.514611 -2.264290 42.009083 133 133 133 0
-0.412059 -2.266325 42.046849 136 136 136 0
-0.308994 -2.265956 42.039997 132 132 132 0
-0.206177 -2.267951 42.077011 134 134 134 0
-0.103092 -2.268028 42.078448 134 134 134 0
0.000000 -2.268910 42.094812 135 135 135 0
0.103130 -2.268861 42.093889 133 133 133 0
0.206475 -2.271227 42.137788 134 134 134 0
0.310238 -2.275080 42.209284 133 133 133 0
0.413087 -2.271979 42.151750 135 135 135 0
0.516992 -2.274764 42.203406 134 134 134 0
0.620778 -2.276185 42.229771 131 131 131 0
0.725052 -2.278735 42.277084 130 130 130 0
0.828258 -2.277709 42.258047 126 126 126 0
0.932852 -2.280305 42.306215 128 128 128 0
1.038528 -2.284762 42.388906 126 126 126 0
1.141837 -2.283673 42.368703 124 124 124 0
1.247194 -2.286522 42.421557 127 127 127 0
1.354383 -2.292033 42.523798 126 126 126 0
1.457937 -2.291044 42.505459 126 126 126 0
1.562417 -2.291545 42.514750 127 127 127 0
1.669316 -2.295309 42.584590 126 126 126 0
1.775511 -2.297721 42.629324 125 125 125 0
1.880655 -2.298578 42.645232 124 124 124 0
1.987259 -2.301036 42.690844 124 124 124 0
2.096426 -2.306068 42.784200 125 125 125 0
2.200098 -2.304865 42.761870 126 126 126 0
2.306097 -2.306097 42.784726 126 126 126 0
2.415368 -2.310352 42.863674 126 126 126 0
2.522826 -2.312591 42.905212 126 126 126 0
2.627166 -2.311906 42.892504 126 126 126 0
2.737753 -2.316560 42.978848 126 126 126 0
2.843928 -2.317275 42.992113 126 126 126 0
2.953099 -2.320292 43.048097 127 127 127 0
3.059990 -2.321372 43.068118 127 127 127 0
3.167404 -2.322763 43.093929 129 129 129 0
3.275972 -2.324884 43.133275 128 128 128 0
3.385084 -2.327245 43.177087 127 127 127 0
3.492836 -2.328557 43.201437 126 126 126 0
3.600721 -2.329878 43.225937 128 128 128 0
3.715272 -2.335314 43.326792 127 127 127 0
3.818078 -2.333270 43.288864 128 128 128 0
3.924086 -2.333241 43.288323 129 129 129 0
4.044209 -2.341384 43.439408 130 130 130 0
4.147923 -2.339854 43.411016 128 128 128 0
4.256978 -2.341338 43.438546 129 129 129 0
4.365159 -2.342280 43.456038 132 132 132 0
4.481033 -2.347208 43.547449 137 137 137 0
4.579635 -2.343069 43.470666 135 135 135 0
4.686676 -2.343338 43.475654 135 135 135 0
4.802552 -2.347915 43.560567 135 135 135 0
4.903819 -2.345305 43.512146 136 136 136 0
5.009786 -2.345006 43.506609 137 137 137 0
5.123159 -2.348115 43.564277 136 136 136 0
5.231081 -2.348648 43.574184 138 138 138 0
5.328643 -2.344603 43.499130 140 140 140 0
5.441255 -2.347208 43.547462 140 140 140 0
5.547955 -2.347212 43.547527 139 139 139 0
5.649916 -2.345248 43.511096 144 144 144 0
5.762258 -2.347587 43.554486 144 144 144 0
5.869496 -2.347798 43.558409 146 146 146 0
5.970609 -2.345597 43.517562 149 149 149 0
6.069852 -2.342750 43.464748 144 144 144 0
6.180656 -2.344387 43.495120 141 141 141 0
6.283730 -2.343086 43.470978 141 141 141 0
6.377285 -2.338338 43.382888 142 142 142 0
6.495415 -2.342609 43.462125 142 142 142 0
6.593757 -2.339720 43.408539 139 139 139 0
6.698031 -2.338995 43.395082 140 140 140 0
6.813211 -2.342041 43.451603 137 137 137 0
6.922313 -2.342937 43.468214 136 136 136 0
7.026752 -2.342251 43.455487 132 132 132 0
7.129624 -2.341071 43.433590 130 130 130 0
7.253442 -2.346702 43.538065 133 133 133 0
7.350897 -2.343764 43.483566 131 131 131 0
7.455413 -2.343130 43.471793 131 131 131 0
7.571616 -2.346134 43.527542 130 130 130 0
7.677783 -2.345989 43.524847 130 130 130 0
7.785783 -2.346400 43.532474 127 127 127 0
7.915158 -2.353155 43.657793 126 126 126 0
8.016295 -2.351447 43.626095 126 126 126 0
8.121716 -2.351023 43.618241 123 123 123 0
8.294808 -2.369945 43.969295 126 126 126 0
8.575201 -2.418646 44.872848 128 128 128 0
8.685952 -2.418873 44.877045 131 131 131 0
-8.069824 -2.118329 41.172574 129 129 129 0
-7.973130 -2.119440 41.194161 130 130 130 0
-7.878853 -2.121230 41.228951 130 130 130 0
-7.784260 -2.122980 41.262972 130 130 130 0
-7.694558 -2.126128 41.324156 129 129 129 0
-7.592471 -2.125892 41.319572 131 131 131 0
-7.494862 -2.126920 41.339558 133 133 133 0
-7.408144 -2.131110 41.420990 131 131 131 0
-7.309027 -2.131799 41.434392 130 130 130 0
-7.203261 -2.130542 41.409953 134 134 134 0
-7.109831 -2.132949 41.456738 132 132 132 0
-7.017761 -2.135840 41.512930 134 134 134 0
-6.914410 -2.135333 41.503062 132 132 132 0
-6.812828 -2.135364 41.503671 134 134 134 0
-6.722931 -2.139114 41.576569 133 133 133 0
-6.625122 -2.140424 41.602023 133 133 133 0
-6.518944 -2.139029 41.574899 134 134 134 0
-6.423818 -2.141273 41.618516 132 132 132 0
-6.331165 -2.144427 41.679820 132 132 132 0
-6.223311 -2.142451 41.641424 133 133 133 0
-6.126200 -2.144170 41.674832 132 132 132 0
-6.035033 -2.148063 41.750487 132 132 132 0
-5.929791 -2.146993 41.729701 131 131 131 0
-5.828414 -2.147311 41.735870 132 132 132 0
-5.732250 -2.149594 41.780250 133 133 133 0
-5.635183 -2.151615 41.819543 131 131 131 0
-5.528743 -2.150067 41.789441 131 131 131 0
-5.432838 -2.152634 41.839339 132 132 132 0
-5.336522 -2.155134 41.887928 133 133 133 0
-5.235388 -2.155748 41.899863 134 134 134 0
-5.131160 -2.155087 41.887024 136 136 136 0
-5.033866 -2.157371 41.931415 136 136 136 0
-4.932474 -2.157957 41.942808 136 136 136 0
-4.829796 -2.157994 41.943514 135 135 135 0
-4.728971 -2.158878 41.960704 135 135 135 0
-4.626122 -2.158857 41.960290 137 137 137 0
-4.519022 -2.156806 41.920428 136 136 136 0
-4.419988 -2.158599 41.955275 139 139 139 0
-4.316791 -2.158395 41.951321 141 141 141 0
-4.212405 -2.157574 41.935345 138 138 138 0
-4.110244 -2.157878 41.941261 140 140 140 0
-4.008674 -2.158517 41.953679 140 140 140 0
-3.904116 -2.157538 41.934646 137 137 137 0
-3.800500 -2.157040 41.924984 141 141 141 0
-3.694113 -2.154899 41.883368 143 143 143 0
-3.592646 -2.155588 41.896745 141 141 141 0
-3.486785 -2.153603 41.858168 139 139 139 0
-3.383774 -2.153311 41.852495 138 138 138 0
-3.282496 -2.154138 41.868569 138 138 138 0
-3.176077 -2.151536 41.817993 136 136 136 0
-3.074154 -2.151908 41.825224 138 138 138 0
-2.971478 -2.151760 41.822347 137 137 137 0
-2.867399 -2.150549 41.798819 140 140 140 0
-2.762784 -2.148832 41.765448 137 137 137 0
-2.662180 -2.150222 41.792460 138 138 138 0
-2.558609 -2.149232 41.773209 137 137 137 0
-2.453362 -2.146692 41.723848 138 138 138 0
-2.354690 -2.149934 41.786870 137 137 137 0
-2.252024 -2.149659 41.781521 134 134 134 0
-2.147085 -2.147085 41.731489 136 136 136 0
-2.046608 -2.148938 41.767502 134 134 134 0
-1.945583 -2.150381 41.795549 135 135 135 0
-1.841827 -2.148798 41.764790 135 135 135 0
-1.739277 -2.148518 41.759349 132 132 132 0
-1.639284 -2.151561 41.818475 131 131 131 0
-1.535829 -2.150161 41.791264 130 130 130 0
-1.433815 -2.150722 41.802179 133 133 133 0
-1.331812 -2.151388 41.815122 128 128 128 0
-1.231318 -2.154806 41.881554 129 129 129 0
-1.127975 -2.153408 41.854377 132 132 132 0
-1.026119 -2.154850 41.882417 131 131 131 0
-0.924217 -2.156507 41.914617 134 134 134 0
-0.822234 -2.158365 41.950724 137 137 137 0
-0.719734 -2.159202 41.966996 134 134 134 0
-0.617003 -2.159509 41.972971 134 134 134 0
-0.514398 -2.160472 41.991674 135 135 135 0
-0.411753 -2.161704 42.015632 135 135 135 0
-0.308755 -2.161284 42.007470 134 134 134 0
-0.206049 -2.163519 42.050897 136 136 136 0
-0.103048 -2.164007 42.060380 135 135 135 0
0.000000 -2.165778 42.094812 134 134 134 0
0.103150 -2.166160 42.102242 133 133 133 0
0.206346 -2.166636 42.111492 136 136 136 0
0.309770 -2.168393 42.145631 134 134 134 0
0.413111 -2.168835 42.154231 132 132 132 0
0.516856 -2.170797 42.192354 133 133 133 0
0.620856 -2.172994 42.235070 134 134 134 0
0.724527 -2.173580 42.246452 131 131 131 0
0.827245 -2.171518 42.206368 131 131 131 0
0.932967 -2.176924 42.311448 129 129 129 0
1.037462 -2.178670 42.345375 126 126 126 0
1.141265 -2.178778 42.347487 128 128 128 0
1.246465 -2.181313 42.396757 128 128 128 0
1.353194 -2.185929 42.486466 130 130 130 0
1.456977 -2.185466 42.477466 128 128 128 0
1.560710 -2.184994 42.468292 129 129 129 0
1.668996 -2.190557 42.576428 125 125 125 0
1.775183 -2.192873 42.621429 125 125 125 0
1.878153 -2.191178 42.588499 124 124 124 0
1.985720 -2.194743 42.657787 125 125 125 0
2.093445 -2.198118 42.723376 124 124 124 0
2.197870 -2.197870 42.718567 128 128 128 0
2.304835 -2.200070 42.761315 127 127 127 0
2.412750 -2.202945 42.817208 127 127 127 0
2.519700 -2.204737 42.852036 128 128 128 0
2.623721 -2.203926 42.836261 127 127 127 0
2.736303 -2.210091 42.956091 124 124 124 0
2.841404 -2.209981 42.953954 126 126 126 0
2.950823 -2.213117 43.014914 127 127 127 0
3.059828 -2.215737 43.065836 128 128 128 0
3.167191 -2.217034 43.091041 129 129 129 0
3.272709 -2.216996 43.090307 129 129 129 0
3.385149 -2.221504 43.177918 128 128 128 0
3.490113 -2.220981 43.167761 125 125 125 0
3.598164 -2.222395 43.195245 128 128 128 0
3.709773 -2.225864 43.262663 128 128 128 0
3.817903 -2.227110 43.286888 129 129 129 0
3.924427 -2.227377 43.292078 127 127 127 0
4.040341 -2.232820 43.397866 128 128 128 0
4.145542 -2.232215 43.386102 129 129 129 0
4.251432 -2.232002 43.381964 129 129 129 0
4.366805 -2.236656 43.472427 132 132 132 0
4.476085 -2.238042 43.499364 134 134 134 0
4.579223 -2.236365 43.466756 135 135 135 0
4.687334 -2.237137 43.481764 134 134 134 0
4.802357 -2.241100 43.558790 136 136 136 0
4.903707 -2.238649 43.511152 138 138 138 0
5.011616 -2.239233 43.522501 138 138 138 0
5.127625 -2.243336 43.602251 137 137 137 0
5.230787 -2.241766 43.571734 139 139 139 0
5.328567 -2.237998 43.498507 139 139 139 0
5.441886 -2.240777 43.552513 142 142 142 0
5.555943 -2.243746 43.610230 141 141 141 0
5.644238 -2.236396 43.467370 146 146 146 0
5.762325 -2.240904 43.554989 147 147 147 0
5.867664 -2.240381 43.544818 149 149 149 0
5.971746 -2.239405 43.525846 149 149 149 0
6.063788 -2.234027 43.421323 145 145 145 0
6.179530 -2.237416 43.487190 142 142 142 0
6.282359 -2.236094 43.461496 142 142 142 0
6.381053 -2.233369 43.408526 142 142 142 0
6.500739 -2.237959 43.497753 142 142 142 0
6.596520 -2.234305 43.426731 140 140 140 0
6.697895 -2.232632 43.394205 138 138 138 0
6.807423 -2.233686 43.414685 138 138 138 0
6.913815 -2.233694 43.414853 138 138 138 0
7.017743 -2.232918 43.399772 135 135 135 0
7.122950 -2.232566 43.392930 134 134 134 0
7.250067 -2.238991 43.517806 131 131 131 0
7.346893 -2.236011 43.459879 130 130 130 0
7.458630 -2.237589 43.490557 128 128 128 0
7.570341 -2.239115 43.520212 129 129 129 0
7.680656 -2.240191 43.541132 126 126 126 0
7.786138 -2.239848 43.534461 127 127 127 0
7.900037 -2.241902 43.574390 126 126 126 0
8.016343 -2.244576 43.626358 127 127 127 0
8.186387 -2.262028 43.965560 127 127 127 0
8.294941 -2.262257 43.970003 126 126 126 0
8.353320 -2.248971 43.711774 127 127 127 0
7.991355 -2.124284 41.288324 129 129 129 0
-8.059417 -2.014854 41.119477 129 129 129 0
-7.962718 -2.015878 41.140365 128 128 128 0
-7.868154 -2.017475 41.172965 129 129 129 0
-7.774833 -2.019437 41.213005 128 128 128 0
-7.684538 -2.022247 41.270344 131 131 131 0
-7.587447 -2.023319 41.292230 131 131 131 0
-7.486934 -2.023496 41.295828 131 131 131 0
-7.401002 -2.027672 41.381054 131 131 131 0
-7.302795 -2.028554 41.399063 133 133 133 0
-7.196331 -2.027135 41.370111 134 134 134 0
-7.104842 -2.029955 41.427648 133 133 133 0
-7.013167 -2.032802 41.485755 133 133 133 0
-6.903942 -2.030571 41.440227 133 133 133 0
-6.804679 -2.031247 41.454030 134 134 134 0
-6.710915 -2.033611 41.502258 134 134 134 0
-6.614045 -2.035091 41.532464 131 131 131 0
-6.511188 -2.034746 41.525431 133 133 133 0
-6.416155 -2.036874 41.568867 132 132 132 0
-6.320104 -2.038743 41.607007 135 135 135 0
-6.217046 -2.038376 41.599505 133 133 133 0
-6.119590 -2.039863 41.629867 134 134 134 0
-6.025813 -2.042648 41.686702 132 132 132 0
-5.924963 -2.043091 41.695726 134 134 134 0
-5.821467 -2.042620 41.686121 135 135 135 0
-5.726636 -2.045227 41.739330 131 131 131 0
-5.629941 -2.047251 41.780638 131 131 131 0
-5.524376 -2.046065 41.756434 133 133 133 0
-5.427928 -2.048275 41.801522 131 131 131 0
-5.327693 -2.049113 41.818625 135 135 135 0
-5.226469 -2.049596 41.828485 133 133 133 0
-5.126318 -2.050527 41.847498 134 134 134 0
-5.025633 -2.051279 41.862836 137 137 137 0
-4.925257 -2.052191 41.881441 136 136 136 0
-4.821216 -2.051581 41.869010 136 136 136 0
-4.722053 -2.053066 41.899313 136 136 136 0
-4.621297 -2.053910 41.916524 136 136 136 0
-4.518498 -2.053863 41.915566 140 140 140 0
-4.414051 -2.053047 41.898918 140 140 140 0
-4.312993 -2.053806 41.914411 139 139 139 0
-4.209586 -2.053457 41.907278 139 139 139 0
-4.106167 -2.053083 41.899663 141 141 141 0
-4.004911 -2.053801 41.914298 140 140 140 0
-3.901540 -2.053442 41.906977 140 140 140 0
-3.795600 -2.051676 41.870929 140 140 140 0
-3.694629 -2.052571 41.889213 145 145 145 0
-3.590034 -2.051448 41.866280 141 141 141 0
-3.482322 -2.048425 41.804584 141 141 141 0
-3.379171 -2.047982 41.795559 143 143 143 0
-3.277468 -2.048418 41.804440 140 140 140 0
-3.173020 -2.047110 41.777748 140 140 140 0
-3.070352 -2.046901 41.773499 141 141 141 0
-2.967870 -2.046807 41.771575 136 136 136 0
-2.863295 -2.045211 41.738991 138 138 138 0
-2.759729 -2.044244 41.719260 136 136 136 0
-2.659139 -2.045491 41.744718 135 135 135 0
-2.554805 -2.043844 41.711095 136 136 136 0
-2.450259 -2.041882 41.671068 136 136 136 0
-2.351556 -2.044831 41.731250 136 136 136 0
-2.248418 -2.044016 41.714621 136 136 136 0
-2.143606 -2.041530 41.663875 135 135 135 0
-2.043751 -2.043751 41.709198 134 134 134 0
-1.942747 -2.044997 41.734632 132 132 132 0
-1.838357 -2.042619 41.686103 133 133 133 0
-1.736677 -2.043149 41.696924 133 133 133 0
-1.637078 -2.046348 41.762203 131 131 131 0
-1.534496 -2.045994 41.754985 134 134 134 0
-1.431868 -2.045526 41.745432 131 131 131 0
-1.331207 -2.048011 41.796139 129 129 129 0
-1.229152 -2.048586 41.807880 129 129 129 0
-1.127161 -2.049383 41.824148 129 129 129 0
-1.024904 -2.049807 41.832804 131 131 131 0
-0.923443 -2.052096 41.879511 134 134 134 0
-0.821239 -2.053098 41.899963 133 133 133 0
-0.718863 -2.053894 41.916208 135 135 135 0
-0.616669 -2.055565 41.950306 135 135 135 0
-0.513864 -2.055457 41.948099 135 135 135 0
-0.411332 -2.056660 41.972647 137 137 137 0
-0.308664 -2.057759 41.995077 136 136 136 0
-0.205904 -2.059039 42.021201 137 137 137 0
-0.103038 -2.060752 42.056153 133 133 133 0
0.000000 -2.060004 42.040899 135 135 135 0
0.103034 -2.060674 42.054580 133 133 133 0
0.206187 -2.061866 42.078894 136 136 136 0
0.309859 -2.065727 42.157699 137 137 137 0
0.412933 -2.064665 42.136026 133 133 133 0
0.516331 -2.065324 42.149465 136 136 136 0
0.620452 -2.068174 42.207637 132 132 132 0
0.724673 -2.070494 42.254986 135 135 135 0
0.827519 -2.068797 42.220344 130 130 130 0
0.932283 -2.071739 42.280393 132 132 132 0
1.037334 -2.074667 42.340153 130 130 130 0
1.140399 -2.073453 42.315358 128 128 128 0
1.244792 -2.074654 42.339870 130 130 130 0
1.351584 -2.079360 42.435924 129 129 129 0
1.456252 -2.080360 42.456320 129 129 129 0
1.559113 -2.078818 42.424856 129 129 129 0
1.667950 -2.084937 42.549740 127 127 127 0
1.773005 -2.085889 42.569153 126 126 126 0
1.876397 -2.084885 42.548675 125 125 125 0
1.982827 -2.087186 42.595637 126 126 126 0
2.094057 -2.094057 42.735860 126 126 126 0
2.196181 -2.091601 42.685733 127 127 127 0
2.302741 -2.093401 42.722466 129 129 129 0
2.411941 -2.097340 42.802857 125 125 125 0
2.518867 -2.099056 42.837872 128 128 128 0
2.624833 -2.099867 42.854423 128 128 128 0
2.734501 -2.103463 42.927807 127 127 127 0
2.840860 -2.104341 42.945728 126 126 126 0
2.949543 -2.106817 42.996257 129 129 129 0
3.056174 -2.107706 43.014409 129 129 129 0
3.165405 -2.110270 43.066734 129 129 129 0
3.272472 -2.111272 43.087192 126 126 126 0
3.381974 -2.113733 43.137418 127 127 127 0
3.485928 -2.112684 43.115997 127 127 127 0
3.602630 -2.119194 43.248862 129 129 129 0
3.709794 -2.119882 43.262903 128 128 128 0
3.819174 -2.121763 43.301293 127 127 127 0
3.921745 -2.119862 43.262492 129 129 129 0
4.041568 -2.127141 43.411037 127 127 127 0
4.146413 -2.126366 43.395218 130 130 130 0
4.254462 -2.127231 43.412878 129 129 129 0
4.367794 -2.130631 43.482272 132 132 132 0
4.474232 -2.130586 43.481356 138 138 138 0
4.574246 -2.127556 43.419517 134 134 134 0
4.686945 -2.130430 43.478157 132 132 132 0
4.805239 -2.135662 43.584936 135 135 135 0
4.897505 -2.129350 43.456123 137 137 137 0
5.010566 -2.132156 43.513382 138 138 138 0
5.121995 -2.134165 43.554382 137 137 137 0
5.230712 -2.134984 43.571110 139 139 139 0
5.329873 -2.131949 43.509170 140 140 140 0
5.442377 -2.134265 43.556438 140 140 140 0
5.552342 -2.135516 43.581965 141 141 141 0
5.649381 -2.131842 43.506977 146 146 146 0
5.761138 -2.133755 43.546015 150 150 150 0
5.868112 -2.133859 43.548140 149 149 149 0
5.958887 -2.128174 43.432119 149 149 149 0
6.065505 -2.128247 43.433620 145 145 145 0
6.179387 -2.130823 43.486185 143 143 143 0
6.284538 -2.130352 43.476567 142 142 142 0
6.380799 -2.126933 43.406799 144 144 144 0
6.495015 -2.129513 43.459451 144 144 144 0
6.598477 -2.128541 43.439609 141 141 141 0
6.705019 -2.128577 43.440357 140 140 140 0
6.813511 -2.129222 43.453515 136 136 136 0
6.922299 -2.129938 43.468123 137 137 137 0
7.021525 -2.127735 43.423163 138 138 138 0
7.122121 -2.126006 43.387884 135 135 135 0
7.246733 -2.131392 43.497800 135 135 135 0
7.348888 -2.130112 43.471683 129 129 129 0
7.460962 -2.131703 43.504152 129 129 129 0
7.574398 -2.133633 43.543536 129 129 129 0
7.692628 -2.136841 43.609001 130 130 130 0
7.790602 -2.134412 43.559419 127 127 127 0
7.914572 -2.139073 43.654559 128 128 128 0
8.024609 -2.139896 43.671340 128 128 128 0
8.135367 -2.140886 43.691552 128 128 128 0
8.244569 -2.141446 43.702988 128 128 128 0
8.575483 -2.198842 44.874325 127 127 127 0
8.686571 -2.199132 44.880241 130 130 130 0
-8.049399 -1.911732 41.068364 128 128 128 0
-7.955661 -1.913387 41.103906 128 128 128 0
-7.859462 -1.914484 41.127485 128 128 128 0
-7.770980 -1.917514 41.192576 128 128 128 0
-7.674708 -1.918677 41.217554 129 129 129 0
-7.576582 -1.919401 41.233100 130 130 130 0
-7.478582 -1.920176 41.249762 132 132 132 0
-7.390397 -1.923528 41.321764 132 132 132 0
-7.291029 -1.924022 41.332365 131 131 131 0
-7.187673 -1.923462 41.320338 135 135 135 0
-7.095249 -1.925853 41.371713 132 132 132 0
-6.999272 -1.927336 41.403562 133 133 133 0
-6.894728 -1.926468 41.384921 133 133 133 0
-6.797074 -1.927528 41.407697 131 131 131 0
-6.709718 -1.931585 41.494853 134 134 134 0
-6.607238 -1.931346 41.489720 131 131 131 0
-6.504285 -1.930960 41.481408 133 133 133 0
-6.409444 -1.933007 41.525391 133 133 133 0
-6.314899 -1.935211 41.572740 132 132 132 0
-6.213008 -1.935199 41.572486 133 133 133 0
-6.114468 -1.936248 41.595018 135 135 135 0
-6.021850 -1.939240 41.659286 131 131 131 0
-5.920853 -1.939590 41.666805 131 131 131 0
-5.814641 -1.938214 41.637245 132 132 132 0
-5.720745 -1.940967 41.696391 135 135 135 0
-5.623107 -1.942528 41.729926 134 134 134 0
-5.516635 -1.941038 41.697923 131 131 131 0
-5.420952 -1.943360 41.747798 131 131 131 0
-5.324416 -1.945460 41.792903 134 134 134 0
-5.219340 -1.944460 41.771426 133 133 133 0
-5.119534 -1.945423 41.792113 133 133 133 0
-5.021259 -1.947019 41.826401 134 134 134 0
-4.923275 -1.948796 41.864582 138 138 138 0
-4.816129 -1.946946 41.824826 136 136 136 0
-4.718572 -1.948975 41.868432 136 136 136 0
-4.616257 -1.949086 41.870813 137 137 137 0
-4.514114 -1.949277 41.874898 137 137 137 0
-4.411792 -1.949397 41.877478 139 139 139 0
-4.310364 -1.949927 41.888866 139 139 139 0
-4.205853 -1.949054 41.870113 142 142 142 0
-4.099384 -1.947207 41.830445 139 139 139 0
-4.002988 -1.950173 41.894166 140 140 140 0
-3.895661 -1.947830 41.843833 141 141 141 0
-3.792946 -1.947729 41.841652 142 142 142 0
-3.689340 -1.947152 41.829254 140 140 140 0
-3.585995 -1.946683 41.819188 141 141 141 0
-3.479436 -1.944391 41.769938 142 142 142 0
-3.376471 -1.944029 41.762169 140 140 140 0
-3.275957 -1.945099 41.785166 140 140 140 0
-3.166130 -1.940531 41.687026 141 141 141 0
-3.066027 -1.941817 41.714649 142 142 142 0
-2.965604 -1.942982 41.739677 140 140 140 0
-2.859057 -1.940074 41.677218 138 138 138 0
-2.756785 -1.939960 41.674761 138 138 138 0
-2.656434 -1.941240 41.702261 136 136 136 0
-2.552720 -1.940067 41.677061 137 137 137 0
-2.445766 -1.936231 41.594659 138 138 138 0
-2.348294 -1.939895 41.673366 136 136 136 0
-2.245485 -1.939282 41.660196 135 135 135 0
-2.141437 -1.937490 41.621707 137 137 137 0
-2.042664 -1.940531 41.687014 137 137 137 0
-1.940539 -1.940539 41.687199 135 135 135 0
-1.835775 -1.937762 41.627548 134 134 134 0
-1.735154 -1.939290 41.660372 134 134 134 0
-1.636015 -1.942768 41.735074 134 134 134 0
-1.532579 -1.941266 41.702824 133 133 133 0
-1.429213 -1.939646 41.668005 133 133 133 0
-1.330559 -1.944664 41.775802 132 132 132 0
-1.228576 -1.945246 41.788315 131 131 131 0
-1.126000 -1.944909 41.781085 130 130 130 0
-1.024904 -1.947317 41.832804 133 133 133 0
-0.923172 -1.948918 41.867195 134 134 134 0
-0.820851 -1.949521 41.880155 132 132 132 0
-0.718586 -1.950447 41.900039 133 133 133 0
-0.616140 -1.951111 41.914297 135 135 135 0
-0.513877 -1.952734 41.949172 136 136 136 0
-0.411044 -1.952459 41.943261 135 135 135 0
-0.308700 -1.955100 42.000000 134 134 134 0
-0.205770 -1.954814 41.993853 136 136 136 0
-0.102901 -1.955112 42.000268 136 136 136 0
0.000000 -1.956396 42.027839 136 136 136 0
0.103028 -1.957532 42.052245 136 136 136 0
0.206221 -1.959101 42.085948 136 136 136 0
0.309556 -1.960520 42.116437 135 135 135 0
0.412822 -1.960905 42.124705 134 134 134 0
0.516411 -1.962362 42.156007 135 135 135 0
0.620116 -1.963701 42.184777 133 133 133 0
0.724057 -1.965298 42.219067 133 133 133 0
0.827124 -1.964421 42.200229 133 133 133 0
0.932098 -1.967763 42.272040 132 132 132 0
1.036630 -1.969597 42.311420 133 133 133 0
1.140121 -1.969299 42.305035 131 131 131 0
1.244593 -1.970605 42.333081 129 129 129 0
1.351477 -1.975235 42.432555 130 130 130 0
1.454475 -1.973930 42.404516 128 128 128 0
1.374947 -1.741600 37.413534 129 129 129 0
1.468696 -1.744076 37.466724 126 126 126 0
1.770979 -1.979330 42.520505 125 125 125 0
1.876645 -1.980903 42.554304 128 128 128 0
1.984737 -1.984737 42.636672 125 125 125 0
2.091517 -1.986941 42.684022 125 125 125 0
2.194980 -1.985935 42.662397 129 129 129 0
2.303027 -1.988978 42.727778 128 128 128 0
2.410805 -1.991535 42.782706 127 127 127 0
2.517947 -1.993375 42.822230 128 128 128 0
2.622882 -1.993390 42.822557 126 126 126 0
2.732904 -1.997122 42.902732 128 128 128 0
2.840161 -1.998632 42.935159 126 126 126 0
2.945704 -1.998871 42.940292 124 124 124 0
3.058230 -2.003668 43.043348 125 125 125 0
3.164546 -2.004213 43.055054 126 126 126 0
3.269442 -2.003852 43.047296 129 129 129 0
3.383263 -2.008812 43.153862 126 126 126 0
3.486000 -2.007091 43.116883 128 128 128 0
3.597357 -2.010287 43.185553 126 126 126 0
3.708482 -2.013176 43.247599 127 127 127 0
3.817171 -2.014618 43.278584 127 127 127 0
3.921064 -2.013519 43.254983 126 126 126 0
4.037013 -2.018506 43.362114 130 130 130 0
4.145956 -2.019825 43.390438 126 126 126 0
4.252755 -2.020059 43.395462 130 130 130 0
4.358800 -2.019932 43.392735 134 134 134 0
4.475599 -2.024676 43.494641 135 135 135 0
4.578269 -2.022956 43.457702 137 137 137 0
4.687418 -2.024113 43.482546 134 134 134 0
4.802272 -2.027626 43.558026 136 136 136 0
4.899208 -2.023586 43.471234 135 135 135 0
5.012850 -2.026471 43.533219 137 137 137 0
5.122700 -2.027736 43.560377 137 137 137 0
5.230358 -2.028098 43.568164 140 140 140 0
5.328711 -2.024910 43.499678 139 139 139 0
5.443081 -2.027815 43.562073 141 141 141 0
5.549864 -2.027835 43.562510 142 142 142 0
5.647671 -2.024637 43.493805 142 142 142 0
5.761761 -2.027286 43.550723 147 147 147 0
5.866667 -2.026667 43.537414 151 151 151 0
5.965269 -2.023931 43.478640 150 150 150 0
6.067607 -2.022536 43.448671 143 143 143 0
6.179387 -2.024282 43.486185 140 140 140 0
6.289198 -2.025335 43.508804 142 142 142 0
6.378142 -2.019745 43.388721 142 142 142 0
6.499374 -2.024395 43.488618 140 140 140 0
6.595420 -2.021177 43.419484 141 141 141 0
6.707993 -2.023045 43.459624 139 139 139 0
6.810907 -2.021988 43.436907 136 136 136 0
6.920915 -2.023037 43.459438 137 137 137 0
7.026326 -2.022730 43.452852 132 132 132 0
7.130844 -2.022180 43.441023 132 132 132 0
7.252010 -2.026297 43.529470 131 131 131 0
7.347939 -2.023346 43.466069 130 130 130 0
7.465230 -2.026277 43.529040 128 128 128 0
7.571401 -2.026150 43.526309 128 128 128 0
7.689556 -2.029188 43.591587 128 128 128 0
7.796083 -2.029117 43.590064 130 130 130 0
7.906077 -2.029939 43.607707 128 128 128 0
8.023522 -2.032625 43.665423 128 128 128 0
8.185482 -2.046370 43.960697 128 128 128 0
8.295098 -2.046842 43.970836 128 128 128 0
8.576083 -2.089046 44.877462 127 127 127 0
8.472717 -2.037742 43.775342 128 128 128 0
-8.037265 -1.808385 41.006454 127 127 127 0
-7.942413 -1.809664 41.035457 127 127 127 0
-7.850801 -1.811723 41.082159 128 128 128 0
-7.760086 -1.814046 41.134834 128 128 128 0
-7.666489 -1.815747 41.173408 130 130 130 0
-7.570171 -1.816841 41.198208 130 130 130 0
-7.469123 -1.816814 41.197587 128 128 128 0
-7.380901 -1.819948 41.268668 129 129 129 0
-7.281671 -1.820418 41.279316 133 133 133 0
-7.178906 -1.820004 41.269941 134 134 134 0
-7.084465 -1.821720 41.308834 132 132 132 0
-6.993804 -1.824471 41.371217 134 134 134 0
-6.885924 -1.822745 41.332079 133 133 133 0
-6.789848 -1.824138 41.363682 132 132 132 0
-6.698355 -1.826824 41.424580 132 132 132 0
-6.597854 -1.827098 41.430796 131 131 131 0
-6.495177 -1.826769 41.423323 131 131 131 0
-6.407301 -1.830657 41.511506 132 132 132 0
-6.305967 -1.830765 41.513938 132 132 132 0
-6.202267 -1.830177 41.500615 130 130 130 0
-6.109000 -1.832700 41.557821 132 132 132 0
-6.015838 -1.835340 41.617697 133 133 133 0
-5.910041 -1.834151 41.590716 131 131 131 0
-5.806255 -1.833554 41.577192 132 132 132 0
-5.715212 -1.837032 41.656064 131 131 131 0
-5.616633 -1.838171 41.681879 133 133 133 0
-5.507662 -1.835887 41.630097 133 133 133 0
-5.414695 -1.838953 41.699617 135 135 135 0
-5.318985 -1.841187 41.750278 136 136 136 0
-5.212441 -1.839685 41.716215 133 133 133 0
-5.113067 -1.840704 41.739323 136 136 136 0
-5.018128 -1.843394 41.800318 137 137 137 0
-4.915688 -1.843383 41.800066 137 137 137 0
-4.810977 -1.842502 41.780083 137 137 137 0
-4.713247 -1.844314 41.821181 138 138 138 0
-4.612971 -1.845188 41.841003 140 140 140 0
-4.508992 -1.844587 41.827380 138 138 138 0
-4.404378 -1.843693 41.807098 138 138 138 0
-4.307596 -1.846112 41.861960 138 138 138 0
-4.202455 -1.844980 41.836286 139 139 139 0
-4.096987 -1.843644 41.805988 140 140 140 0
-3.998673 -1.845541 41.849011 143 143 143 0
-3.892421 -1.843778 41.809034 142 142 142 0
-3.787891 -1.842758 41.785890 144 144 144 0
-3.685326 -1.842663 41.783743 142 142 142 0
-3.582312 -1.842332 41.776231 141 141 141 0
-3.477426 -1.840990 41.745812 144 144 144 0
-3.376539 -1.841749 41.763008 141 141 141 0
-3.272857 -1.840982 41.745625 141 141 141 0
-3.166037 -1.838344 41.685805 141 141 141 0
-3.064596 -1.838758 41.695184 144 144 144 0
-2.961264 -1.838026 41.678589 141 141 141 0
-2.855193 -1.835481 41.620895 140 140 140 0
-2.753468 -1.835645 41.624610 139 139 139 0
-2.653252 -1.836867 41.652305 137 137 137 0
-2.547256 -1.834024 41.587852 136 136 136 0
-2.444840 -1.833630 41.578907 137 137 137 0
-2.346787 -1.836616 41.646615 137 137 137 0
-2.244055 -1.836045 41.633672 135 135 135 0
-2.139215 -1.833613 41.578529 136 136 136 0
-2.038878 -1.834991 41.609763 137 137 137 0
-1.937612 -1.835632 41.624310 136 136 136 0
-1.834516 -1.834516 41.599006 139 139 139 0
-1.733361 -1.835324 41.617320 134 134 134 0
-1.633704 -1.837917 41.676116 134 134 134 0
-1.530609 -1.836731 41.649234 131 131 131 0
-1.429217 -1.837565 41.668145 131 131 131 0
-1.328958 -1.840096 41.725531 134 134 134 0
-1.227531 -1.841296 41.752743 131 131 131 0
-1.124486 -1.840068 41.724891 135 135 135 0
-1.023883 -1.842990 41.791147 134 134 134 0
-0.922379 -1.844757 41.831230 136 136 136 0
-0.820284 -1.845639 41.851229 134 134 134 0
-0.718145 -1.846660 41.874373 134 134 134 0
-0.615982 -1.847945 41.903510 136 136 136 0
-0.513645 -1.849123 41.930223 138 138 138 0
-0.410789 -1.848549 41.917220 133 133 133 0
-0.308317 -1.849902 41.947900 137 137 137 0
-0.205728 -1.851550 41.985253 135 135 135 0
-0.102883 -1.851892 41.993027 136 136 136 0
0.000000 -1.852793 42.013445 136 136 136 0
0.103023 -1.854406 42.050027 136 136 136 0
0.206153 -1.855374 42.071962 138 138 138 0
0.309525 -1.857149 42.112212 137 137 137 0
0.412868 -1.857906 42.129386 136 136 136 0
0.516676 -1.860033 42.177613 137 137 137 0
0.620273 -1.860820 42.195460 135 135 135 0
0.724053 -1.861851 42.218838 137 137 137 0
0.826543 -1.859722 42.170568 136 136 136 0
0.932090 -1.864180 42.271653 135 135 135 0
1.036481 -1.865666 42.305344 134 134 134 0
1.139925 -1.865333 42.297790 134 134 134 0
1.244077 -1.866116 42.315555 134 134 134 0
1.350082 -1.869344 42.388757 133 133 133 0
1.454936 -1.870632 42.417964 131 131 131 0
1.559089 -1.870906 42.424180 132 132 132 0
1.666357 -1.874652 42.509112 127 127 127 0
1.771111 -1.875294 42.523664 127 127 127 0
1.875694 -1.875694 42.532733 128 128 128 0
1.982889 -1.878527 42.596978 125 125 125 0
2.091283 -1.882155 42.679248 127 127 127 0
2.193823 -1.880419 42.639894 128 128 128 0
2.301276 -1.882862 42.695290 129 129 129 0
2.411080 -1.886932 42.787574 130 130 130 0
2.515851 -1.886888 42.786574 130 130 130 0
2.620495 -1.886756 42.783588 129 129 129 0
2.732628 -1.891819 42.898399 127 127 127 0
2.839937 -1.893291 42.931774 129 129 129 0
2.944267 -1.892743 42.919345 126 126 126 0
3.051947 -1.894312 42.954914 120 120 120 0
3.162695 -1.897617 43.029859 125 125 125 0
3.270469 -1.898982 43.060814 128 128 128 0
3.378770 -1.900558 43.096557 126 126 126 0
3.484707 -1.900749 43.100889 127 127 127 0
3.596012 -1.903771 43.169413 131 131 131 0
3.706107 -1.905998 43.219906 127 127 127 0
3.812153 -1.906077 43.221691 127 127 127 0
3.921071 -1.907548 43.255063 127 127 127 0
4.036278 -1.911921 43.354219 128 128 128 0
4.144110 -1.912666 43.371111 129 129 129 0
4.253737 -1.914181 43.405475 130 130 130 0
4.363340 -1.915613 43.437928 130 130 130 0
4.476720 -1.918594 43.505542 134 134 134 0
4.581985 -1.918040 43.492976 136 136 136 0
4.686850 -1.917348 43.477274 135 135 135 0
4.800623 -1.920249 43.543069 136 136 136 0
4.904974 -1.919338 43.522393 135 135 135 0
5.006685 -1.917454 43.479676 136 136 136 0
5.120568 -1.920213 43.542246 139 139 139 0
5.228101 -1.920527 43.549360 139 139 139 0
5.327720 -1.917979 43.491591 139 139 139 0
5.446530 -1.922305 43.589679 140 140 140 0
5.554236 -1.922620 43.596825 141 141 141 0
5.646502 -1.917680 43.484806 145 145 145 0
5.763490 -1.921163 43.563791 146 146 146 0
5.868989 -1.920760 43.554647 149 149 149 0
5.968163 -1.918338 43.499733 151 151 151 0
6.069852 -1.916795 43.464748 142 142 142 0
6.177835 -1.917259 43.475261 140 140 140 0
6.283053 -1.916864 43.466298 142 142 142 0
6.377808 -1.913342 43.386447 142 142 142 0
6.506936 -1.920079 43.539216 140 140 140 0
6.599355 -1.915942 43.445395 140 140 140 0
6.699718 -1.914205 43.406013 140 140 140 0
6.811724 -1.915797 43.442117 135 135 135 0
6.932679 -1.919819 43.533307 135 135 135 0
7.027089 -1.916479 43.457567 134 134 134 0
7.130098 -1.915549 43.436478 133 133 133 0
7.257417 -1.921081 43.561929 129 129 129 0
7.351788 -1.917858 43.488840 131 131 131 0
7.464081 -1.919335 43.522341 128 128 128 0
7.578801 -1.921386 43.568850 129 129 129 0
7.695217 -1.923804 43.623680 128 128 128 0
7.792225 -1.921371 43.568492 130 130 130 0
7.915475 -1.925386 43.659540 129 129 129 0
8.027219 -1.926533 43.685545 127 127 127 0
7.355722 -1.742145 39.504412 129 129 129 0
8.254072 -1.929523 43.753364 127 127 127 0
8.365512 -1.930503 43.775571 128 128 128 0
8.481949 -1.932596 43.823039 129 129 129 0
-8.020557 -1.704368 40.921209 130 130 130 0
-7.932955 -1.707092 40.986591 129 129 129 0
-7.840818 -1.708896 41.029923 128 128 128 0
-7.747797 -1.710553 41.069689 129 129 129 0
-7.651153 -1.711442 41.091048 130 130 130 0
-7.553627 -1.712156 41.108175 129 129 129 0
-7.461676 -1.714169 41.156515 129 129 129 0
-7.372452 -1.716872 41.221424 128 128 128 0
-7.271280 -1.716830 41.220410 133 133 133 0
-7.171497 -1.717119 41.227346 132 132 132 0
-7.077646 -1.718857 41.269072 130 130 130 0
-6.981828 -1.720160 41.300372 130 130 130 0
-6.875185 -1.718796 41.267617 133 133 133 0
-6.786102 -1.721847 41.340860 132 132 132 0
-6.690029 -1.723189 41.373094 133 133 133 0
-6.589385 -1.723378 41.377617 136 136 136 0
-6.489158 -1.723683 41.384936 130 130 130 0
-6.398407 -1.726554 41.453886 133 133 133 0
-6.298601 -1.727036 41.465447 132 132 132 0
-6.194989 -1.726472 41.451920 130 130 130 0
-6.102690 -1.729096 41.514901 131 131 131 0
-6.006673 -1.730736 41.554295 137 137 137 0
-5.901194 -1.729660 41.528456 131 131 131 0
-5.799876 -1.729788 41.531514 132 132 132 0
-5.710084 -1.733418 41.618690 133 133 133 0
-5.607753 -1.733306 41.615981 134 134 134 0
-5.504575 -1.732922 41.606769 134 134 134 0
-5.409441 -1.735104 41.659153 135 135 135 0
-5.314583 -1.737460 41.715719 133 133 133 0
-5.208120 -1.736040 41.681629 133 133 133 0
-5.109996 -1.737399 41.714251 133 133 133 0
-5.012934 -1.739181 41.757054 133 133 133 0
-4.909677 -1.738844 41.748951 134 134 134 0
-4.804515 -1.737803 41.723972 138 138 138 0
-4.711213 -1.741100 41.803133 138 138 138 0
-4.606709 -1.740312 41.784208 138 138 138 0
-4.504283 -1.740291 41.783697 139 139 139 0
-4.403269 -1.740827 41.796575 140 140 140 0
-4.302182 -1.741359 41.809347 140 140 140 0
-4.196706 -1.740098 41.779053 141 141 141 0
-4.093031 -1.739538 41.765627 139 139 139 0
-3.995601 -1.741672 41.816863 141 141 141 0
-3.887774 -1.739267 41.759122 143 143 143 0
-3.782859 -1.738070 41.730383 142 142 142 0
-3.683665 -1.739508 41.764908 142 142 142 0
-3.578702 -1.738227 41.734139 144 144 144 0
-3.474971 -1.737485 41.716336 143 143 143 0
-3.371669 -1.736921 41.702773 142 142 142 0
-3.270603 -1.737508 41.716881 143 143 143 0
-3.161277 -1.733604 41.623139 142 142 142 0
-3.061179 -1.734668 41.648688 141 141 141 0
-2.962740 -1.736778 41.699360 144 144 144 0
-2.853167 -1.732280 41.591350 143 143 143 0
-2.750900 -1.732048 41.585788 143 143 143 0
-2.650846 -1.733245 41.614536 138 138 138 0
-2.543824 -1.729800 41.531818 136 136 136 0
-2.440757 -1.728869 41.509464 138 138 138 0
-2.345076 -1.733317 41.616257 137 137 137 0
-2.240492 -1.731289 41.567571 137 137 137 0
-2.136366 -1.729439 41.523149 134 134 134 0
-2.037766 -1.732101 41.587064 135 135 135 0
-1.936326 -1.732502 41.596693 138 138 138 0
-1.832899 -1.731071 41.562325 139 139 139 0
-1.731743 -1.731743 41.578464 137 137 137 0
-1.632171 -1.734182 41.637023 137 137 137 0
-1.530253 -1.734287 41.639535 134 134 134 0
-1.428424 -1.734515 41.645018 133 133 133 0
-1.329087 -1.738037 41.729573 134 134 134 0
-1.227663 -1.739189 41.757247 133 133 133 0
-1.124499 -1.737862 41.725372 134 134 134 0
-1.023507 -1.739962 41.775808 134 134 134 0
-0.922130 -1.741801 41.819951 135 135 135 0
-0.819686 -1.741832 41.820705 136 136 136 0
-0.717127 -1.741594 41.814989 136 136 136 0
-0.616108 -1.745640 41.912132 137 137 137 0
-0.513532 -1.746009 41.920976 139 139 139 0
-0.410640 -1.745219 41.902006 136 136 136 0
-0.308396 -1.747575 41.958581 138 138 138 0
-0.205691 -1.748376 41.977819 137 137 137 0
-0.102860 -1.748625 41.983805 137 137 137 0
0.000000 -1.751685 42.057258 137 137 137 0
0.102995 -1.750922 42.038934 137 137 137 0
0.206087 -1.751740 42.058581 138 138 138 0
0.309653 -1.754703 42.129726 137 137 137 0
0.412527 -1.753242 42.094640 136 136 136 0
0.516303 -1.755431 42.147191 135 135 135 0
0.620244 -1.757359 42.193499 136 136 136 0
0.724005 -1.758297 42.216023 134 134 134 0
0.827245 -1.757895 42.206368 136 136 136 0
0.933052 -1.762432 42.315297 138 138 138 0
1.037073 -1.763024 42.329516 138 138 138 0
1.139446 -1.760962 42.280003 135 135 135 0
1.244477 -1.763009 42.329145 135 135 135 0
1.350377 -1.765878 42.398025 137 137 137 0
1.454681 -1.766399 42.410538 133 133 133 0
1.557680 -1.765371 42.385860 133 133 133 0
1.665724 -1.769832 42.492970 129 129 129 0
1.771702 -1.771702 42.537859 129 129 129 0
1.649900 -1.558239 37.412694 132 132 132 0
1.981659 -1.773063 42.570548 130 130 130 0
2.090391 -1.776832 42.661041 129 129 129 0
2.194342 -1.776372 42.649990 129 129 129 0
2.302537 -1.779233 42.718686 128 128 128 0
2.409937 -1.781258 42.767296 129 129 129 0
2.517166 -1.782993 42.808952 131 131 131 0
2.619346 -1.781156 42.764840 131 131 131 0
2.730200 -1.785131 42.860288 131 131 131 0
2.837056 -1.786295 42.888231 129 129 129 0
2.944800 -1.787915 42.927120 130 130 130 0
3.053878 -1.790204 42.982093 124 124 124 0
3.160500 -1.790950 43.000000 125 125 125 0
3.266577 -1.791349 43.009569 125 125 125 0
3.378206 -1.794672 43.089366 127 127 127 0
3.483070 -1.794309 43.080639 127 127 127 0
3.597872 -1.798936 43.191744 129 129 129 0
3.706565 -1.800332 43.225248 129 129 129 0
3.817648 -1.802778 43.283989 128 128 128 0
3.921143 -1.801606 43.255856 127 127 127 0
4.036023 -1.805589 43.351477 125 125 125 0
4.147927 -1.808071 43.411061 128 128 128 0
4.252133 -1.807157 43.389116 129 129 129 0
4.366674 -1.810572 43.471122 130 130 130 0
4.475187 -1.811385 43.490641 132 132 132 0
4.582582 -1.811719 43.498647 138 138 138 0
4.689396 -1.811812 43.500892 137 137 137 0
4.806079 -1.815630 43.592553 138 138 138 0
4.900233 -1.810956 43.480331 136 136 136 0
5.007191 -1.811112 43.484074 138 138 138 0
5.126180 -1.815522 43.589963 139 139 139 0
5.229370 -1.814271 43.559936 139 139 139 0
5.332038 -1.812893 43.526841 141 141 141 0
5.437699 -1.812566 43.519001 140 140 140 0
5.553529 -1.815577 43.591283 143 143 143 0
5.649047 -1.811958 43.504405 144 144 144 0
5.759960 -1.813321 43.537112 144 144 144 0
5.867664 -1.813642 43.544818 151 151 151 0
5.973065 -1.813252 43.535461 147 147 147 0
6.066718 -1.809372 43.442306 140 140 140 0
6.182067 -1.811985 43.505045 140 140 140 0
6.285811 -1.811166 43.485373 142 142 142 0
6.383139 -1.808556 43.422715 142 142 142 0
6.506013 -1.813151 43.533040 142 142 142 0
6.602200 -1.810281 43.464119 141 141 141 0
6.706779 -1.809766 43.451757 139 139 139 0
6.819685 -1.811479 43.492891 137 137 137 0
6.924061 -1.810908 43.479193 135 135 135 0
7.030081 -1.810778 43.476070 132 132 132 0
7.132782 -1.809810 43.452830 132 132 132 0
7.261372 -1.815343 43.585665 133 133 133 0
7.364123 -1.814349 43.561802 131 131 131 0
7.463204 -1.812492 43.517222 130 130 130 0
7.583270 -1.815713 43.594540 128 128 128 0
7.707081 -1.819727 43.690935 130 130 130 0
7.792225 -1.814628 43.568492 128 128 128 0
7.911504 -1.817508 43.637639 126 126 126 0
8.036648 -1.821640 43.736861 129 129 129 0
8.186597 -1.831212 43.966684 127 127 127 0
8.297572 -1.831932 43.983951 130 130 130 0
8.577245 -1.869400 44.883543 129 129 129 0
8.474285 -1.823580 43.783439 128 128 128 0
-8.017000 -1.603400 40.903063 128 128 128 0
-7.922489 -1.604555 40.932519 128 128 128 0
-7.831984 -1.606561 40.983694 129 129 129 0
-7.737582 -1.607809 41.015544 129 129 129 0
-7.643158 -1.609086 41.048111 128 128 128 0
-7.543914 -1.609368 41.055312 128 128 128 0
-7.446614 -1.610079 41.073436 128 128 128 0
-7.357521 -1.612607 41.137940 129 129 129 0
-7.258950 -1.613100 41.150509 131 131 131 0
-7.160139 -1.613552 41.162052 130 130 130 0
-7.072112 -1.616483 41.236803 132 132 132 0
-6.972107 -1.616721 41.242871 132 132 132 0
-6.865339 -1.615374 41.208517 132 132 132 0
-6.775809 -1.618104 41.278153 131 131 131 0
-6.684363 -1.620452 41.338054 133 133 133 0
-6.578881 -1.619417 41.311654 133 133 133 0
-6.477293 -1.619323 41.309270 129 129 129 0
-6.391670 -1.623281 41.410237 133 133 133 0
-6.293811 -1.624209 41.433909 130 130 130 0
-6.183526 -1.621908 41.375216 132 132 132 0
-6.092859 -1.624762 41.448021 133 133 133 0
-5.998503 -1.626713 41.497773 135 135 135 0
-5.889920 -1.624805 41.449119 136 136 136 0
-5.795147 -1.626708 41.497649 131 131 131 0
-5.701973 -1.629135 41.559569 133 133 133 0
-5.602833 -1.629915 41.579469 132 132 132 0
-5.497517 -1.628894 41.553413 131 131 131 0
-5.404337 -1.631498 41.619847 135 135 135 0
-5.309510 -1.633695 41.675905 137 137 137 0
-5.199152 -1.631107 41.609861 134 134 134 0
-5.107695 -1.634462 41.695472 138 138 138 0
-5.007169 -1.634994 41.709029 135 135 135 0
-4.903730 -1.634577 41.698386 134 134 134 0
-4.801388 -1.634515 41.696812 138 138 138 0
-4.705198 -1.636591 41.749758 137 137 137 0
-4.603447 -1.636781 41.754617 141 141 141 0
-4.498520 -1.635825 41.730240 139 139 139 0
-4.398582 -1.636682 41.752083 140 140 140 0
-4.297479 -1.637135 41.763641 139 139 139 0
