ply
format ascii 1.0
element vertex 1100
property float x
property float y
property float z
property uchar red
property uchar green
property uchar blue
property uchar alpha
end_header
7.879590 -7.555771 44.056973 124 124 124 0
8.008300 -7.575418 44.171536 117 117 117 0
7.597317 -7.090829 41.345941 115 115 115 0
7.699918 -7.092030 41.352944 117 117 117 0
8.143716 -7.403378 43.168385 114 114 114 0
8.420150 -7.556545 44.061486 107 107 107 0
8.530920 -7.559043 44.076053 117 117 117 0
-8.584420 -7.404062 43.798060 134 134 134 0
-8.449227 -7.379705 43.653978 134 134 134 0
-8.320979 -7.360866 43.542538 131 131 131 0
-8.189293 -7.338457 43.409981 131 131 131 0
-8.054711 -7.312830 43.258384 130 130 130 0
-7.929980 -7.295582 43.156354 129 129 129 0
-7.799379 -7.272394 43.019190 128 128 128 0
-7.670613 -7.250305 42.888525 129 129 129 0
-7.546403 -7.231969 42.780060 131 131 131 0
-7.431359 -7.222025 42.721234 133 133 133 0
-7.305224 -7.200864 42.596058 134 134 134 0
-7.198257 -7.198257 42.580638 135 135 135 0
-7.091917 -7.196210 42.568530 137 137 137 0
-6.974984 -7.183192 42.491525 136 136 136 0
-6.875585 -7.188112 42.520627 136 136 136 0
-6.778622 -7.195768 42.565915 135 135 135 0
-6.670143 -7.191248 42.539178 134 134 134 0
-6.567810 -7.193316 42.551409 136 136 136 0
-6.476375 -7.207578 42.635778 135 135 135 0
-6.373671 -7.209562 42.647513 132 132 132 0
-6.268824 -7.209147 42.645059 133 133 133 0
-6.173984 -7.220422 42.711755 128 128 128 0
-6.076672 -7.229144 42.763346 126 126 126 0
-5.974342 -7.232098 42.780822 123 123 123 0
-5.875600 -7.239578 42.825072 120 120 120 0
-5.776189 -7.246492 42.865970 116 116 116 0
-5.683330 -7.262033 42.957900 113 113 113 0
-5.580380 -7.265023 42.975588 116 116 116 0
-5.487720 -7.281782 43.074721 119 119 119 0
-5.386360 -7.287429 43.108126 123 123 123 0
-5.289429 -7.299412 43.179012 123 123 123 0
-5.190449 -7.309000 43.235730 118 118 118 0
-5.093730 -7.322237 43.314034 112 112 112 0
-4.575184 -6.716759 39.732382 109 109 109 0
-4.489969 -6.734953 39.840008 109 109 109 0
-4.812349 -7.378935 43.649426 110 110 110 0
-4.711556 -7.388576 43.706456 112 112 112 0
-4.613996 -7.403854 43.796827 116 116 116 0
-4.515845 -7.418889 43.885767 115 115 115 0
-4.413979 -7.428403 43.942048 116 116 116 0
-4.315386 -7.444041 44.034554 116 116 116 0
-4.214361 -7.456177 44.106344 117 117 117 0
-4.107846 -7.458983 44.122943 116 116 116 0
-3.975426 -7.413633 43.854674 110 110 110 0
-3.890947 -7.457649 44.115049 113 113 113 0
-3.821917 -7.534637 44.570466 138 138 138 0
-3.724374 -7.558287 44.710367 147 147 147 0
-3.621667 -7.572577 44.794893 140 140 140 0
-3.488584 -7.522259 44.497245 132 132 132 0
-3.359597 -7.477813 44.234324 118 118 118 0
-3.250902 -7.477075 44.229959 117 117 117 0
-3.138648 -7.467818 44.175200 117 117 117 0
-3.031733 -7.471056 44.194359 119 119 119 0
-2.924918 -7.474789 44.216442 121 121 121 0
-2.815370 -7.471559 44.197330 119 119 119 0
-2.702590 -7.459148 44.123916 122 122 122 0
-2.590251 -7.446972 44.051887 124 124 124 0
-2.477906 -7.433718 43.973487 123 123 123 0
-2.369999 -7.433178 43.970293 125 125 125 0
-2.258683 -7.421385 43.900535 128 128 128 0
-2.153268 -7.428776 43.944253 132 132 132 0
-2.047286 -7.434883 43.980376 133 133 133 0
-1.939101 -7.433222 43.970551 136 136 136 0
-1.833048 -7.440018 44.010753 138 138 138 0
-1.725461 -7.441052 44.016869 139 139 139 0
-1.619240 -7.448504 44.060953 133 133 133 0
-1.512073 -7.452359 44.083757 127 127 127 0
-1.403217 -7.447842 44.057037 122 122 122 0
-1.300403 -7.477318 44.231399 126 126 126 0
-1.196019 -7.502301 44.379181 127 127 127 0
-1.087961 -7.506932 44.406580 128 128 128 0
-0.979602 -7.510284 44.426407 124 124 124 0
-0.873360 -7.532728 44.559169 121 121 121 0
-0.764364 -7.534442 44.569308 129 129 129 0
-0.655707 -7.540635 44.605944 127 127 127 0
-0.547077 -7.549665 44.659362 132 132 132 0
-0.437750 -7.551180 44.668323 128 128 128 0
-0.328814 -7.562725 44.736616 138 138 138 0
-0.219978 -7.589233 44.893421 143 143 143 0
-0.110171 -7.601791 44.967709 150 150 150 0
0.000000 -7.615736 45.050196 155 155 155 0
0.110291 -7.610088 45.016789 159 159 159 0
0.220443 -7.605268 44.988276 151 151 151 0
0.330256 -7.595879 44.932735 157 157 157 0
0.438979 -7.572394 44.793812 156 156 156 0
0.548590 -7.570548 44.782891 158 158 158 0
0.658561 -7.573453 44.800080 155 155 155 0
0.767207 -7.562471 44.735111 153 153 153 0
0.878631 -7.578191 44.828104 154 154 154 0
0.986373 -7.562195 44.733482 147 147 147 0
1.079520 -7.448691 44.062059 138 138 138 0
1.181960 -7.414113 43.857516 137 137 137 0
1.284029 -7.383164 43.674440 135 135 135 0
1.386639 -7.359855 43.536555 136 136 136 0
1.485874 -7.323238 43.319954 136 136 136 0
1.584491 -7.288658 43.115396 135 135 135 0
1.686825 -7.274432 43.031247 131 131 131 0
1.784027 -7.241051 42.833785 134 134 134 0
1.881947 -7.214130 42.674537 129 129 129 0
1.980376 -7.191893 42.542991 126 126 126 0
2.085221 -7.194012 42.555531 123 123 123 0
2.183200 -7.173371 42.433427 117 117 117 0
2.287455 -7.174290 42.438861 112 112 112 0
2.394258 -7.182775 42.489059 108 108 108 0
2.502774 -7.195476 42.564190 102 102 102 0
2.610229 -7.204232 42.615985 101 101 101 0
2.731915 -7.250083 42.887213 102 102 102 0
2.840981 -7.260285 42.947562 102 102 102 0
2.955266 -7.282621 43.079686 103 103 103 0
3.075500 -7.317569 43.286416 115 115 115 0
3.177474 -7.308190 43.230937 120 120 120 0
3.284932 -7.311623 43.251247 117 117 117 0
3.395099 -7.320683 43.304838 112 112 112 0
3.505685 -7.330068 43.360357 105 105 105 0
3.656365 -7.420271 43.893940 108 108 108 0
3.788218 -7.468200 44.177464 122 122 122 0
3.892115 -7.459887 44.128289 122 122 122 0
4.005954 -7.470563 44.191441 117 117 117 0
4.110491 -7.463787 44.151357 122 122 122 0
4.207806 -7.444580 44.037741 122 122 122 0
4.304189 -7.424727 43.920300 121 121 121 0
4.406902 -7.416493 43.871593 123 123 123 0
4.508656 -7.407078 43.815899 123 123 123 0
4.597153 -7.376827 43.636952 118 118 118 0
4.710436 -7.386820 43.696064 112 112 112 0
4.149202 -6.362110 37.634487 101 101 101 0
4.276726 -6.415088 37.947876 90 90 90 0
4.990290 -7.326170 43.337297 95 95 95 0
5.230365 -7.518649 44.475891 98 98 98 0
5.407837 -7.615117 45.046535 118 118 118 0
5.553576 -7.663936 45.335318 130 130 130 0
5.615246 -7.597097 44.939942 121 121 121 0
5.695828 -7.557926 44.708226 125 125 125 0
5.800997 -7.552242 44.674605 125 125 125 0
5.904124 -7.544158 44.626787 126 126 126 0
5.993569 -7.519205 44.479180 128 128 128 0
6.106980 -7.524672 44.511519 128 128 128 0
6.213258 -7.521312 44.491640 124 124 124 0
6.298651 -7.493223 44.325481 124 124 124 0
6.413066 -7.500027 44.365730 122 122 122 0
6.515476 -7.492798 44.322969 120 120 120 0
6.623960 -7.492676 44.322246 121 121 121 0
6.730241 -7.490107 44.307050 121 121 121 0
6.843732 -7.495516 44.339046 123 123 123 0
6.951168 -7.494228 44.331431 124 124 124 0
7.049170 -7.482965 44.264801 123 123 123 0
7.154213 -7.479404 44.243739 124 124 124 0
7.238861 -7.454946 44.099062 130 130 130 0
7.342353 -7.450329 44.071746 131 131 131 0
7.448079 -7.448079 44.058439 136 136 136 0
7.553677 -7.445768 44.044767 136 136 136 0
7.652290 -7.436733 43.991322 133 133 133 0
7.773119 -7.449239 44.065302 131 131 131 0
7.879760 -7.447993 44.057927 126 126 126 0
6.851268 -6.388345 37.789675 120 120 120 0
7.758263 -7.137602 42.221837 114 114 114 0
7.532327 -6.838560 40.452882 122 122 122 0
8.139760 -7.294070 43.147414 109 109 109 0
8.417576 -7.446318 44.048019 114 114 114 0
8.174783 -7.140000 42.236026 115 115 115 0
-8.602924 -7.312485 43.892469 128 128 128 0
-8.461561 -7.283369 43.717701 129 129 129 0
-8.332896 -7.264576 43.604898 128 128 128 0
-8.208563 -7.249121 43.512130 128 128 128 0
-8.070142 -7.220653 43.341257 126 126 126 0
-7.949766 -7.207787 43.264030 127 127 127 0
-7.819425 -7.185418 43.129759 127 127 127 0
-7.684138 -7.157827 42.964149 129 129 129 0
-7.559737 -7.139752 42.855651 131 131 131 0
-7.443033 -7.128538 42.788345 131 131 131 0
-7.323297 -7.114060 42.701443 132 132 132 0
-7.209104 -7.104624 42.644804 133 133 133 0
-7.101891 -7.101891 42.628400 133 133 133 0
-6.985138 -7.089393 42.553381 132 132 132 0
-6.882785 -7.091354 42.565152 133 133 133 0
-6.786526 -7.099750 42.615548 132 132 132 0
-6.678648 -7.096063 42.593416 132 132 132 0
-6.571944 -7.093527 42.578193 134 134 134 0
-6.479416 -7.106456 42.655801 136 136 136 0
-6.375138 -7.106711 42.657330 135 135 135 0
-6.268459 -7.104254 42.642581 136 136 136 0
-6.174322 -7.116168 42.714091 135 135 135 0
-6.075061 -7.122485 42.752011 133 133 133 0
-5.969640 -7.121675 42.747151 131 131 131 0
-5.869235 -7.126928 42.778680 129 129 129 0
-5.776189 -7.141470 42.865965 127 127 127 0
-5.671335 -7.141681 42.867236 123 123 123 0
-5.576259 -7.154446 42.943854 121 121 121 0
-5.480080 -7.166258 43.014756 121 121 121 0
-5.383043 -7.177390 43.081575 123 123 123 0
-5.287254 -7.190666 43.161259 125 125 125 0
-5.185609 -7.196355 43.195406 120 120 120 0
-4.659140 -6.600448 39.618538 118 118 118 0
-4.993586 -7.224763 43.365925 113 113 113 0
-4.899629 -7.242930 43.474969 115 115 115 0
-4.804237 -7.259736 43.575849 115 115 115 0
-4.697486 -7.259751 43.575937 116 116 116 0
-4.602065 -7.277684 43.683579 113 113 113 0
-4.502951 -7.290492 43.760454 115 115 115 0
-4.025467 -6.676384 40.074335 115 115 115 0
-4.309822 -7.326698 43.977778 118 118 118 0
-4.206035 -7.333599 44.019200 115 115 115 0
-4.105917 -7.347431 44.102228 111 111 111 0
-3.967803 -7.292178 43.770578 110 110 110 0
-3.899033 -7.364840 44.206722 118 118 118 0
-3.823461 -7.428439 44.588469 144 144 144 0
-3.723841 -7.447682 44.703976 146 146 146 0
-3.608450 -7.435593 44.631412 138 138 138 0
-3.463662 -7.360283 44.179369 128 128 128 0
-3.343065 -7.333175 44.016654 124 124 124 0
-3.230527 -7.322528 43.952751 119 119 119 0
-3.123292 -7.323582 43.959076 119 119 119 0
-3.009115 -7.307851 43.864650 118 118 118 0
-2.905718 -7.318104 43.926197 119 119 119 0
-2.795164 -7.310430 43.880129 122 122 122 0
-2.685362 -7.304185 43.842647 123 123 123 0
-2.576198 -7.299228 43.812894 123 123 123 0
-2.471372 -7.306666 43.857537 125 125 125 0
-2.363304 -7.304757 43.846079 126 126 126 0
-2.254808 -7.301284 43.825231 126 126 126 0
-2.151650 -7.315610 43.911223 127 127 127 0
-2.044251 -7.316266 43.915161 131 131 131 0
-1.936195 -7.314516 43.904657 132 132 132 0
-1.831375 -7.325502 43.970598 134 134 134 0
-1.723324 -7.324127 43.962344 132 132 132 0
-1.618047 -7.335145 44.028479 136 136 136 0
-1.512681 -7.347308 44.101488 130 130 130 0
-1.406354 -7.356315 44.155552 123 123 123 0
-1.295857 -7.343190 44.076773 125 125 125 0
-1.188688 -7.348251 44.107147 123 123 123 0
-1.080418 -7.346843 44.098695 124 124 124 0
-0.974953 -7.366311 44.215552 119 119 119 0
-0.868711 -7.384047 44.322008 119 119 119 0
-0.759448 -7.377497 44.282694 118 118 118 0
-0.650668 -7.374237 44.263127 126 126 126 0
-0.543478 -7.391298 44.365536 128 128 128 0
-0.434487 -7.386276 44.335387 125 125 125 0
-0.327350 -7.419934 44.537418 123 123 123 0
-0.218449 -7.427280 44.581510 131 131 131 0
-0.109867 -7.470927 44.843499 143 143 143 0
0.000000 -7.473930 44.861524 154 154 154 0
0.110075 -7.485095 44.928539 151 151 151 0
0.220514 -7.497468 45.002810 151 151 151 0
0.330208 -7.484705 44.926199 152 152 152 0
0.439032 -7.463548 44.799210 159 159 159 0
0.548641 -7.461515 44.787004 157 157 157 0
0.658567 -7.463761 44.800488 154 154 154 0
0.767085 -7.451686 44.728009 156 156 156 0
0.878476 -7.467043 44.820183 155 155 155 0
0.983034 -7.427371 44.582056 143 143 143 0
1.077188 -7.324877 43.966848 138 138 138 0
1.179079 -7.288850 43.750601 136 136 136 0
1.282362 -7.266715 43.617740 135 135 135 0
1.384941 -7.244307 43.483233 135 135 135 0
1.484127 -7.208616 43.269003 132 132 132 0
1.587166 -7.195151 43.188182 133 133 133 0
1.683818 -7.156227 42.954543 133 133 133 0
1.780027 -7.120106 42.737734 131 131 131 0
1.876635 -7.089511 42.554089 131 131 131 0
1.976811 -7.074901 42.466395 131 131 131 0
2.078171 -7.065780 42.411646 128 128 128 0
2.174398 -7.040907 42.262348 125 125 125 0
2.279182 -7.044745 42.285386 117 117 117 0
2.387877 -7.059809 42.375803 108 108 108 0
2.490578 -7.056637 42.356762 105 105 105 0
2.599393 -7.070348 42.439062 101 101 101 0
2.710704 -7.089534 42.554227 101 101 101 0
2.827136 -7.120195 42.738267 98 98 98 0
2.935019 -7.127903 42.784530 101 101 101 0
3.056292 -7.166478 43.016073 108 108 108 0
3.172365 -7.190694 43.161427 115 115 115 0
3.275838 -7.185709 43.131506 116 116 116 0
3.383529 -7.189998 43.157252 114 114 114 0
3.488260 -7.187929 43.144834 116 116 116 0
3.591976 -7.183951 43.120955 109 109 109 0
3.710972 -7.209889 43.276642 113 113 113 0
3.835723 -7.245255 43.488928 108 108 108 0
3.953268 -7.265465 43.610235 109 109 109 0
4.058096 -7.261857 43.588576 113 113 113 0
4.173373 -7.276650 43.677371 114 114 114 0
4.281773 -7.279014 43.691561 113 113 113 0
4.378872 -7.262519 43.592549 115 115 115 0
4.478985 -7.251689 43.527547 114 114 114 0
4.587734 -7.255022 43.547549 116 116 116 0
4.697143 -7.259221 43.572753 113 113 113 0
4.139845 -6.255766 37.549615 104 104 104 0
4.253996 -6.288516 37.746197 97 97 97 0
4.997691 -7.230702 43.401570 90 90 90 0
5.228931 -7.407653 44.463701 102 102 102 0
5.403704 -7.499018 45.012111 118 118 118 0
5.524932 -7.513907 45.101483 125 125 125 0
5.596468 -7.461958 44.789661 128 128 128 0
5.679542 -7.427093 44.580391 127 127 127 0
5.787939 -7.426035 44.574041 129 129 129 0
5.901348 -7.431328 44.605808 129 129 129 0
5.987218 -7.402378 44.432042 128 128 128 0
6.094304 -7.400226 44.419126 128 128 128 0
6.194207 -7.389580 44.355222 127 127 127 0
6.289125 -7.373457 44.258447 125 125 125 0
6.396371 -7.372088 44.250229 125 125 125 0
6.497850 -7.364230 44.203061 124 124 124 0
6.610957 -7.369592 44.235245 121 121 121 0
6.711651 -7.361166 44.184669 123 123 123 0
6.822087 -7.363523 44.198816 128 128 128 0
6.933296 -7.366627 44.217449 129 129 129 0
7.019788 -7.343778 44.080302 132 132 132 0
7.134705 -7.350908 44.123100 135 135 135 0
7.233855 -7.341823 44.068565 137 137 137 0
7.335734 -7.335734 44.032020 139 139 139 0
7.444552 -7.336660 44.037577 139 139 139 0
7.550934 -7.335193 44.028768 137 137 137 0
7.652130 -7.328801 43.990400 135 135 135 0
7.757187 -7.326232 43.974983 131 131 131 0
7.879628 -7.339928 44.057190 124 124 124 0
7.494046 -6.886421 41.335060 120 120 120 0
7.759941 -7.035680 42.230972 116 116 116 0
8.238507 -7.371296 44.245475 121 121 121 0
7.464280 -6.591832 39.566816 116 116 116 0
8.416437 -7.337407 44.042056 114 114 114 0
8.527928 -7.340495 44.060592 117 117 117 0
-8.623204 -7.221934 43.995940 125 125 125 0
-8.485993 -7.196982 43.843934 125 125 125 0
-8.353712 -7.175624 43.713823 125 125 125 0
-8.230316 -7.161444 43.627438 127 127 127 0
-8.094914 -7.136306 43.474297 125 125 125 0
-7.970047 -7.119908 43.374404 125 125 125 0
-7.836083 -7.094832 43.221639 126 126 126 0
-7.699878 -7.067011 43.052155 128 128 128 0
-7.574509 -7.048502 42.939396 131 131 131 0
-7.453835 -7.033901 42.850445 131 131 131 0
-7.335141 -7.020778 42.770502 131 131 131 0
-7.220083 -7.010805 42.709750 132 132 132 0
-7.112188 -7.007597 42.690203 132 132 132 0
-6.999590 -6.999590 42.641424 133 133 133 0
-6.891914 -6.996337 42.621607 132 132 132 0
-6.792328 -7.001323 42.651981 131 131 131 0
-6.687388 -7.000859 42.649156 131 131 131 0
-6.578926 -6.996636 42.623430 134 134 134 0
-6.486007 -7.009072 42.699187 133 133 133 0
-6.381118 -7.008769 42.697345 132 132 132 0
-6.274956 -7.007034 42.686777 131 131 131 0
-6.177220 -7.014809 42.734142 131 131 131 0
-6.080353 -7.023856 42.789253 131 131 131 0
-5.973531 -7.021519 42.775015 130 130 130 0
-5.872164 -7.025625 42.800029 128 128 128 0
-5.776661 -7.037024 42.869472 130 130 130 0
-5.674815 -7.040974 42.893536 127 127 127 0
-5.573863 -7.046205 42.925402 127 127 127 0
-5.473608 -7.052534 42.963957 126 126 126 0
-5.379530 -7.067226 43.053462 124 124 124 0
-5.282900 -7.079086 43.125715 123 123 123 0
-5.186461 -7.091692 43.202507 121 121 121 0
-5.085710 -7.098803 43.245830 120 120 120 0
-4.982053 -7.102076 43.265767 120 120 120 0
-4.895045 -7.129740 43.434296 118 118 118 0
-4.791740 -7.134369 43.462497 119 119 119 0
-4.685470 -7.134693 43.464473 121 121 121 0
-4.601055 -7.169086 43.673996 117 117 117 0
-4.502502 -7.182562 43.756089 113 113 113 0
-4.022385 -6.573165 40.043651 112 112 112 0
-3.933213 -6.588132 40.134831 110 110 110 0
-3.846791 -6.608590 40.259459 112 112 112 0
-4.084715 -7.201997 43.874489 111 111 111 0
-3.963230 -7.176659 43.720127 107 107 107 0
-3.904785 -7.267239 44.271941 121 121 121 0
-3.826914 -7.325806 44.628731 149 149 149 0
-3.718581 -7.327792 44.640828 141 141 141 0
-3.593781 -7.296465 44.449983 131 131 131 0
-3.452513 -7.228698 44.037149 132 132 132 0
-3.326958 -7.190521 43.804578 127 127 127 0
-3.217293 -7.185288 43.772694 125 125 125 0
-3.111919 -7.189605 43.798996 121 121 121 0
-2.999223 -7.176712 43.720452 120 120 120 0
-2.891123 -7.174268 43.705561 120 120 120 0
-2.785581 -7.178228 43.729684 122 122 122 0
-2.674876 -7.168666 43.671437 122 122 122 0
-2.570620 -7.176315 43.718033 127 127 127 0
-2.465457 -7.181983 43.752560 127 127 127 0
-2.357479 -7.179595 43.738012 130 130 130 0
-2.251200 -7.182400 43.755101 127 127 127 0
-2.147988 -7.195761 43.836498 128 128 128 0
-2.041114 -7.197612 43.847773 131 131 131 0
-1.935148 -7.203052 43.880914 130 130 130 0
-1.829188 -7.209154 43.918085 135 135 135 0
-1.723728 -7.218111 43.972651 138 138 138 0
-1.615997 -7.218122 43.972718 132 132 132 0
-1.503945 -7.197453 43.846807 122 122 122 0
-1.392350 -7.175958 43.715855 123 123 123 0
-1.281598 -7.155587 43.591759 118 118 118 0
-1.175925 -7.162452 43.633580 114 114 114 0
-1.069844 -7.167952 43.667082 116 116 116 0
-0.963399 -7.171972 43.691574 113 113 113 0
-0.856914 -7.176654 43.720096 114 114 114 0
-0.749470 -7.173496 43.700857 115 115 115 0
-0.645047 -7.203029 43.880773 120 120 120 0
-0.538330 -7.213622 43.945307 117 117 117 0
-0.431024 -7.219651 43.982033 124 124 124 0
-0.323749 -7.230389 44.047449 121 121 121 0
-0.217041 -7.270871 44.294065 128 128 128 0
-0.108337 -7.258568 44.219118 124 124 124 0
0.000000 -7.262858 44.245254 125 125 125 0
0.108809 -7.290187 44.411742 130 130 130 0
0.217915 -7.300149 44.472428 132 132 132 0
0.326749 -7.297402 44.455693 135 135 135 0
0.436874 -7.317644 44.579006 143 143 143 0
0.547950 -7.342533 44.730629 150 150 150 0
0.658618 -7.354570 44.803962 155 155 155 0
0.769177 -7.362120 44.849953 157 157 157 0
0.876719 -7.342525 44.730580 145 145 145 0
0.976228 -7.267472 44.273360 138 138 138 0
1.073100 -7.189773 43.800020 137 137 137 0
1.175750 -7.161385 43.627082 140 140 140 0
1.281040 -7.152475 43.572800 135 135 135 0
1.383202 -7.128810 43.428630 138 138 138 0
1.482842 -7.096456 43.231534 135 135 135 0
1.582806 -7.069865 43.069543 130 130 130 0
1.681319 -7.040524 42.890792 132 132 132 0
1.777696 -7.006213 42.681772 131 131 131 0
1.873318 -6.972905 42.478858 134 134 134 0
1.974370 -6.962254 42.413973 132 132 132 0
2.074383 -6.949183 42.334347 130 130 130 0
2.173074 -6.933142 42.236625 128 128 128 0
2.273544 -6.923973 42.180771 123 123 123 0
2.378882 -6.929786 42.216180 113 113 113 0
2.482003 -6.928926 42.210942 105 105 105 0
2.264241 -6.068167 36.967208 102 102 102 0
2.360284 -6.082270 37.053122 99 99 99 0
2.460896 -6.106668 37.201755 100 100 100 0
2.927550 -7.005209 42.675654 103 103 103 0
2.651078 -6.124904 37.312845 104 104 104 0
3.149613 -7.034135 42.851873 110 110 110 0
3.258965 -7.043569 42.909344 115 115 115 0
3.372398 -7.060958 43.015281 118 118 118 0
3.479283 -7.064000 43.033808 118 118 118 0
3.580704 -7.056094 42.985647 116 116 116 0
3.688785 -7.061389 43.017902 114 114 114 0
3.794803 -7.062550 43.024974 109 109 109 0
3.897762 -7.058110 42.997931 109 109 109 0
4.016987 -7.082582 43.147012 106 106 106 0
4.131773 -7.098174 43.241996 108 108 108 0
4.237667 -7.098092 43.241499 106 106 106 0
4.351547 -7.111065 43.320532 109 109 109 0
4.462480 -7.118718 43.367153 112 112 112 0
4.577112 -7.131779 43.446720 113 113 113 0
4.687347 -7.137552 43.481885 113 113 113 0
4.121008 -6.135723 37.378755 102 102 102 0
4.252720 -6.194179 37.734870 97 97 97 0
4.978470 -7.096968 43.234650 89 89 89 0
5.229449 -7.299440 44.468107 101 101 101 0
5.380286 -7.356718 44.817043 119 119 119 0
5.488490 -7.354577 44.804000 119 119 119 0
5.571458 -7.319367 44.589501 125 125 125 0
5.669513 -7.304949 44.501670 124 124 124 0
5.776610 -7.302507 44.486794 125 125 125 0
5.883966 -7.300476 44.474423 127 127 127 0
5.974686 -7.278254 44.339041 127 127 127 0
6.083576 -7.278564 44.340933 126 126 126 0
6.184868 -7.269933 44.288353 126 126 126 0
6.274197 -7.247780 44.153394 130 130 130 0
6.381982 -7.247336 44.150691 130 130 130 0
6.488303 -7.245271 44.138113 130 130 130 0
6.595023 -7.243714 44.128628 133 133 133 0
6.706448 -7.247290 44.150414 133 133 133 0
6.814893 -7.247584 44.152204 140 140 140 0
6.920317 -7.244707 44.134676 146 146 146 0
7.022029 -7.238091 44.094373 147 147 147 0
7.138457 -7.246615 44.146301 148 148 148 0
7.233531 -7.233531 44.066591 149 149 149 0
7.337326 -7.229425 44.041575 146 146 146 0
7.442898 -7.227162 44.027790 140 140 140 0
7.546000 -7.222600 44.000000 139 139 139 0
7.657132 -7.225745 44.019157 135 135 135 0
7.764381 -7.225188 44.015765 129 129 129 0
7.884280 -7.236257 44.083196 124 124 124 0
7.333365 -6.639668 40.448787 120 120 120 0
7.268844 -6.493501 39.558336 115 115 115 0
7.532897 -6.640844 40.455947 116 116 116 0
8.137739 -7.080890 43.136702 123 123 123 0
8.414899 -7.228183 44.034011 117 117 117 0
8.609498 -7.301726 44.482035 122 122 122 0
-8.650928 -7.137016 44.137387 126 126 126 0
-8.509266 -7.109007 43.964177 123 123 123 0
-8.379851 -7.090643 43.850606 124 124 124 0
-8.252984 -7.073986 43.747595 124 124 124 0
-8.122829 -7.054036 43.624217 126 126 126 0
-7.988170 -7.029590 43.473035 126 126 126 0
-7.857506 -7.008045 43.339799 126 126 126 0
-7.717576 -6.977534 43.151110 127 127 127 0
-7.589710 -6.957234 43.025567 130 130 130 0
-7.466720 -6.940895 42.924518 131 131 131 0
-7.351092 -6.931030 42.863512 132 132 132 0
-7.232908 -6.918434 42.785616 132 132 132 0
-7.126422 -6.916821 42.775641 132 132 132 0
-7.013810 -6.909126 42.728054 133 133 133 0
-6.901837 -6.901837 42.682977 133 133 133 0
-6.805520 -6.910221 42.734822 132 132 132 0
-6.694804 -6.904016 42.696453 131 131 131 0
-6.591323 -6.905195 42.703742 129 129 129 0
-6.494399 -6.913393 42.754440 129 129 129 0
-6.390502 -6.914314 42.760137 128 128 128 0
-6.285953 -6.914548 42.761584 127 127 127 0
-6.183090 -6.916677 42.774750 126 126 126 0
-6.088945 -6.928800 42.849720 125 125 125 0
-5.980769 -6.925101 42.826848 125 125 125 0
-5.882168 -6.932556 42.872948 125 125 125 0
-5.783553 -6.940264 42.920616 125 125 125 0
-5.681911 -6.944558 42.947177 127 127 127 0
-5.578469 -6.946773 42.960872 128 128 128 0
-5.478480 -6.953455 43.002195 127 127 127 0
-5.380769 -6.963348 43.063375 124 124 124 0
-5.283055 -6.973633 43.126983 125 125 125 0
-5.186499 -6.985896 43.202820 123 123 123 0
-5.083468 -6.989768 43.226769 123 123 123 0
-4.983505 -6.998114 43.278377 125 125 125 0
-4.891673 -7.018487 43.404372 123 123 123 0
-4.787236 -7.021280 43.421644 122 122 122 0
-4.688232 -7.032348 43.490094 121 121 121 0
-4.595412 -7.053423 43.620429 118 118 118 0
-4.109687 -6.458079 39.938646 114 114 114 0
-4.407320 -7.094710 43.875756 108 108 108 0
-4.320058 -7.128096 44.082226 110 110 110 0
-4.202695 -7.112253 43.984248 112 112 112 0
-4.055518 -7.043795 43.560885 110 110 110 0
-3.964651 -7.072080 43.735808 101 101 101 0
-3.912666 -7.173221 44.361293 116 116 116 0
-3.834818 -7.231372 44.720915 144 144 144 0
-3.721643 -7.224367 44.677592 139 139 139 0
-3.584516 -7.169032 44.335389 131 131 131 0
-3.442149 -7.099432 43.904960 131 131 131 0
-3.319465 -7.067247 43.705920 130 130 130 0
-3.209116 -7.060055 43.661443 131 131 131 0
-3.098859 -7.052576 43.615192 125 125 125 0
-2.989102 -7.045741 43.572922 123 123 123 0
-2.883961 -7.049682 43.597293 122 122 122 0
-2.780328 -7.057754 43.647214 126 126 126 0
-2.669077 -7.046363 43.576765 126 126 126 0
-2.564779 -7.053144 43.618699 126 126 126 0
-2.461698 -7.064003 43.685857 126 126 126 0
-2.354353 -7.063059 43.680020 125 125 125 0
-2.246693 -7.061034 43.667497 127 127 127 0
-2.146149 -7.082291 43.798953 129 129 129 0
-2.039447 -7.084394 43.811958 132 132 132 0
-1.933017 -7.087729 43.832584 132 132 132 0
-1.828971 -7.100713 43.912879 134 134 134 0
-1.713555 -7.068415 43.713140 128 128 128 0
-1.591549 -7.002815 43.307454 122 122 122 0
-1.478387 -6.969541 43.101674 113 113 113 0
-1.372733 -6.969260 43.099937 114 114 114 0
-1.265208 -6.958645 43.034290 112 112 112 0
-1.165136 -6.990813 43.233230 113 113 113 0
-1.059933 -6.995560 43.262586 115 115 115 0
-0.953055 -6.989070 43.222449 111 111 111 0
-0.848888 -7.003324 43.310597 111 111 111 0
-0.742538 -7.001077 43.296702 112 112 112 0
-0.638329 -7.021617 43.423729 116 116 116 0
-0.532502 -7.029024 43.469539 108 108 108 0
-0.427401 -7.052119 43.612362 119 119 119 0
-0.322066 -7.085446 43.818465 117 117 117 0
-0.215031 -7.096028 43.883907 123 123 123 0
-0.107732 -7.110284 43.972069 121 121 121 0
0.000000 -7.104996 43.939369 120 120 120 0
0.107667 -7.106025 43.945735 123 123 123 0
0.215853 -7.123161 44.051706 117 117 117 0
0.323347 -7.113624 43.992725 122 122 122 0
0.430572 -7.104445 43.935960 124 124 124 0
0.545515 -7.200793 44.531808 139 139 139 0
0.658942 -7.248359 44.825966 157 157 157 0
0.769393 -7.254276 44.862559 145 145 145 0
0.875298 -7.221205 44.658037 142 142 142 0
0.970774 -7.119010 44.026037 136 136 136 0
1.069614 -7.059454 43.657722 136 136 136 0
1.175667 -7.054001 43.623999 137 137 137 0
1.278972 -7.034346 43.502451 139 139 139 0
1.383222 -7.022511 43.429256 139 139 139 0
1.479788 -6.976144 43.142509 136 136 136 0
1.580947 -6.956166 43.018962 132 132 132 0
1.676380 -6.915067 42.764791 135 135 135 0
1.774062 -6.887535 42.594526 131 131 131 0
1.869901 -6.856303 42.401379 133 133 133 0
1.973225 -6.854361 42.389369 133 133 133 0
2.072447 -6.839076 42.294841 134 134 134 0
2.169159 -6.817358 42.160531 131 131 131 0
2.269398 -6.808194 42.103861 127 127 127 0
2.369739 -6.800120 42.053926 118 118 118 0
2.476319 -6.809878 42.114272 107 107 107 0
2.256295 -5.956619 36.837474 104 104 104 0
2.691425 -6.832080 42.251577 104 104 104 0
2.450864 -5.991001 37.050098 99 99 99 0
2.919860 -6.882527 42.563556 100 100 100 0
3.033048 -6.902799 42.688926 103 103 103 0
3.143269 -6.915192 42.765564 108 108 108 0
3.253250 -6.926274 42.834098 113 113 113 0
3.361236 -6.932548 42.872903 118 118 118 0
3.469763 -6.939526 42.916053 118 118 118 0
3.570506 -6.930981 42.863212 118 118 118 0
3.674293 -6.928667 42.848898 117 117 117 0
3.783926 -6.937197 42.901652 113 113 113 0
3.890019 -6.938952 42.912505 111 111 111 0
3.999778 -6.946983 42.962172 108 108 108 0
4.110112 -6.955574 43.015297 105 105 105 0
4.220993 -6.964638 43.071357 107 107 107 0
4.337943 -6.983030 43.185096 106 106 106 0
4.451617 -6.995398 43.261584 111 111 111 0
4.569705 -7.013966 43.376412 112 112 112 0
4.012086 -6.018129 37.217867 110 110 110 0
4.116897 -6.038116 37.341474 102 102 102 0
4.224620 -6.061411 37.485535 102 102 102 0
5.006121 -7.029872 43.474782 86 86 86 0
5.230582 -7.192051 44.477740 93 93 93 0
5.375868 -7.240965 44.780242 116 116 116 0
5.464235 -7.212790 44.606001 122 122 122 0
5.560582 -7.196047 44.502456 125 125 125 0
5.653900 -7.176104 44.379120 123 123 123 0
5.758591 -7.171076 44.348025 125 125 125 0
5.870141 -7.174617 44.369924 125 125 125 0
5.965868 -7.159042 44.273606 125 125 125 0
6.061379 -7.143768 44.179148 128 128 128 0
6.173918 -7.148747 44.209937 127 127 127 0
6.269503 -7.134262 44.120360 134 134 134 0
6.380623 -7.137646 44.141286 134 134 134 0
6.481359 -7.129495 44.090876 136 136 136 0
6.591919 -7.132240 44.107857 134 134 134 0
6.699384 -7.131602 44.103911 137 137 137 0
6.815494 -7.140042 44.156102 145 145 145 0
6.927669 -7.144159 44.181562 150 150 150 0
7.024659 -7.132730 44.110886 149 149 149 0
7.135452 -7.135452 44.127720 148 148 148 0
7.235956 -7.127956 44.081362 147 147 147 0
7.342617 -7.126658 44.073333 148 148 148 0
7.438903 -7.115472 44.004159 142 142 142 0
7.554581 -7.122891 44.050035 136 136 136 0
7.664972 -7.125185 44.064227 136 136 136 0
7.136758 -6.542028 40.457809 127 127 127 0
7.392187 -6.683348 41.331772 120 120 120 0
6.851427 -6.110732 37.790551 115 115 115 0
7.594949 -6.683555 41.333054 117 117 117 0
7.534003 -6.542687 40.461885 119 119 119 0
8.141266 -6.978228 43.155398 121 121 121 0
7.903351 -6.687451 41.357149 118 118 118 0
8.353701 -6.979042 43.160431 119 119 119 0
-8.678626 -7.051383 44.278703 123 123 123 0
-8.534743 -7.022257 44.095805 124 124 124 0
-8.401277 -7.001064 43.962726 125 125 125 0
-8.277528 -6.987524 43.877700 125 125 125 0
-8.145677 -6.966697 43.746922 125 125 125 0
-8.013023 -6.944620 43.608290 123 123 123 0
-7.880233 -6.921827 43.465159 125 125 125 0
-7.737611 -6.889653 43.263130 125 125 125 0
-7.604968 -6.865596 43.112065 127 127 127 0
-7.480552 -6.848392 43.004034 130 130 130 0
-7.361990 -6.836133 42.927054 131 131 131 0
-7.246785 -6.826681 42.867700 131 131 131 0
-7.137897 -6.822990 42.844519 132 132 132 0
-7.027138 -6.817373 42.809248 133 133 133 0
-6.910715 -6.806008 42.737881 133 133 133 0
-6.813127 -6.813127 42.782590 132 132 132 0
-6.706435 -6.811223 42.770629 128 128 128 0
-6.600834 -6.810384 42.765364 127 127 127 0
-6.503997 -6.818706 42.817622 127 127 127 0
-6.399905 -6.819571 42.823052 125 125 125 0
-6.296890 -6.821630 42.835984 125 125 125 0
-6.195487 -6.825537 42.860514 124 124 124 0
-6.097545 -6.833456 42.910242 122 122 122 0
-5.994754 -6.836123 42.926990 121 121 121 0
-5.891842 -6.838745 42.943456 122 122 122 0
-5.793071 -6.846356 42.991248 123 123 123 0
-5.687652 -6.846247 42.990565 125 125 125 0
-5.585048 -6.849587 43.011533 124 124 124 0
-5.487177 -6.858971 43.070465 124 124 124 0
-5.385009 -6.863246 43.097308 125 125 125 0
-5.285374 -6.870986 43.145908 128 128 128 0
-5.184746 -6.877724 43.188220 127 127 127 0
-5.083338 -6.883687 43.225664 128 128 128 0
-4.981629 -6.889487 43.262082 126 126 126 0
-4.887787 -6.906656 43.369895 125 125 125 0
-4.786846 -6.914333 43.418102 125 125 125 0
-4.686714 -6.923555 43.476015 120 120 120 0
-4.601347 -6.955524 43.676760 111 111 111 0
-4.112493 -6.364573 39.965920 109 109 109 0
-4.416682 -7.002057 43.968962 106 106 106 0
-3.943835 -6.408732 40.243214 111 111 111 0
-4.206035 -7.010058 44.019200 115 115 115 0
-4.069408 -6.960829 43.710075 100 100 100 0
-3.962051 -6.960360 43.707129 102 102 102 0
-3.914016 -7.066973 44.376595 119 119 119 0
-3.838132 -7.127960 44.759561 142 142 142 0
-3.721236 -7.114127 44.672695 133 133 133 0
-3.583943 -7.059283 44.328305 132 132 132 0
-3.437414 -6.982248 43.844570 128 128 128 0
-3.311901 -6.944309 43.606334 132 132 132 0
-3.202775 -6.939345 43.575168 131 131 131 0
-3.091235 -6.928630 43.507884 129 129 129 0
-2.978819 -6.915115 43.423012 127 127 127 0
-2.876695 -6.925377 43.487452 123 123 123 0
-2.774587 -6.936466 43.557089 124 124 124 0
-2.664434 -6.927529 43.500965 126 126 126 0
-2.559655 -6.932399 43.531551 127 127 127 0
-2.458651 -6.948360 43.631777 123 123 123 0
-2.349477 -6.941635 43.589547 124 124 124 0
-2.243598 -6.944470 43.607349 120 120 120 0
-2.142322 -6.962545 43.720850 127 127 127 0
-2.034721 -6.960889 43.710449 124 124 124 0
-1.924452 -6.949410 43.638370 127 127 127 0
-1.795498 -6.865140 43.109202 125 125 125 0
-1.674508 -6.802689 42.717041 120 120 120 0
-1.564380 -6.778979 42.568158 115 115 115 0
-1.458008 -6.769325 42.507534 112 112 112 0
-1.357476 -6.787378 42.620899 113 113 113 0
-1.252424 -6.783961 42.599440 110 110 110 0
-1.150504 -6.798430 42.690297 112 112 112 0
-1.049749 -6.823370 42.846908 114 114 114 0
-0.944314 -6.820046 42.826035 116 116 116 0
-0.839379 -6.819953 42.825452 110 110 110 0
-0.739609 -6.867799 43.125897 112 112 112 0
-0.633070 -6.858262 43.066011 110 110 110 0
-0.527171 -6.853220 43.034349 110 110 110 0
-0.424135 -6.892192 43.279071 111 111 111 0
-0.320158 -6.936759 43.558925 112 112 112 0
-0.213558 -6.940620 43.583172 117 117 117 0
-0.106816 -6.943011 43.598187 117 117 117 0
0.000000 -6.950791 43.647040 117 117 117 0
0.107053 -6.958451 43.695142 115 115 115 0
0.214747 -6.979262 43.825820 118 118 118 0
0.320935 -6.953584 43.664579 112 112 112 0
0.428350 -6.960686 43.709177 120 120 120 0
0.543985 -7.071809 44.406962 118 118 118 0
0.657330 -7.121075 44.716327 148 148 148 0
0.764765 -7.101393 44.592735 138 138 138 0
0.865782 -7.034476 44.172537 139 139 139 0
0.964212 -6.963756 43.728450 136 136 136 0
1.067226 -6.936967 43.560231 128 128 128 0
1.171385 -6.921822 43.465132 131 131 131 0
1.277079 -6.917512 43.438067 137 137 137 0
1.381590 -6.907949 43.378018 135 135 135 0
1.479760 -6.870312 43.141677 135 135 135 0
1.576309 -6.830671 42.892751 132 132 132 0
1.674953 -6.804498 42.728402 130 130 130 0
1.772693 -6.777943 42.561652 134 134 134 0
1.869608 -6.751362 42.394739 132 132 132 0
1.969267 -6.736967 42.304347 134 134 134 0
2.067518 -6.719433 42.194243 132 132 132 0
2.163704 -6.697179 42.054500 130 130 130 0
2.263818 -6.688553 42.000333 129 129 129 0
2.363472 -6.679378 41.942717 124 124 124 0
2.466527 -6.680176 41.947732 112 112 112 0
2.572161 -6.687620 41.994473 104 104 104 0
2.687885 -6.719713 42.195999 101 101 101 0
2.441355 -5.877337 36.906352 100 100 100 0
2.533439 -5.881197 36.930596 99 99 99 0
3.022033 -6.773523 42.533895 104 104 104 0
3.136279 -6.795270 42.670458 106 106 106 0
3.241942 -6.797620 42.685210 112 112 112 0
3.350632 -6.805972 42.737655 116 116 116 0
3.459288 -6.813749 42.786496 119 119 119 0
3.564022 -6.813572 42.785382 119 119 119 0
3.668150 -6.812279 42.777260 120 120 120 0
3.774077 -6.814305 42.789986 119 119 119 0
3.878558 -6.813683 42.786079 114 114 114 0
3.986643 -6.819257 42.821081 108 108 108 0
4.101392 -6.835653 42.924036 107 107 107 0
4.209219 -6.839980 42.951212 106 106 106 0
4.330005 -6.864642 43.106071 106 106 106 0
4.448454 -6.884512 43.230845 109 109 109 0
4.562380 -6.896621 43.306883 109 109 109 0
4.019231 -5.937500 37.284145 108 108 108 0
4.137409 -5.976257 37.527516 101 101 101 0
4.194377 -5.926837 37.217185 98 98 98 0
4.978771 -6.885534 43.237265 93 93 93 0
5.217800 -7.065771 44.369047 102 102 102 0
5.343985 -7.088960 44.514664 122 122 122 0
5.447273 -7.081454 44.467532 125 125 125 0
5.544493 -7.066511 44.373692 125 125 125 0
5.637660 -7.047075 44.251649 123 123 123 0
5.748256 -7.049748 44.268434 121 121 121 0
5.853406 -7.045767 44.243434 123 123 123 0
5.947094 -7.028384 44.134278 122 122 122 0
6.056133 -7.029440 44.140908 122 122 122 0
6.157200 -7.021368 44.090226 127 127 127 0
6.260703 -7.016306 44.058433 132 132 132 0
6.374563 -7.022823 44.099361 135 135 135 0
6.484691 -7.025082 44.113542 137 137 137 0
6.591857 -7.024110 44.107442 135 135 135 0
6.702580 -7.026898 44.124951 139 139 139 0
6.811262 -7.027492 44.128681 143 143 143 0
6.930260 -7.038545 44.198087 147 147 147 0
7.029691 -7.029691 44.142488 148 148 148 0
7.145266 -7.037004 44.188408 147 147 147 0
7.244016 -7.027777 44.130465 148 148 148 0
7.342395 -7.018466 44.072002 143 143 143 0
7.457802 -7.025466 44.115955 140 140 140 0
7.558950 -7.019025 44.075513 137 137 137 0
7.668904 -7.020828 44.086831 132 132 132 0
7.778661 -7.022403 44.096720 125 125 125 0
7.233814 -6.441067 40.446262 122 122 122 0
7.333925 -6.441961 40.451873 115 115 115 0
7.599808 -6.586501 41.359501 119 119 119 0
8.035912 -6.872819 43.157420 120 120 120 0
7.974219 -6.731483 42.269911 124 124 124 0
8.420117 -7.016765 44.061316 122 122 122 0
8.530354 -7.018645 44.073127 117 117 117 0
-8.707011 -6.965609 44.423524 122 122 122 0
-8.566064 -6.939596 44.257627 124 124 124 0
-8.432735 -6.919167 44.127343 123 123 123 0
-8.303571 -6.901669 44.015749 125 125 125 0
-8.169246 -6.879365 43.873500 123 123 123 0
-8.032037 -6.854005 43.711766 124 124 124 0
-7.905697 -6.837359 43.605607 126 126 126 0
-7.760024 -6.803308 43.388446 125 125 125 0
-7.627624 -6.780110 43.240499 125 125 125 0
-7.495175 -6.756214 43.088099 127 127 127 0
-7.377960 -6.745564 43.020176 128 128 128 0
-7.260969 -6.734811 42.951604 128 128 128 0
-7.150869 -6.730230 42.922385 130 130 130 0
-7.036460 -6.721394 42.866036 131 131 131 0
-6.922610 -6.712834 42.811444 130 130 130 0
-6.825702 -6.720692 42.861554 128 128 128 0
-6.718220 -6.718220 42.845791 128 128 128 0
-6.615634 -6.720644 42.861249 127 127 127 0
-6.512410 -6.722487 42.873007 124 124 124 0
-6.412445 -6.727812 42.906962 122 122 122 0
-6.313397 -6.734290 42.948281 122 122 122 0
-6.206887 -6.732895 42.939380 123 123 123 0
-6.109807 -6.741856 42.996531 121 121 121 0
-6.006599 -6.744252 43.011811 119 119 119 0
-5.907880 -6.751863 43.060348 121 121 121 0
-5.802356 -6.751832 43.060156 121 121 121 0
-5.701455 -6.757280 43.094896 123 123 123 0
-5.594492 -6.755613 43.084269 123 123 123 0
-5.491720 -6.759040 43.106125 124 124 124 0
-5.390969 -6.765137 43.145009 124 124 124 0
-5.291436 -6.773038 43.195395 128 128 128 0
-5.187795 -6.775895 43.213616 128 128 128 0
-5.083898 -6.778531 43.230428 130 130 130 0
-4.983939 -6.786640 43.282145 126 126 126 0
-4.890072 -6.803578 43.390165 125 125 125 0
-4.785191 -6.805606 43.403097 121 121 121 0
-4.684102 -6.813240 43.451784 116 116 116 0
-4.599139 -6.845230 43.655801 111 111 111 0
-4.119973 -6.278054 40.038609 111 111 111 0
-4.034354 -6.297528 40.162805 110 110 110 0
-4.322084 -6.915334 44.102897 108 108 108 0
-4.209126 -6.907283 44.051552 104 104 104 0
-4.037626 -6.800213 43.368704 102 102 102 0
-3.971382 -6.869417 43.810059 106 106 106 0
-3.923574 -6.975243 44.484971 109 109 109 0
-3.843685 -7.028453 44.824318 136 136 136 0
-3.726285 -7.014183 44.733313 137 137 137 0
-3.582907 -6.948669 44.315490 130 130 130 0
-3.433875 -6.867751 43.799432 127 127 127 0
-3.306210 -6.825723 43.531400 133 133 133 0
-3.197172 -6.820633 43.498934 135 135 135 0
-3.086934 -6.812543 43.447340 132 132 132 0
-2.974556 -6.798986 43.360878 128 128 128 0
-2.873186 -6.810515 43.434405 125 125 125 0
-2.765640 -6.807728 43.416635 123 123 123 0
-2.659919 -6.809393 43.427248 124 124 124 0
-2.554299 -6.811464 43.440461 125 125 125 0
-2.451828 -6.822477 43.510693 125 125 125 0
-2.341218 -6.810816 43.436329 119 119 119 0
-2.238285 -6.821441 43.504091 116 116 116 0
-2.135682 -6.834183 43.585348 125 125 125 0
-2.011095 -6.774216 43.202909 124 124 124 0
-1.884835 -6.701634 42.740015 122 122 122 0
-1.770285 -6.664604 42.503852 122 122 122 0
-1.661657 -6.646629 42.389215 117 117 117 0
-1.553292 -6.627377 42.266437 117 117 117 0
-1.452938 -6.642003 42.359714 115 115 115 0
-1.350832 -6.650250 42.412306 112 112 112 0
-1.247585 -6.653788 42.434874 110 110 110 0
-1.144252 -6.657468 42.458345 111 111 111 0
-1.042776 -6.673767 42.562290 112 112 112 0
-0.939605 -6.681637 42.612482 111 111 111 0
-0.836462 -6.691700 42.676658 112 112 112 0
-0.734897 -6.719062 42.851162 110 110 110 0
-0.632516 -6.746837 43.028297 113 113 113 0
-0.526651 -6.741130 42.991899 112 112 112 0
-0.422960 -6.767360 43.159182 112 112 112 0
-0.318032 -6.784685 43.269672 116 116 116 0
-0.212122 -6.787917 43.290289 120 120 120 0
-0.106064 -6.788087 43.291369 121 121 121 0
0.000000 -6.790654 43.307739 116 116 116 0
0.106710 -6.829417 43.554958 112 112 112 0
0.213862 -6.843598 43.645395 113 113 113 0
0.320400 -6.835193 43.591790 114 114 114 0
0.426160 -6.818553 43.485669 116 116 116 0
0.539361 -6.903826 44.029504 119 119 119 0
0.650612 -6.939857 44.259290 140 140 140 0
0.757156 -6.922571 44.149048 137 137 137 0
0.858109 -6.864870 43.781059 128 128 128 0
0.955856 -6.797197 43.349472 125 125 125 0
1.062392 -6.799310 43.362949 123 123 123 0
1.165357 -6.780257 43.241434 130 130 130 0
1.275565 -6.803015 43.386573 133 133 133 0
1.377641 -6.782234 43.254043 135 135 135 0
1.477067 -6.752305 43.063173 135 135 135 0
1.573126 -6.712006 42.806161 135 135 135 0
1.673686 -6.694745 42.696081 133 133 133 0
1.769560 -6.661874 42.486439 133 133 133 0
1.866407 -6.636113 42.322152 134 134 134 0
1.967745 -6.628195 42.271649 132 132 132 0
2.064748 -6.607193 42.137712 132 132 132 0
2.162822 -6.591456 42.037348 130 130 130 0
2.259097 -6.571919 41.912747 129 129 129 0
2.359043 -6.564294 41.864121 128 128 128 0
2.461695 -6.564519 41.865553 122 122 122 0
2.564645 -6.565492 41.871758 110 110 110 0
2.333668 -5.744413 36.635286 101 101 101 0
2.428900 -5.757392 36.718061 99 99 99 0
2.890645 -6.607188 42.137677 98 98 98 0
2.618941 -5.779731 36.860532 104 104 104 0
3.120349 -6.656745 42.453730 106 106 106 0
3.227831 -6.663909 42.499418 107 107 107 0
3.339470 -6.678940 42.595282 111 111 111 0
3.447712 -6.686471 42.643310 114 114 114 0
3.552150 -6.686399 42.642851 119 119 119 0
3.656144 -6.685520 42.637244 122 122 122 0
3.763269 -6.690256 42.667446 119 119 119 0
3.869934 -6.693939 42.690938 116 116 116 0
3.979646 -6.702562 42.745933 113 113 113 0
4.093168 -6.716993 42.837966 110 110 110 0
3.622398 -5.795836 36.963240 106 106 106 0
4.314318 -6.734545 42.949902 107 107 107 0
4.443868 -6.771608 43.186277 109 109 109 0
3.918318 -5.831916 37.193340 107 107 107 0
4.018612 -5.845254 37.278405 103 103 103 0
4.097023 -5.826876 37.161202 102 102 102 0
4.171030 -5.803173 37.010031 100 100 100 0
5.031520 -6.851432 43.695355 86 86 86 0
5.217266 -6.956355 44.364511 116 116 116 0
5.334511 -6.967525 44.435746 123 123 123 0
5.438193 -6.960887 44.393411 126 126 126 0
5.529546 -6.939038 44.254070 128 128 128 0
5.640822 -6.942551 44.276471 124 124 124 0
5.733481 -6.923449 44.154648 121 121 121 0
5.837984 -6.919092 44.126864 120 120 120 0
5.936355 -6.907759 44.054584 121 121 121 0
6.038516 -6.901161 44.012504 123 123 123 0
6.152065 -6.907582 44.053454 123 123 123 0
6.249045 -6.895498 43.976390 125 125 125 0
6.373807 -6.913960 44.094131 129 129 129 0
6.489584 -6.922223 44.146831 134 134 134 0
6.596166 -6.920567 44.136272 137 137 137 0
6.707871 -6.924254 44.159780 138 138 138 0
6.830288 -6.938705 44.251946 141 141 141 0
6.937165 -6.937165 44.242121 151 151 151 0
7.042372 -6.934028 44.222116 150 150 150 0
7.150264 -6.933589 44.219320 148 148 148 0
7.247151 -6.922651 44.149562 151 151 151 0
7.339948 -6.908186 44.057310 148 148 148 0
7.456189 -6.915886 44.106413 142 142 142 0
7.555057 -6.907481 44.052813 137 137 137 0
7.661275 -6.905938 44.042971 135 135 135 0
7.136896 -6.343908 40.458597 125 125 125 0
7.394245 -6.482626 41.343277 118 118 118 0
7.175464 -6.205807 39.577851 124 124 124 0
7.599231 -6.484677 41.356360 119 119 119 0
8.035066 -6.766371 43.152877 121 121 121 0
8.142813 -6.768053 43.163601 123 123 123 0
8.419947 -6.908675 44.060425 123 123 123 0
8.532104 -6.912084 44.082170 121 121 121 0
-8.732919 -6.877174 44.555709 115 115 115 0
-8.599336 -6.857698 44.429532 122 122 122 0
-8.463126 -6.835602 44.286375 121 121 121 0
-8.328429 -6.814169 44.147515 122 122 122 0
-8.188602 -6.787920 43.977452 123 123 123 0
-8.056421 -6.767393 43.844467 124 124 124 0
-7.927308 -6.748924 43.724807 123 123 123 0
-7.781024 -6.715131 43.505867 124 124 124 0
-7.647999 -6.691999 43.356003 124 124 124 0
-7.518506 -6.671350 43.222223 125 125 125 0
-7.394684 -6.655215 43.117689 126 126 126 0
-7.276786 -6.644022 43.045169 127 127 127 0
-7.165032 -6.638191 43.007393 127 127 127 0
-7.049380 -6.628521 42.944745 127 127 127 0
-6.939657 -6.624218 42.916866 128 128 128 0
-6.837319 -6.626940 42.934498 128 128 128 0
-6.728761 -6.623624 42.913014 125 125 125 0
-6.623634 -6.623634 42.913082 125 125 125 0
-6.526633 -6.631901 42.966640 122 122 122 0
-6.424011 -6.634634 42.984350 120 120 120 0
-6.319239 -6.635201 42.988019 122 122 122 0
-6.223369 -6.645292 43.053399 119 119 119 0
-6.120442 -6.648066 43.071372 120 120 120 0
-6.019051 -6.652635 43.100973 119 119 119 0
-5.919541 -6.659483 43.145341 121 121 121 0
-5.814614 -6.660376 43.151121 121 121 121 0
-5.710295 -6.662011 43.161717 122 122 122 0
-5.608292 -6.666461 43.190546 121 121 121 0
-5.509822 -6.675361 43.248211 122 122 122 0
-5.399458 -6.669918 43.212945 123 123 123 0
-5.298248 -6.675793 43.251007 125 125 125 0
-5.198186 -6.683383 43.300178 124 124 124 0
-5.093255 -6.684898 43.309994 124 124 124 0
-4.988968 -6.687340 43.325816 124 124 124 0
-4.893701 -6.702243 43.422371 122 122 122 0
-4.794094 -6.711732 43.483848 118 118 118 0
-4.292180 -6.145622 39.816145 116 116 116 0
-4.210623 -6.169052 39.967942 111 111 111 0
-4.124752 -6.187128 40.085052 111 111 111 0
-4.421159 -6.793489 44.013532 109 109 109 0
-3.952886 -6.225796 40.335574 101 101 101 0
-4.202283 -6.788303 43.979936 100 100 100 0
-4.029422 -6.680357 43.280575 102 102 102 0
-3.981433 -6.779197 43.920942 102 102 102 0
-3.927997 -6.873995 44.535115 117 117 117 0
-3.845922 -6.922659 44.850398 129 129 129 0
-3.741911 -6.933541 44.920899 137 137 137 0
-3.581682 -6.837756 44.300330 129 129 129 0
-3.433437 -6.759579 43.793840 129 129 129 0
-3.302843 -6.712230 43.487074 132 132 132 0
-3.193199 -6.705717 43.444880 135 135 135 0
-3.081916 -6.695196 43.376718 136 136 136 0
-2.971297 -6.685418 43.313366 130 130 130 0
-2.867231 -6.690205 43.344378 127 127 127 0
-2.759834 -6.687290 43.325492 123 123 123 0
-2.653204 -6.686073 43.317611 120 120 120 0
-2.549696 -6.692953 43.362180 122 122 122 0
-2.444359 -6.695417 43.378146 124 124 124 0
-2.336303 -6.690321 43.345132 122 122 122 0
-2.224695 -6.674085 43.239939 122 122 122 0
-2.112150 -6.653273 43.105107 124 124 124 0
-1.985372 -6.583077 42.650319 123 123 123 0
-1.866870 -6.534043 42.332642 124 124 124 0
-1.758513 -6.516843 42.221204 125 125 125 0
-1.654027 -6.512730 42.194557 125 125 125 0
-1.549215 -6.506704 42.155519 123 123 123 0
-1.448155 -6.516699 42.220275 118 118 118 0
-1.346779 -6.526697 42.285045 113 113 113 0
-1.244039 -6.531204 42.314249 111 111 111 0
-1.142274 -6.542113 42.384927 110 110 110 0
-1.039849 -6.551047 42.442805 111 111 111 0
-0.938117 -6.566822 42.545008 112 112 112 0
-0.834747 -6.573631 42.589125 111 111 111 0
-0.733042 -6.597379 42.742981 109 109 109 0
-0.628153 -6.595608 42.731507 113 113 113 0
-0.524728 -6.611573 42.834943 113 113 113 0
-0.421319 -6.635768 42.991696 113 113 113 0
-0.316380 -6.643988 43.044950 116 116 116 0
-0.211202 -6.652852 43.102379 117 117 117 0
-0.105740 -6.661633 43.159271 119 119 119 0
0.000000 -6.676564 43.255999 117 117 117 0
0.105945 -6.674513 43.242716 114 114 114 0
0.211548 -6.663756 43.173021 112 112 112 0
0.317573 -6.669034 43.207216 110 110 110 0
0.426409 -6.715940 43.511113 110 110 110 0
0.538070 -6.779683 43.924091 128 128 128 0
0.645950 -6.782472 43.942157 131 131 131 0
0.747234 -6.725110 43.570519 127 127 127 0
0.847275 -6.672290 43.228315 127 127 127 0
0.950870 -6.656090 43.123358 124 124 124 0
1.055434 -6.649236 43.078952 119 119 119 0
1.161137 -6.650151 43.084877 120 120 120 0
1.265906 -6.646007 43.058030 130 130 130 0
1.367876 -6.628937 42.947439 127 127 127 0
1.470029 -6.615131 42.857991 130 130 130 0
1.567844 -6.584946 42.662432 131 131 131 0
1.670276 -6.576713 42.609092 131 131 131 0
1.767177 -6.548950 42.429218 132 132 132 0
1.865967 -6.530884 42.312175 131 131 131 0
1.964423 -6.513614 42.200285 132 132 132 0
2.061402 -6.493417 42.069432 132 132 132 0
2.158496 -6.475489 41.953282 130 130 130 0
2.256029 -6.460446 41.855819 132 132 132 0
2.353984 -6.447870 41.774345 133 133 133 0
2.458794 -6.454334 41.816225 131 131 131 0
2.560001 -6.451202 41.795931 124 124 124 0
2.665147 -6.457857 41.839045 114 114 114 0
2.772511 -6.469193 41.912489 102 102 102 0
2.882297 -6.485167 42.015985 100 100 100 0
2.998700 -6.514416 42.205483 104 104 104 0
3.107900 -6.526589 42.284349 101 101 101 0
3.215942 -6.535624 42.342880 103 103 103 0
3.321398 -6.539001 42.364765 108 108 108 0
3.437132 -6.561797 42.512455 111 111 111 0
3.542014 -6.563143 42.521173 117 117 117 0
3.643256 -6.557861 42.486951 116 116 116 0
3.761938 -6.583392 42.652363 118 118 118 0
3.863162 -6.577816 42.616237 114 114 114 0
3.971787 -6.584804 42.661509 114 114 114 0
4.087724 -6.603246 42.780994 109 109 109 0
3.627702 -5.713630 37.017363 104 104 104 0
3.727409 -5.727482 37.107107 103 103 103 0
4.440135 -6.660202 43.149996 104 104 104 0
4.566803 -6.690897 43.348862 104 104 104 0
4.026009 -5.764514 37.347027 106 106 106 0
4.096482 -5.735075 37.156304 99 99 99 0
4.137446 -5.666503 36.712034 99 99 99 0
5.058708 -6.780822 43.931465 112 112 112 0
5.212689 -6.841654 44.325588 132 132 132 0
5.322543 -6.843270 44.336054 129 129 129 0
5.419361 -6.828394 44.239678 126 126 126 0
5.522631 -6.822073 44.198725 126 126 126 0
5.617622 -6.805965 44.094362 126 126 126 0
