ply
format ascii 1.0
element vertex 1128
property float x
property float y
property float z
property uchar red
property uchar green
property uchar blue
property uchar alpha
end_header
-4.546140 2.500377 46.389180 103 103 103 0
-4.439628 2.504406 46.463927 104 104 104 0
-4.326020 2.504538 46.466377 104 104 104 0
-4.216476 2.507094 46.513800 105 105 105 0
-4.107725 2.510276 46.572841 108 108 108 0
-3.990017 2.508010 46.530806 110 110 110 0
-3.876769 2.508498 46.539848 113 113 113 0
-3.763111 2.508741 46.544354 114 114 114 0
-3.644307 2.505461 46.483506 114 114 114 0
-3.530488 2.505508 46.484376 115 115 115 0
-3.422035 2.509493 46.558304 118 118 118 0
-3.304187 2.506625 46.505101 118 118 118 0
-3.187071 2.504127 46.458762 119 119 119 0
-3.074077 2.504803 46.471301 119 119 119 0
-2.955444 2.500760 46.396288 121 121 121 0
-2.836668 2.496268 46.312947 122 122 122 0
-2.723618 2.496650 46.320034 120 120 120 0
-2.622251 2.508241 46.535075 119 119 119 0
-2.273529 2.273529 42.180501 120 120 120 0
-2.160725 2.263616 41.996590 119 119 119 0
-2.053283 2.258611 41.903736 126 126 126 0
-1.945832 2.253068 41.800892 131 131 131 0
-1.838936 2.247588 41.699224 137 137 137 0
-1.733961 2.243949 41.631707 141 141 141 0
-1.632414 2.244569 41.643204 144 144 144 0
-1.526384 2.238697 41.534265 143 143 143 0
-1.422239 2.234948 41.464706 142 142 142 0
-1.321152 2.235795 41.480431 139 139 139 0
-1.215871 2.229097 41.356165 139 139 139 0
-1.111909 2.223819 41.258232 142 142 142 0
-1.011627 2.225579 41.290895 138 138 138 0
-0.909465 2.223137 41.245580 139 139 139 0
-0.806715 2.218466 41.158926 141 141 141 0
-0.705883 2.218489 41.159344 142 142 142 0
-0.604311 2.215807 41.109590 141 141 141 0
-0.503524 2.215505 41.103988 138 138 138 0
-0.403220 2.217710 41.144895 128 128 128 0
-0.302659 2.219503 41.178163 123 123 123 0
-0.201936 2.221291 41.211340 119 119 119 0
-0.101195 2.226284 41.303979 119 119 119 0
0.000000 2.230660 41.385151 119 119 119 0
0.101603 2.235277 41.470810 118 118 118 0
0.181211 1.993318 36.981788 118 118 118 0
0.306205 2.245504 41.660551 113 113 113 0
0.363171 1.997441 37.058281 122 122 122 0
0.455077 2.002341 37.149176 127 127 127 0
0.614666 2.253774 41.813991 127 127 127 0
0.718595 2.258440 41.900563 130 130 130 0
0.728182 2.002501 37.152154 126 126 126 0
0.923811 2.258204 41.896185 123 123 123 0
0.906323 1.993910 36.992773 116 116 116 0
1.133925 2.267850 42.075143 130 130 130 0
1.243814 2.280325 42.306588 149 149 149 0
1.349539 2.283835 42.371707 148 148 148 0
1.452340 2.282249 42.342283 145 145 145 0
1.550720 2.274390 42.196475 143 143 143 0
1.649001 2.267377 42.066365 144 144 144 0
1.747751 2.261795 41.962804 148 148 148 0
1.849573 2.260589 41.940429 148 148 148 0
1.952545 2.260842 41.945113 150 150 150 0
2.054914 2.260405 41.937019 147 147 147 0
2.156913 2.259623 41.922499 145 145 145 0
2.258410 2.258410 41.900005 147 147 147 0
2.358205 2.255675 41.849250 148 148 148 0
2.461073 2.255984 41.854985 149 149 149 0
2.560999 2.253679 41.812236 148 148 148 0
2.658880 2.249822 41.740663 146 146 146 0
2.763629 2.251846 41.778220 145 145 145 0
2.861548 2.248359 41.713521 142 142 142 0
2.955365 2.242001 41.595570 143 143 143 0
3.055336 2.240579 41.569191 145 145 145 0
3.153555 2.238006 41.521456 145 145 145 0
3.244939 2.230896 41.389531 146 146 146 0
3.345008 2.230006 41.373016 149 149 149 0
3.452198 2.233775 41.442951 137 137 137 0
3.549365 2.231029 41.392011 123 123 123 0
3.653601 2.232756 41.424049 113 113 113 0
3.767590 2.240188 41.561938 112 112 112 0
3.873808 2.242731 41.609107 111 111 111 0
3.976631 2.243228 41.618329 111 111 111 0
4.095082 2.252295 41.786548 113 113 113 0
4.202388 2.254940 41.835621 117 117 117 0
4.312901 2.259139 41.913518 121 121 121 0
4.421958 2.262397 41.973972 116 116 116 0
4.535484 2.267742 42.073140 109 109 109 0
4.643483 2.270147 42.117756 97 97 97 0
6.011776 2.495454 46.297855 79 79 79 0
6.120688 2.493613 46.263701 102 102 102 0
6.159553 2.463821 45.710971 104 104 104 0
6.217388 2.442545 45.316237 107 107 107 0
6.273773 2.421456 44.924977 111 111 111 0
6.330336 2.401162 44.548455 109 109 109 0
6.410224 2.390253 44.346066 112 112 112 0
6.456460 2.367369 43.921495 110 110 110 0
6.530336 2.355203 43.695792 114 114 114 0
6.615564 2.347458 43.552103 121 121 121 0
6.700054 2.339701 43.408186 130 130 130 0
6.800286 2.337598 43.369171 137 137 137 0
6.904075 2.336764 43.353692 142 142 142 0
7.002529 2.334176 43.305686 145 145 145 0
7.109344 2.334412 43.310047 146 146 146 0
7.213704 2.333845 43.299543 146 146 146 0
7.313661 2.331892 43.263299 144 144 144 0
7.415090 2.330457 43.236674 141 141 141 0
7.525298 2.331783 43.261272 137 137 137 0
7.624441 2.329690 43.222455 137 137 137 0
7.720741 2.326799 43.168807 138 138 138 0
7.830587 2.328012 43.191325 135 135 135 0
7.933325 2.327109 43.174560 136 136 136 0
8.030158 2.324519 43.126518 136 136 136 0
8.286240 2.367497 43.923879 134 134 134 0
8.050496 2.270653 42.127136 126 126 126 0
8.376671 2.332744 43.279105 115 115 115 0
-8.787668 2.526455 44.835043 114 114 114 0
-8.946979 2.604817 46.225671 117 117 117 0
-9.633424 2.840625 50.410384 118 118 118 0
-9.208843 2.750693 48.814434 121 121 121 0
-8.444986 2.555719 45.354383 123 123 123 0
-9.737689 2.986225 52.994227 123 123 123 0
-9.963937 3.096899 54.958287 118 118 118 0
-9.828885 3.096772 54.956027 120 120 120 0
-9.694033 3.096705 54.954838 120 120 120 0
-9.558928 3.096554 54.952160 120 120 120 0
-9.424276 3.096548 54.952047 119 119 119 0
-9.289378 3.096459 54.950474 122 122 122 0
-9.154425 3.096350 54.948530 129 129 129 0
-9.019801 3.096350 54.948530 131 131 131 0
-8.885000 3.096288 54.947434 128 128 128 0
-8.750232 3.096236 54.946509 131 131 131 0
-8.615366 3.096147 54.944937 127 127 127 0
-7.825523 2.856937 50.699860 117 117 117 0
-7.208181 2.674002 47.453460 107 107 107 0
-7.069575 2.665578 47.303949 107 107 107 0
-6.924502 2.654392 47.105454 107 107 107 0
-6.787871 2.646119 46.958638 108 108 108 0
-6.662156 2.641890 46.883578 109 109 109 0
-6.539380 2.638697 46.826926 111 111 111 0
-6.407871 2.631804 46.704598 116 116 116 0
-6.295899 2.632831 46.722815 118 118 118 0
-6.181176 2.632723 46.720905 120 120 120 0
-6.057712 2.628818 46.651614 121 121 121 0
-5.941887 2.628142 46.639615 123 123 123 0
-5.825926 2.627379 46.626061 123 123 123 0
-5.701679 2.622772 46.544317 121 121 121 0
-5.587115 2.622524 46.539904 120 120 120 0
-5.469631 2.620865 46.510471 118 118 118 0
-5.340987 2.613674 46.382862 118 118 118 0
-5.231281 2.615641 46.417758 115 115 115 0
-5.118606 2.616176 46.427263 112 112 112 0
-5.003005 2.615207 46.410064 104 104 104 0
-4.897840 2.619775 46.491125 100 100 100 0
-4.791181 2.623742 46.561529 101 101 101 0
-4.675977 2.623109 46.550291 99 99 99 0
-4.568343 2.626797 46.615740 99 99 99 0
-4.461165 2.630944 46.689327 102 102 102 0
-4.346268 2.630636 46.683863 104 104 104 0
-4.234387 2.632186 46.711381 105 105 105 0
-4.125828 2.635946 46.778099 105 105 105 0
-4.007506 2.633504 46.734763 110 110 110 0
-3.891432 2.632440 46.715875 110 110 110 0
-3.775734 2.631572 46.700478 109 109 109 0
-3.659692 2.630404 46.679750 108 108 108 0
-3.542329 2.628180 46.640277 107 107 107 0
-3.429324 2.629148 46.657467 111 111 111 0
-3.314599 2.628820 46.651636 113 113 113 0
-3.196352 2.625575 46.594059 117 117 117 0
-3.085175 2.628112 46.639079 119 119 119 0
-2.963940 2.621947 46.529672 118 118 118 0
-2.845741 2.618082 46.461077 119 119 119 0
-2.731534 2.617721 46.454668 120 120 120 0
-2.617913 2.617913 46.458089 118 118 118 0
-2.285579 2.389469 42.404068 115 115 115 0
-2.171023 2.377787 42.196754 117 117 117 0
-2.060599 2.369688 42.053033 120 120 120 0
-1.950797 2.361491 41.907559 123 123 123 0
-1.842925 2.354848 41.789680 128 128 128 0
-1.735502 2.348033 41.668726 135 135 135 0
-1.632283 2.346407 41.639881 141 141 141 0
-1.525875 2.339674 41.520397 139 139 139 0
-1.420963 2.334439 41.427488 139 139 139 0
-1.318720 2.333120 41.404079 141 141 141 0
-1.213805 2.326459 41.285874 142 142 142 0
-1.111083 2.323174 41.227583 141 141 141 0
-1.009068 2.320856 41.186437 143 143 143 0
-0.907368 2.318830 41.150494 144 144 144 0
-0.805690 2.316358 41.106612 143 143 143 0
-0.705079 2.316689 41.112494 145 145 145 0
-0.604047 2.315513 41.091632 143 143 143 0
-0.503281 2.315090 41.084125 139 139 139 0
-0.402998 2.317236 41.122195 130 130 130 0
-0.302538 2.319458 41.161637 123 123 123 0
-0.201902 2.321872 41.204467 120 120 120 0
-0.101112 2.325571 41.270113 120 120 120 0
0.000000 2.332960 41.401238 120 120 120 0
0.101598 2.336758 41.468649 119 119 119 0
0.203121 2.335890 41.453237 118 118 118 0
0.271784 2.083675 36.977377 118 118 118 0
0.408798 2.350588 41.714079 120 120 120 0
0.454229 2.089452 37.079897 126 126 126 0
0.614210 2.354470 41.782966 125 125 125 0
0.717820 2.358553 41.855421 126 126 126 0
0.821556 2.361975 41.916145 125 125 125 0
0.818844 2.092603 37.135803 120 120 120 0
1.022209 2.351081 41.722814 115 115 115 0
1.133967 2.371023 42.076713 126 126 126 0
1.244663 2.385604 42.335476 143 143 143 0
1.350392 2.389154 42.398479 143 143 143 0
1.452806 2.386752 42.355853 144 144 144 0
1.551731 2.379321 42.223973 138 138 138 0
1.647896 2.368850 42.038160 149 149 149 0
1.749551 2.367040 42.006026 145 145 145 0
1.849554 2.363319 41.939993 147 147 147 0
1.949782 2.360262 41.885757 149 149 149 0
2.054215 2.362347 41.922745 151 151 151 0
2.156125 2.361470 41.907188 148 148 148 0
2.255106 2.357611 41.838702 149 149 149 0
2.357004 2.357004 41.827933 148 148 148 0
2.461133 2.358586 41.856007 149 149 149 0
2.561478 2.356560 41.820053 150 150 150 0
2.659609 2.352731 41.752105 146 146 146 0
2.762807 2.353502 41.765782 145 145 145 0
2.860596 2.349775 41.699649 144 144 144 0
2.952573 2.341696 41.556272 142 142 142 0
3.055129 2.342265 41.566376 143 143 143 0
3.152838 2.339202 41.512023 143 143 143 0
3.248179 2.334629 41.430858 146 146 146 0
3.346593 2.332474 41.392614 150 150 150 0
3.449761 2.333662 41.413702 139 139 139 0
3.550317 2.333066 41.403119 129 129 129 0
3.650633 2.332349 41.390394 119 119 119 0
3.762084 2.338593 41.501205 113 113 113 0
3.870905 2.342916 41.577928 109 109 109 0
3.425730 2.020302 35.852748 111 111 111 0
4.087162 2.350118 41.705735 112 112 112 0
4.201497 2.356937 41.826750 115 115 115 0
4.308322 2.359319 41.869014 114 114 114 0
4.423856 2.366249 41.991993 108 108 108 0
4.537058 2.371644 42.087739 99 99 99 0
3.991958 2.040334 36.208234 82 82 82 0
6.103348 2.648623 47.003065 77 77 77 0
6.166732 2.626571 46.611730 102 102 102 0
6.206874 2.595602 46.062142 103 103 103 0
6.234500 2.560598 45.440961 107 107 107 0
6.288535 2.537479 45.030687 110 110 110 0
6.343627 2.515576 44.641991 107 107 107 0
6.414620 2.500614 44.376477 110 110 110 0
6.482471 2.484947 44.098441 111 111 111 0
6.564819 2.475260 43.926523 112 112 112 0
6.628282 2.458879 43.635825 114 114 114 0
6.708951 2.449299 43.465829 122 122 122 0
6.808289 2.446729 43.420210 131 131 131 0
6.910889 2.445391 43.396477 139 139 139 0
7.004147 2.440839 43.315687 141 141 141 0
7.104182 2.438749 43.278600 145 145 145 0
7.218926 2.441695 43.330885 147 147 147 0
7.313187 2.437729 43.260496 147 147 147 0
7.412200 2.435437 43.219826 144 144 144 0
7.520747 2.436298 43.235110 141 141 141 0
7.620265 2.434251 43.198781 139 139 139 0
7.720370 2.432445 43.166730 137 137 137 0
7.822386 2.431282 43.146089 137 137 137 0
7.932582 2.432658 43.170513 136 136 136 0
8.027371 2.429336 43.111550 134 134 134 0
8.285422 2.474866 43.919546 129 129 129 0
8.564987 2.525573 44.819398 120 120 120 0
8.370325 2.436930 43.246317 114 114 114 0
-9.228205 2.768462 47.082679 121 121 121 0
-8.663558 2.631967 44.761342 118 118 118 0
-9.650470 2.969375 50.499581 117 117 117 0
-8.773286 2.734531 46.505622 120 120 120 0
-9.504841 3.001529 51.046406 120 120 120 0
-9.702604 3.104833 52.803289 120 120 120 0
-9.964047 3.231583 54.958893 120 120 120 0
-9.828938 3.231432 54.956320 122 122 122 0
-9.693926 3.231309 54.954227 123 123 123 0
-9.559008 3.231214 54.952619 122 122 122 0
-9.424339 3.231202 54.952416 122 122 122 0
-9.289372 3.231086 54.950438 127 127 127 0
-9.154481 3.230993 54.948863 128 128 128 0
-9.019724 3.230946 54.948059 128 128 128 0
-8.884862 3.230859 54.946583 129 129 129 0
-8.750223 3.230852 54.946455 130 130 130 0
-8.615591 3.230847 54.946372 131 131 131 0
-8.480620 3.230712 54.944086 133 133 133 0
-8.181639 3.167086 53.862008 123 123 123 0
-7.673969 3.019266 51.348068 113 113 113 0
-6.999637 2.799855 47.616575 109 109 109 0
-6.843931 2.783972 47.346459 105 105 105 0
-6.709431 2.776316 47.216267 107 107 107 0
-6.573309 2.767709 47.069880 105 105 105 0
-6.444167 2.761786 46.969150 106 106 106 0
-6.320818 2.758175 46.907742 108 108 108 0
-6.202370 2.756609 46.881103 109 109 109 0
-6.080698 2.753524 46.828635 110 110 110 0
-5.962779 2.752052 46.803599 110 110 110 0
-5.843057 2.749674 46.763162 112 112 112 0
-5.721193 2.746173 46.703618 111 111 111 0
-5.603617 2.744629 46.677358 111 111 111 0
-5.488105 2.744052 46.667556 110 110 110 0
-5.364498 2.739318 46.587045 109 109 109 0
-5.252782 2.740582 46.608533 103 103 103 0
-5.146523 2.744812 46.680476 101 101 101 0
-5.027852 2.742465 46.640561 97 97 97 0
-4.925264 2.748985 46.751437 97 97 97 0
-4.812830 2.750189 46.771914 99 99 99 0
-4.704274 2.753721 46.831994 100 100 100 0
-4.596627 2.757976 46.904354 100 100 100 0
-4.485181 2.760111 46.940665 100 100 100 0
-4.370402 2.760254 46.943095 100 100 100 0
-4.261650 2.764313 47.012133 101 101 101 0
-4.149638 2.766425 47.048048 101 101 101 0
-4.028209 2.762200 46.976193 102 102 102 0
-3.914024 2.762841 46.987085 100 100 100 0
-3.804092 2.766613 47.051235 101 101 101 0
-3.690102 2.767576 47.067626 105 105 105 0
-3.566765 2.761367 46.962017 105 105 105 0
-3.449380 2.759504 46.930340 109 109 109 0
-3.327432 2.753737 46.832265 109 109 109 0
-3.207905 2.749633 46.762469 116 116 116 0
-3.093986 2.750210 46.772273 119 119 119 0
-2.974088 2.745312 46.688982 119 119 119 0
-2.855611 2.741386 46.622215 119 119 119 0
-2.740917 2.740917 46.614243 119 119 119 0
-2.620531 2.734467 46.504537 116 116 116 0
-2.516543 2.745319 46.689104 115 115 115 0
-2.186350 2.498686 42.494657 116 116 116 0
-2.071847 2.486216 42.282586 116 116 116 0
-1.958455 2.473838 42.072070 119 119 119 0
-1.847763 2.463683 41.899378 120 120 120 0
-1.737911 2.453521 41.726552 126 126 126 0
-1.634092 2.451138 41.686015 133 133 133 0
-1.526249 2.441999 41.530596 136 136 136 0
-1.420829 2.435707 41.423587 137 137 137 0
-1.317955 2.433147 41.380054 140 140 140 0
-1.213283 2.426567 41.268143 142 142 142 0
-1.110117 2.422074 41.191733 142 142 142 0
-1.009195 2.422068 41.191628 146 146 146 0
-0.906955 2.418546 41.131731 147 147 147 0
-0.805334 2.416001 41.088450 149 149 149 0
-0.704691 2.416083 41.089843 150 150 150 0
-0.603995 2.415982 41.088125 144 144 144 0
-0.503281 2.415749 41.084166 137 137 137 0
-0.402558 2.415349 41.077363 131 131 131 0
-0.302626 2.421009 41.173629 122 122 122 0
-0.201754 2.421044 41.174214 120 120 120 0
-0.101082 2.425963 41.257869 121 121 121 0
0.000000 2.431003 41.343591 120 120 120 0
0.101541 2.436975 41.445152 120 120 120 0
0.203032 2.436383 41.435082 120 120 120 0
0.271422 2.171379 36.928207 123 123 123 0
0.408463 2.450779 41.679907 120 120 120 0
0.453776 2.178123 37.042901 123 123 123 0
0.613821 2.455285 41.756542 128 128 128 0
0.717703 2.460696 41.848576 127 127 127 0
0.727252 2.181755 37.104677 124 124 124 0
0.817829 2.180879 37.089773 116 116 116 0
1.021211 2.450907 41.682094 108 108 108 0
1.132087 2.470008 42.006940 120 120 120 0
1.244524 2.489047 42.330735 138 138 138 0
1.351037 2.494222 42.418739 140 140 140 0
1.454591 2.493584 42.407894 135 135 135 0
1.552598 2.484157 42.247574 133 133 133 0
1.653063 2.479595 42.169980 138 138 138 0
1.749194 2.469451 41.997464 141 141 141 0
1.848282 2.464376 41.911153 143 143 143 0
1.950593 2.463907 41.903183 148 148 148 0
2.053632 2.464359 41.910864 151 151 151 0
2.155267 2.463162 41.890508 149 149 149 0
2.256257 2.461371 41.860054 151 151 151 0
2.356224 2.458668 41.814082 151 151 151 0
2.459589 2.459589 41.829741 150 150 150 0
2.560035 2.457634 41.796497 147 147 147 0
2.658880 2.454351 41.740663 146 146 146 0
2.760801 2.454045 41.735459 146 146 146 0
2.858368 2.450030 41.667169 144 144 144 0
2.951688 2.442776 41.543816 142 142 142 0
3.055129 2.444103 41.566376 142 142 142 0
3.152281 2.440475 41.504683 143 143 143 0
3.244772 2.433579 41.387404 145 145 145 0
3.345122 2.432816 41.374418 146 146 146 0
3.451946 2.436668 41.439927 137 137 137 0
3.549935 2.434241 41.398661 131 131 131 0
3.651230 2.434153 41.397168 124 124 124 0
3.760662 2.439348 41.485514 116 116 116 0
3.868891 2.443510 41.556292 112 112 112 0
3.980030 2.449249 41.653895 109 109 109 0
4.085194 2.451116 41.685651 111 111 111 0
4.198461 2.457636 41.796530 112 112 112 0
4.309534 2.462591 41.880797 108 108 108 0
4.421112 2.467597 41.965943 97 97 97 0
3.900758 2.127686 36.185137 82 82 82 0
6.199016 2.807102 47.739826 90 90 90 0
6.242857 2.774603 47.187126 107 107 107 0
6.249113 2.726886 46.375605 104 104 104 0
6.280465 2.691628 45.775982 108 108 108 0
6.324102 2.662780 45.285369 106 106 106 0
6.386483 2.642683 44.943582 110 110 110 0
6.446882 2.622460 44.599666 111 111 111 0
6.509195 2.603678 44.280237 109 109 109 0
6.576331 2.587409 44.003551 109 109 109 0
6.654256 2.575841 43.806820 110 110 110 0
6.736351 2.566229 43.643347 113 113 113 0
6.821074 2.557903 43.501749 121 121 121 0
6.918101 2.554376 43.441767 131 131 131 0
7.010500 2.549273 43.354976 139 139 139 0
7.106439 2.545590 43.292347 144 144 144 0
7.223167 2.549353 43.356342 145 145 145 0
7.305259 2.540960 43.213600 146 146 146 0
7.413322 2.541711 43.226370 145 145 145 0
7.518678 2.541525 43.223215 146 146 146 0
7.615259 2.538420 43.170403 142 142 142 0
7.713214 2.535851 43.126719 139 139 139 0
7.824998 2.537837 43.160494 138 138 138 0
7.927570 2.536823 43.143241 135 135 135 0
8.174991 2.581576 43.904358 131 131 131 0
8.285343 2.582445 43.919124 126 126 126 0
7.879892 2.424582 41.234392 120 120 120 0
8.500758 2.582509 43.920218 116 116 116 0
-9.918952 3.099673 50.606898 115 115 115 0
-9.341917 2.956303 48.266170 116 116 116 0
-9.222817 2.956031 48.261734 119 119 119 0
-9.037450 2.934237 47.905913 118 118 118 0
-9.263216 3.047111 49.748744 123 123 123 0
-9.719622 3.239874 52.895901 121 121 121 0
-9.964045 3.366231 54.958881 122 122 122 0
-9.828917 3.366067 54.956203 123 123 123 0
-9.693922 3.365945 54.954205 121 121 121 0
-9.559184 3.365910 54.953629 120 120 120 0
-9.424368 3.365846 54.952583 122 122 122 0
-9.289407 3.365727 54.950650 123 123 123 0
-9.154427 3.365598 54.948544 125 125 125 0
-9.019932 3.365646 54.949328 126 126 126 0
-8.884959 3.365515 54.947178 128 128 128 0
-8.750172 3.365451 54.946133 131 131 131 0
-8.615541 3.365446 54.946051 132 132 132 0
-8.480682 3.365350 54.944488 130 130 130 0
-8.346056 3.365345 54.944412 134 134 134 0
-8.211409 3.365332 54.944191 132 132 132 0
-8.076560 3.365233 54.942587 128 128 128 0
-7.787594 3.299828 53.874744 120 120 120 0
-7.265775 3.131800 51.131422 113 113 113 0
-7.181330 3.149706 51.423777 108 108 108 0
-6.497104 2.900493 47.354987 104 104 104 0
-6.373191 2.896905 47.296406 104 104 104 0
-6.241799 2.889722 47.179133 103 103 103 0
-6.114086 2.884003 47.085759 103 103 103 0
-5.995117 2.882268 47.057432 105 105 105 0
-5.875342 2.880069 47.021542 106 106 106 0
-5.751649 2.875824 46.952235 105 105 105 0
-5.631860 2.873398 46.912623 106 106 106 0
-5.511964 2.870814 46.870439 107 107 107 0
-5.389941 2.866990 46.807994 103 103 103 0
-5.281212 2.870224 46.860802 101 101 101 0
-5.169446 2.871914 46.888400 97 97 97 0
-5.060836 2.875475 46.946528 97 97 97 0
-4.953948 2.880202 47.023707 98 98 98 0
-4.843743 2.883180 47.072329 98 98 98 0
-4.729849 2.884054 47.086601 100 100 100 0
-4.625723 2.891077 47.201257 100 100 100 0
-4.510340 2.891244 47.203981 100 100 100 0
-4.393531 2.890481 47.191523 102 102 102 0
-4.283063 2.893961 47.248348 102 102 102 0
-4.168999 2.895138 47.267562 100 100 100 0
-4.048743 2.891959 47.215661 101 101 101 0
-3.942690 2.899037 47.331217 104 104 104 0
-3.824862 2.897623 47.308124 105 105 105 0
-3.709477 2.898029 47.314757 106 106 106 0
-3.592966 2.897553 47.306994 108 108 108 0
-3.469615 2.891346 47.205650 110 110 110 0
-3.346692 2.885079 47.103330 109 109 109 0
-3.222063 2.876842 46.968854 113 113 113 0
-3.103750 2.873843 46.919883 114 114 114 0
-2.983385 2.868640 46.834936 114 114 114 0
-2.862380 2.862380 46.732729 117 117 117 0
-2.748716 2.863246 46.746872 118 118 118 0
-2.631012 2.859796 46.690544 120 120 120 0
-2.513634 2.856402 46.635139 118 118 118 0
-2.187635 2.604327 42.519626 113 113 113 0
-2.086219 2.607773 42.575890 113 113 113 0
-1.968807 2.590535 42.294454 114 114 114 0
-1.855454 2.577019 42.073777 117 117 117 0
-1.743489 2.563954 41.860475 122 122 122 0
-1.635790 2.555922 41.729344 125 125 125 0
-1.527629 2.546048 41.568124 132 132 132 0
-1.421506 2.538404 41.443337 134 134 134 0
-1.318019 2.534653 41.382084 137 137 137 0
-1.213717 2.528577 41.282897 140 140 140 0
-1.110429 2.523703 41.203311 142 142 142 0
-1.009266 2.523165 41.194524 144 144 144 0
-0.906708 2.518635 41.120566 147 147 147 0
-0.805452 2.517037 41.094480 146 146 146 0
-0.704785 2.517089 41.095334 147 147 147 0
-0.603773 2.515722 41.073005 141 141 141 0
-0.503179 2.515893 41.075801 135 135 135 0
-0.402921 2.518257 41.114406 130 130 130 0
-0.302641 2.522011 41.175686 124 124 124 0
-0.201722 2.521531 41.167851 120 120 120 0
-0.101116 2.527891 41.271689 122 122 122 0
0.000000 2.533736 41.367120 124 124 124 0
0.101419 2.535477 41.395542 124 124 124 0
0.202885 2.536064 41.405133 122 122 122 0
0.305364 2.544698 41.546096 121 121 121 0
0.407682 2.548013 41.600205 120 120 120 0
0.510184 2.550920 41.647673 120 120 120 0
0.613214 2.555060 41.715272 121 121 121 0
0.635691 2.270325 37.066534 124 124 124 0
0.820617 2.564430 41.868238 119 119 119 0
0.817821 2.271726 37.089399 113 113 113 0
0.906952 2.267380 37.018445 107 107 107 0
1.132328 2.573472 42.015872 112 112 112 0
1.242587 2.588722 42.264853 129 129 129 0
1.352512 2.600985 42.465066 133 133 133 0
1.457454 2.602597 42.491382 125 125 125 0
1.560704 2.601173 42.468135 121 121 121 0
1.656598 2.588434 42.260142 124 124 124 0
1.750814 2.574727 42.036355 128 128 128 0
1.850051 2.569515 41.951265 137 137 137 0
1.951500 2.567764 41.922672 142 142 142 0
2.053163 2.566454 41.901285 146 146 146 0
2.153954 2.564231 41.865001 150 150 150 0
2.255168 2.562691 41.839856 150 150 150 0
2.354943 2.559721 41.791363 151 151 151 0
2.459325 2.561797 41.825258 152 152 152 0
2.560372 2.560372 41.802000 149 149 149 0
2.657438 2.555229 41.718016 147 147 147 0
2.762816 2.558163 41.765919 146 146 146 0
2.858913 2.552601 41.675113 145 145 145 0
2.953859 2.546430 41.574371 143 143 143 0
3.055531 2.546276 41.571854 143 143 143 0
3.153133 2.542849 41.515904 145 145 145 0
3.249006 2.538286 41.441400 144 144 144 0
3.346864 2.535503 41.395972 142 142 142 0
3.451372 2.537774 41.433042 135 135 135 0
3.551170 2.536550 41.413066 131 131 131 0
3.651120 2.535500 41.395916 125 125 125 0
3.762342 2.542123 41.504048 116 116 116 0
3.868688 2.545189 41.554113 110 110 110 0
3.972866 2.546709 41.578924 106 106 106 0
4.088090 2.555056 41.715204 104 104 104 0
4.203090 2.562860 41.842610 102 102 102 0
4.312892 2.567198 41.913434 93 93 93 0
3.804465 2.211898 36.112626 81 81 81 0
5.892609 2.888534 47.159736 77 77 77 0
6.067135 2.916892 47.622726 100 100 100 0
6.210149 2.929316 47.825560 109 109 109 0
6.338157 2.934332 47.907458 106 106 106 0
6.346070 2.884577 47.095140 107 107 107 0
6.347387 2.833655 46.263750 107 107 107 0
6.377308 2.797065 45.666368 105 105 105 0
6.427837 2.770619 45.234600 108 108 108 0
6.490197 2.750083 44.899320 108 108 108 0
6.539117 2.724632 44.483786 108 108 108 0
6.612459 2.710024 44.245296 107 107 107 0
6.679909 2.693512 43.975698 109 109 109 0
6.761201 2.683016 43.804347 110 110 110 0
6.838252 2.671192 43.611302 111 111 111 0
6.931897 2.666114 43.528398 120 120 120 0
7.013929 2.656791 43.376183 130 130 130 0
7.109239 2.652701 43.309409 136 136 136 0
7.216707 2.653201 43.317569 140 140 140 0
7.310826 2.648850 43.246531 143 143 143 0
7.409246 2.646159 43.202599 144 144 144 0
7.518540 2.647373 43.222422 146 146 146 0
7.615936 2.644422 43.174239 143 143 143 0
7.716314 2.642573 43.144052 141 141 141 0
7.822631 2.642781 43.147440 136 136 136 0
7.923585 2.641195 43.121551 133 133 133 0
8.033815 2.642702 43.146159 129 129 129 0
8.285164 2.689988 43.918178 124 124 124 0
7.879855 2.525594 41.234195 119 119 119 0
8.373371 2.649801 43.262057 115 115 115 0
-9.739674 3.165394 49.692212 107 107 107 0
-9.112178 2.998945 47.079194 113 113 113 0
-8.884705 2.961568 46.492440 119 119 119 0
-9.502424 3.208611 50.370652 118 118 118 0
-8.766529 2.999076 47.081250 119 119 119 0
-9.701230 3.363093 52.795810 121 121 121 0
-9.964110 3.500903 54.959237 121 121 121 0
-9.828982 3.500733 54.956564 123 123 123 0
-9.693999 3.500611 54.954644 121 121 121 0
-9.559044 3.500495 54.952828 124 124 124 0
-9.424285 3.500449 54.952096 124 124 124 0
-9.289435 3.500367 54.950811 126 126 126 0
-9.154524 3.500259 54.949125 125 125 125 0
-9.019906 3.500262 54.949170 130 130 130 0
-8.885011 3.500156 54.947499 126 126 126 0
-8.750287 3.500115 54.946860 131 131 131 0
-8.615583 3.500081 54.946321 130 130 130 0
-8.480783 3.500006 54.945142 134 134 134 0
-8.346145 3.499996 54.944997 133 133 133 0
-8.211496 3.499982 54.944769 133 133 133 0
-8.076702 3.499904 54.943550 134 134 134 0
-7.942041 3.499883 54.943213 137 137 137 0
-7.807509 3.499918 54.943764 138 138 138 0
-7.672674 3.499816 54.942171 136 136 136 0
-7.381363 3.427061 53.800023 129 129 129 0
-7.234527 3.419958 53.688511 121 121 121 0
-6.834879 3.290868 51.661971 111 111 111 0
-6.683359 3.278629 51.469840 107 107 107 0
-6.041469 3.020735 47.421268 103 103 103 0
-5.920459 3.018273 47.382626 101 101 101 0
-5.791756 3.011713 47.279644 103 103 103 0
-5.673469 3.010412 47.259221 104 104 104 0
-5.548142 3.005244 47.178082 105 105 105 0
-5.427078 3.002213 47.130507 102 102 102 0
-5.309386 3.000957 47.110792 99 99 99 0
-5.200820 3.004918 47.172968 98 98 98 0
-5.089220 3.007266 47.209829 97 97 97 0
-4.983262 3.013135 47.301966 98 98 98 0
-4.869988 3.014755 47.327387 99 99 99 0
-4.755914 3.015945 47.346079 99 99 99 0
-4.646362 3.020135 47.411859 100 100 100 0
-4.533281 3.022187 47.444071 100 100 100 0
-4.414683 3.020573 47.418721 100 100 100 0
-4.305810 3.025704 47.499280 99 99 99 0
-4.192055 3.027595 47.528968 101 101 101 0
-4.074839 3.027023 47.519986 101 101 101 0
-3.960372 3.028520 47.543483 102 102 102 0
-3.848638 3.032260 47.602202 106 106 106 0
-3.727028 3.028210 47.538624 108 108 108 0
-3.610881 3.028481 47.542867 110 110 110 0
-3.491156 3.025668 47.498715 110 110 110 0
-3.364107 3.016096 47.348445 114 114 114 0
-3.240002 3.008574 47.230355 114 114 114 0
-3.116141 3.000728 47.107197 112 112 112 0
-2.995870 2.995870 47.030922 111 111 111 0
-2.875217 2.990226 46.942318 113 113 113 0
-2.758312 2.988172 46.910074 114 114 114 0
-2.638178 2.982288 46.817709 117 117 117 0
-2.520559 2.978842 46.763609 119 119 119 0
-2.412032 2.986325 46.881081 118 118 118 0
-2.094084 2.722309 42.736412 114 114 114 0
-1.984622 2.715798 42.634197 113 113 113 0
-1.865928 2.695229 42.311284 114 114 114 0
-1.752880 2.680875 42.085948 118 118 118 0
-1.641311 2.667131 41.870190 122 122 122 0
-1.529515 2.651159 41.619450 124 124 124 0
-1.423979 2.644532 41.515421 129 129 129 0
-1.319340 2.638681 41.423558 132 132 132 0
-1.214898 2.632279 41.323067 135 135 135 0
-1.110718 2.625334 41.214033 138 138 138 0
-1.010085 2.626222 41.227967 140 140 140 0
-0.907294 2.621070 41.147100 141 141 141 0
-0.805377 2.617477 41.090684 139 139 139 0
-0.705201 2.619316 41.119564 138 138 138 0
-0.603987 2.617275 41.087525 135 135 135 0
-0.503639 2.618924 41.113408 133 133 133 0
-0.403105 2.620179 41.133114 128 128 128 0
-0.302659 2.623049 41.178163 124 124 124 0
-0.201853 2.624083 41.194390 123 123 123 0
-0.101164 2.630266 41.291462 122 122 122 0
0.000000 2.633848 41.347697 127 127 127 0
0.101459 2.637930 41.411778 125 125 125 0
0.202908 2.637800 41.409734 125 125 125 0
0.305078 2.644011 41.507241 124 124 124 0
0.407430 2.648296 41.574503 119 119 119 0
0.452497 2.352983 36.938505 120 120 120 0
0.613428 2.658188 41.729802 121 121 121 0
0.717202 2.663894 41.819377 119 119 119 0
0.725914 2.359221 37.036444 114 114 114 0
0.819220 2.366635 37.152830 106 106 106 0
1.023704 2.661631 41.783852 102 102 102 0
1.135158 2.683101 42.120893 105 105 105 0
1.243113 2.693411 42.282749 118 118 118 0
1.351688 2.703377 42.439198 122 122 122 0
1.457808 2.707357 42.501687 118 118 118 0
1.564625 2.712016 42.574821 113 113 113 0
1.667652 2.709934 42.542134 113 113 113 0
1.762469 2.695541 42.316180 117 117 117 0
1.852763 2.676214 42.012773 120 120 120 0
1.952942 2.672447 41.953647 129 129 129 0
2.053359 2.669367 41.905285 135 135 135 0
2.154794 2.667840 41.881322 142 142 142 0
2.254187 2.664040 41.821657 146 146 146 0
2.355004 2.662179 41.792445 148 148 148 0
2.458963 2.663877 41.819105 149 149 149 0
2.558844 2.661198 41.777053 149 149 149 0
2.654871 2.654871 41.677718 148 148 148 0
2.761047 2.658786 41.739187 145 145 145 0
2.858442 2.654268 41.668256 144 144 144 0
2.951460 2.646136 41.540604 143 143 143 0
3.053840 2.646661 41.548837 143 143 143 0
3.153394 2.644782 41.519345 144 144 144 0
3.248028 2.639023 41.428929 142 142 142 0
3.349345 2.638878 41.426651 137 137 137 0
3.455758 2.642638 41.485687 130 130 130 0
3.551805 2.638483 41.420462 126 126 126 0
3.652981 2.638264 41.417021 120 120 120 0
3.766334 2.646613 41.548086 110 110 110 0
3.876378 2.652258 41.636711 103 103 103 0
3.982279 2.654853 41.677440 98 98 98 0
4.100017 2.665011 41.836906 97 97 97 0
4.209819 2.669642 41.909602 93 93 93 0
5.829567 3.031375 47.588298 85 85 85 0
5.963788 3.040363 47.729397 113 113 113 0
6.083699 3.041850 47.752742 110 110 110 0
6.217225 3.049960 47.880056 106 106 106 0
6.358066 3.061291 48.057943 105 105 105 0
6.460829 3.054210 47.946781 107 107 107 0
6.428458 2.984641 46.854652 104 104 104 0
6.454932 2.944355 46.222212 103 103 103 0
6.497723 2.912772 45.726409 105 105 105 0
6.516980 2.871889 45.084607 107 107 107 0
6.579829 2.851259 44.760740 106 106 106 0
6.646540 2.832952 44.473337 104 104 104 0
6.718707 2.817522 44.231122 109 109 109 0
6.795675 2.804564 44.027695 108 108 108 0
6.873750 2.792461 43.837694 109 109 109 0
6.948042 2.779217 43.629776 114 114 114 0
7.029650 2.769256 43.473409 119 119 119 0
7.120465 2.763165 43.377792 128 128 128 0
7.223907 2.762082 43.360788 133 133 133 0
7.312049 2.755265 43.253766 136 136 136 0
7.409816 2.752217 43.205926 138 138 138 0
7.518012 2.753075 43.219388 139 139 139 0
7.616846 2.750528 43.179399 138 138 138 0
7.715287 2.747911 43.138314 136 136 136 0
7.821465 2.748082 43.141007 132 132 132 0
7.933204 2.750178 43.173902 129 129 129 0
8.175575 2.796907 43.907492 127 127 127 0
8.286261 2.797958 43.923993 122 122 122 0
8.565772 2.855257 44.823504 117 117 117 0
8.380692 2.758203 43.299884 112 112 112 0
-9.810900 3.311179 50.055612 108 108 108 0
-9.586775 3.276493 49.531259 113 113 113 0
-9.221521 3.192065 48.254950 115 115 115 0
-9.572830 3.356707 50.743866 117 117 117 0
-8.686389 3.085954 46.650856 118 118 118 0
-9.735141 3.504651 52.980359 123 123 123 0
-9.964115 3.635555 54.959266 124 124 124 0
-9.829016 3.635390 54.956758 125 125 125 0
-9.694027 3.635260 54.954800 124 124 124 0
-9.559072 3.635140 54.952989 122 122 122 0
-9.424503 3.635165 54.953368 123 123 123 0
-9.289427 3.634993 54.950763 127 127 127 0
-9.154720 3.634962 54.950300 127 127 127 0
-9.019898 3.634884 54.949120 126 126 126 0
-8.885025 3.634783 54.947588 128 128 128 0
-8.750341 3.634757 54.947193 132 132 132 0
-8.615712 3.634753 54.947141 132 132 132 0
-8.480822 3.634638 54.945395 133 133 133 0
-8.346136 3.634608 54.944938 132 132 132 0
-8.211401 3.634554 54.944132 134 134 134 0
-8.076625 3.634481 54.943026 136 136 136 0
-7.942182 3.634558 54.944187 136 136 136 0
-7.807507 3.634529 54.943754 136 136 136 0
-7.672739 3.634455 54.942634 140 140 140 0
-7.538141 3.634461 54.942721 144 144 144 0
-7.403456 3.634424 54.942158 145 145 145 0
-7.268919 3.634459 54.942697 142 142 142 0
-7.134382 3.634496 54.943256 137 137 137 0
-6.999937 3.634583 54.944560 127 127 127 0
-6.657100 3.524347 53.278111 116 116 116 0
-6.363954 3.436535 51.950643 112 112 112 0
-6.220827 3.427803 51.818636 105 105 105 0
-5.585676 3.141943 47.497248 102 102 102 0
-5.458165 3.135542 47.400481 102 102 102 0
-5.351071 3.140846 47.480667 99 99 99 0
-5.245282 3.147169 47.576251 99 99 99 0
-5.135638 3.151414 47.640423 98 98 98 0
-5.020921 3.152671 47.659426 95 95 95 0
-4.912332 3.157927 47.738889 99 99 99 0
-4.784401 3.150703 47.629675 98 98 98 0
-4.675109 3.155699 47.705198 97 97 97 0
-4.560399 3.157199 47.727881 98 98 98 0
-4.445177 3.158415 47.746260 95 95 95 0
-4.344742 3.170488 47.928763 95 95 95 0
-4.222460 3.166845 47.873699 98 98 98 0
-4.109708 3.170346 47.926624 96 96 96 0
-3.994844 3.172376 47.957316 100 100 100 0
-3.873872 3.169532 47.914312 102 102 102 0
-3.750839 3.164770 47.842335 103 103 103 0
-3.629941 3.161561 47.793820 107 107 107 0
-3.506795 3.156115 47.711492 109 109 109 0
-3.380966 3.147796 47.585724 111 111 111 0
-3.258401 3.142030 47.498564 109 109 109 0
-3.134358 3.134358 47.382586 109 109 109 0
-3.007770 3.123453 47.217735 108 108 108 0
-2.889090 3.120218 47.168823 108 108 108 0
-2.770213 3.116490 47.112468 110 110 110 0
-2.649015 3.109713 47.010029 112 112 112 0
-2.529331 3.104179 46.926366 114 114 114 0
-2.412774 3.102138 46.895509 116 116 116 0
-2.303716 3.110017 47.014620 113 113 113 0
-1.993077 2.832267 42.815831 113 113 113 0
-1.880320 2.820480 42.637637 113 113 113 0
-1.761950 2.798391 42.303713 116 116 116 0
-1.647183 2.779621 42.019973 120 120 120 0
-1.535286 2.763516 41.776501 120 120 120 0
-1.426508 2.751122 41.589141 122 122 122 0
-1.322674 2.747093 41.528236 125 125 125 0
-1.216718 2.737616 41.384974 130 130 130 0
-1.112543 2.730787 41.281736 131 131 131 0
-1.011081 2.729920 41.268628 132 132 132 0
-0.908520 2.725559 41.202709 134 134 134 0
-0.806423 2.721678 41.144033 133 133 133 0
-0.706200 2.723915 41.177858 133 133 133 0
-0.604823 2.721704 41.144432 131 131 131 0
-0.504122 2.722259 41.152816 128 128 128 0
-0.403307 2.722323 41.153783 125 125 125 0
-0.303137 2.728229 41.243073 124 124 124 0
-0.202051 2.727683 41.234809 124 124 124 0
-0.101124 2.730338 41.274958 124 124 124 0
0.000000 2.735737 41.356561 123 123 123 0
0.101448 2.739100 41.407414 124 124 124 0
0.202828 2.738182 41.393530 122 122 122 0
0.304854 2.743687 41.476756 124 124 124 0
0.407361 2.749688 41.567467 121 121 121 0
0.509598 2.751832 41.599872 121 121 121 0
0.612108 2.754486 41.639999 118 118 118 0
0.716358 2.763094 41.770132 114 114 114 0
0.820953 2.770717 41.885361 105 105 105 0
0.921837 2.765510 41.806656 102 102 102 0
0.912139 2.462774 37.230147 95 95 95 0
1.136890 2.790548 42.185149 105 105 105 0
1.245086 2.801445 42.349879 113 113 113 0
1.353304 2.810708 42.489919 107 107 107 0
1.460392 2.816470 42.577024 104 104 104 0
1.568346 2.823023 42.676085 103 103 103 0
1.674375 2.825507 42.713641 104 104 104 0
1.776287 2.821162 42.647949 110 110 110 0
1.864687 2.797031 42.283159 113 113 113 0
1.962205 2.788397 42.152634 113 113 113 0
2.059100 2.779785 42.022451 120 120 120 0
2.157417 2.773821 41.932296 126 126 126 0
2.256912 2.769846 41.872205 133 133 133 0
2.356283 2.766072 41.815142 137 137 137 0
2.459367 2.766788 41.825977 138 138 138 0
2.560005 2.764806 41.796004 142 142 142 0
2.658301 2.760543 41.731568 140 140 140 0
2.760764 2.760764 41.734906 142 142 142 0
2.860902 2.758727 41.704117 141 141 141 0
2.952736 2.749099 41.558565 140 140 140 0
3.056203 2.750582 41.580989 141 141 141 0
3.155343 2.748202 41.544999 139 139 139 0
3.249248 2.741553 41.444487 136 136 136 0
3.351155 2.741854 41.449048 131 131 131 0
3.459703 2.747412 41.533055 125 125 125 0
3.557509 2.744364 41.486983 116 116 116 0
3.664068 2.748051 41.542718 107 107 107 0
3.776073 2.755512 41.655517 98 98 98 0
3.884291 2.759891 41.721712 94 94 94 0
3.997346 2.767393 41.835119 94 94 94 0
4.124024 2.783716 42.081880 89 89 89 0
5.763537 3.175827 48.009475 84 84 84 0
5.871378 3.170544 47.929614 107 107 107 0
5.988326 3.170290 47.925775 110 110 110 0
6.096563 3.165523 47.853710 109 109 109 0
6.222611 3.170009 47.921532 107 107 107 0
6.360935 3.180468 48.079632 109 109 109 0
6.490524 3.186257 48.167153 111 111 111 0
6.605148 3.184625 48.142481 106 106 106 0
6.576251 3.115066 47.090945 106 106 106 0
6.586228 3.066003 46.349249 102 102 102 0
6.609285 3.024588 45.723178 103 103 103 0
6.629186 2.983134 45.096507 104 104 104 0
6.708623 2.969390 44.888744 105 105 105 0
6.759125 2.943490 44.497200 104 104 104 0
6.851105 2.936188 44.386817 109 109 109 0
6.915583 2.917512 44.104483 107 107 107 0
6.977699 2.898429 43.816007 107 107 107 0
7.055338 2.886275 43.632270 111 111 111 0
7.136239 2.875798 43.473891 116 116 116 0
7.228128 2.869992 43.386125 124 124 124 0
7.319522 2.864161 43.297971 128 128 128 0
7.422591 2.862999 43.280412 130 130 130 0
7.529862 2.863469 43.287508 132 132 132 0
7.619059 2.857147 43.191942 131 131 131 0
7.720594 2.855562 43.167982 131 131 131 0
7.826677 2.855680 43.169759 129 129 129 0
7.943530 2.859671 43.230093 125 125 125 0
8.034341 2.854306 43.148987 122 122 122 0
8.286403 2.905622 43.924742 118 118 118 0
8.566196 2.965222 44.825726 116 116 116 0
8.677407 2.965696 44.832895 111 111 111 0
-9.954515 3.484080 50.788343 101 101 101 0
-9.029273 3.200249 46.650856 108 108 108 0
-9.220405 3.309889 48.249109 113 113 113 0
-8.938267 3.250279 47.380158 116 116 116 0
-9.012666 3.320456 48.403146 117 117 117 0
-9.705441 3.623365 52.818728 120 120 120 0
-9.964062 3.770186 54.958974 122 122 122 0
-9.828961 3.770012 54.956447 124 124 124 0
-9.694125 3.769938 54.955358 123 123 123 0
-9.559122 3.769794 54.953272 122 122 122 0
-9.424395 3.769758 54.952738 124 124 124 0
-9.289502 3.769653 54.951212 125 125 125 0
-9.154673 3.769571 54.950016 126 126 126 0
-9.019944 3.769529 54.949401 127 127 127 0
-8.885095 3.769434 54.948023 127 127 127 0
-8.750317 3.769367 54.947046 129 129 129 0
-8.615765 3.769397 54.947478 127 127 127 0
-8.480831 3.769258 54.945457 132 132 132 0
-8.346101 3.769207 54.944707 134 134 134 0
-8.211674 3.769293 54.945961 137 137 137 0
-8.076726 3.769139 54.943716 137 137 137 0
-7.942073 3.769119 54.943429 136 136 136 0
-7.807501 3.769139 54.943711 137 137 137 0
-7.672710 3.769051 54.942431 139 139 139 0
-7.538148 3.769074 54.942767 142 142 142 0
-7.403519 3.769064 54.942623 143 143 143 0
-7.268864 3.769041 54.942283 145 145 145 0
-7.134365 3.769098 54.943127 146 146 146 0
-6.999793 3.769119 54.943426 144 144 144 0
-6.865230 3.769146 54.943821 141 141 141 0
-6.730731 3.769209 54.944740 135 135 135 0
-6.596173 3.769242 54.945219 135 135 135 0
-6.461717 3.769335 54.946570 132 132 132 0
-6.327196 3.769393 54.947423 130 130 130 0
-6.192742 3.769495 54.948908 124 124 124 0
-6.058192 3.769541 54.949584 127 127 127 0
-5.923488 3.769492 54.948870 129 129 129 0
-5.789583 3.769961 54.955698 125 125 125 0
-5.655119 3.770079 54.957426 122 122 122 0
-5.520152 3.769860 54.954224 114 114 114 0
-5.385978 3.770185 54.958958 109 109 109 0
-5.041614 3.619620 52.764145 108 108 108 0
-4.914441 3.621167 52.786693 101 101 101 0
-4.380514 3.314983 48.323371 100 100 100 0
-4.657214 3.622278 52.802882 100 100 100 0
-4.137647 3.310118 48.252445 102 102 102 0
-4.024530 3.314319 48.313687 100 100 100 0
-3.902524 3.311233 48.268699 101 101 101 0
-3.778312 3.306023 48.192760 103 103 103 0
-3.655580 3.301814 48.131406 106 106 106 0
-3.528096 3.292889 48.001304 107 107 107 0
-3.400944 3.283670 47.866911 109 109 109 0
-3.278320 3.278320 47.788918 108 108 108 0
-3.153657 3.270459 47.674333 108 108 108 0
-3.027971 3.260892 47.534868 106 106 106 0
-2.907004 3.255844 47.461282 108 108 108 0
-2.785799 3.250099 47.377537 108 108 108 0
-2.661672 3.240296 47.234642 109 109 109 0
-2.541750 3.234955 47.156781 108 108 108 0
-2.421120 3.228160 47.057728 112 112 112 0
-2.305083 3.227116 47.042507 115 115 115 0
-2.196472 3.236906 47.185216 112 112 112 0
-1.888887 2.938268 42.831895 114 114 114 0
-1.776385 2.925810 42.650296 117 117 117 0
-1.658345 2.902104 42.304724 116 116 116 0
-1.542797 2.879888 41.980876 115 115 115 0
-1.432461 2.864922 41.762715 118 118 118 0
-1.327139 2.858454 41.668426 119 119 119 0
-1.219724 2.846024 41.487224 120 120 120 0
-1.115268 2.838864 41.382855 123 123 123 0
-1.013755 2.838514 41.377750 123 123 123 0
-0.910677 2.833216 41.300532 125 125 125 0
-0.807760 2.827160 41.212249 126 126 126 0
-0.707512 2.830047 41.254329 126 126 126 0
-0.606190 2.828886 41.237399 123 123 123 0
-0.504816 2.826968 41.209447 122 122 122 0
-0.404040 2.828281 41.228585 121 121 121 0
-0.303666 2.834217 41.315112 120 120 120 0
-0.202203 2.830843 41.265929 120 120 120 0
-0.101210 2.833869 41.310044 120 120 120 0
0.000000 2.840732 41.410093 122 122 122 0
0.101518 2.842511 41.436019 119 119 119 0
0.203028 2.842386 41.434205 118 118 118 0
0.305265 2.849142 41.532686 117 117 117 0
0.407717 2.854021 41.603802 116 116 116 0
0.510019 2.856108 41.634229 116 116 116 0
0.612746 2.859483 41.683425 114 114 114 0
0.718140 2.872559 41.874038 108 108 108 0
0.821887 2.876604 41.933000 100 100 100 0
0.927543 2.885689 42.065440 95 95 95 0
1.035311 2.898871 42.257597 95 95 95 0
1.140402 2.902841 42.315464 101 101 101 0
1.248848 2.913978 42.477813 98 98 98 0
1.357791 2.924473 42.630806 94 94 94 0
1.464035 2.928070 42.683233 89 89 89 0
1.576309 2.942443 42.892751 94 94 94 0
1.688887 2.955551 43.083841 100 100 100 0
1.793448 2.953914 43.059966 106 106 106 0
1.886190 2.934074 42.770754 111 111 111 0
1.976029 2.912042 42.449596 109 109 109 0
2.071359 2.899902 42.272626 110 110 110 0
2.164776 2.886368 42.075342 113 113 113 0
2.261955 2.878852 41.965770 118 118 118 0
2.361947 2.875414 41.915652 122 122 122 0
2.463191 2.873722 41.890997 126 126 126 0
2.562833 2.870373 41.842171 130 130 130 0
2.660518 2.865173 41.766371 130 130 130 0
2.762660 2.864981 41.763566 133 133 133 0
2.861134 2.861134 41.707491 132 132 132 0
2.957022 2.855056 41.618894 133 133 133 0
3.057255 2.853438 41.595300 132 132 132 0
3.158263 2.852625 41.583451 131 131 131 0
3.255838 2.848858 41.528547 127 127 127 0
3.356663 2.848078 41.517168 121 121 121 0
3.464704 2.853286 41.593089 113 113 113 0
3.567740 2.854192 41.606301 103 103 103 0
3.676644 2.859612 41.685307 95 95 95 0
3.786186 2.865222 41.767085 91 91 91 0
3.904904 2.877298 41.943113 89 89 89 0
4.020844 2.886760 42.081049 84 84 84 0
5.669167 3.307014 48.207201 91 91 91 0
5.786502 3.306573 48.200769 105 105 105 0
5.896298 3.301927 48.133044 106 106 106 0
6.015123 3.302420 48.140240 107 107 107 0
6.121154 3.296006 48.046736 109 109 109 0
6.228425 3.290489 47.966311 109 109 109 0
6.375483 3.305806 48.189593 109 109 109 0
6.503791 3.311021 48.265608 110 110 110 0
6.630033 3.315016 48.323854 109 109 109 0
6.751666 3.316608 48.347053 108 108 108 0
6.799428 3.282482 47.849597 106 106 106 0
6.758938 3.207632 46.758477 102 102 102 0
6.730104 3.140715 45.783022 105 105 105 0
6.763619 3.104612 45.256734 102 102 102 0
6.822477 3.081118 44.914263 103 103 103 0
6.868597 3.052710 44.500142 106 106 106 0
6.959694 3.044866 44.385803 109 109 109 0
7.034184 3.030110 44.170703 107 107 107 0
7.100024 3.012131 43.908622 105 105 105 0
7.167619 2.995423 43.665056 107 107 107 0
7.254884 2.987305 43.546722 113 113 113 0
7.337028 2.977345 43.401525 117 117 117 0
7.436077 2.974431 43.359050 121 121 121 0
7.541602 2.974153 43.354997 123 123 123 0
7.636401 2.969711 43.290255 123 123 123 0
7.732534 2.965903 43.234742 123 123 123 0
7.835438 2.964760 43.218081 121 121 121 0
7.958722 2.971256 43.312773 118 118 118 0
8.057712 2.968631 43.274500 115 115 115 0
8.287524 3.013645 43.930685 111 111 111 0
8.568244 3.075780 44.836443 109 109 109 0
8.404506 2.978812 43.422920 106 106 106 0
-9.686421 3.511328 49.420514 105 105 105 0
-9.745729 3.577546 50.352512 104 104 104 0
-9.051546 3.365319 47.365497 109 109 109 0
-9.330540 3.514099 49.459526 113 113 113 0
-9.094554 3.470290 48.842930 118 118 118 0
-9.693860 3.748293 52.755701 121 121 121 0
-9.964098 3.904849 54.959174 120 120 120 0
-9.829203 3.904752 54.957805 123 123 123 0
-9.694176 3.904599 54.955645 127 127 127 0
-9.559291 3.904499 54.954247 125 125 125 0
-9.424549 3.904456 54.953640 122 122 122 0
-9.289600 3.904325 54.951788 125 125 125 0
-9.154719 3.904218 54.950293 124 124 124 0
-9.020143 3.904241 54.950612 126 126 126 0
-8.885243 3.904122 54.948937 129 129 129 0
-8.750385 3.904018 54.947471 128 128 128 0
-8.615823 3.904045 54.947852 131 131 131 0
-8.480861 3.903889 54.945652 130 130 130 0
-8.346270 3.903900 54.945817 130 130 130 0
-8.211636 3.903893 54.945711 134 134 134 0
-8.076781 3.903777 54.944087 131 131 131 0
-7.942245 3.903815 54.944620 134 134 134 0
-7.807516 3.903758 54.943817 133 133 133 0
-7.672709 3.903659 54.942417 138 138 138 0
-7.538316 3.903771 54.943992 139 139 139 0
-7.403601 3.903717 54.943233 141 141 141 0
-7.268983 3.903713 54.943183 144 144 144 0
-7.134423 3.903741 54.943572 145 145 145 0
-6.999773 3.903720 54.943275 145 145 145 0
-6.865287 3.903791 54.944272 144 144 144 0
-6.730570 3.903730 54.943425 142 142 142 0
-6.596031 3.903774 54.944033 140 140 140 0
-6.461650 3.903913 54.945999 141 141 141 0
-6.327092 3.903951 54.946524 140 140 140 0
-6.192590 3.904024 54.947558 136 136 136 0
-6.058036 3.904068 54.948176 136 136 136 0
-5.923388 3.904051 54.947939 137 137 137 0
-5.789014 3.904218 54.950295 135 135 135 0
-5.654858 3.904545 54.954884 136 136 136 0
-5.520273 3.904584 54.955435 132 132 132 0
-5.385841 3.904735 54.957566 130 130 130 0
-5.251239 3.904768 54.958027 131 131 131 0
-5.116694 3.904845 54.959120 129 129 129 0
-4.982143 3.904923 54.960205 126 126 126 0
-4.847480 3.904915 54.960095 123 123 123 0
-4.712776 3.904872 54.959489 117 117 117 0
-4.392595 3.746625 52.732229 110 110 110 0
-4.265062 3.748085 52.752779 109 109 109 0
-4.138858 3.750840 52.791556 103 103 103 0
-3.677530 3.440270 48.420411 103 103 103 0
-3.556015 3.437481 48.381159 105 105 105 0
-3.422185 3.422185 48.165868 107 107 107 0
-3.299297 3.417129 48.094711 106 106 106 0
-3.172636 3.407646 47.961233 107 107 107 0
-3.046753 3.398302 47.829724 108 108 108 0
-2.924106 3.391963 47.740512 106 106 106 0
-2.802657 3.386544 47.664231 106 106 106 0
-2.674581 3.372297 47.463721 107 107 107 0
-2.555448 3.368545 47.410913 106 106 106 0
-2.436397 3.364548 47.354650 106 106 106 0
-2.312703 3.353419 47.198018 111 111 111 0
-2.197830 3.354583 47.214396 109 109 109 0
-2.089031 3.365661 47.370319 106 106 106 0
-1.982397 3.381735 47.596557 111 111 111 0
-1.671521 3.029632 42.640845 114 114 114 0
-1.553425 3.003288 42.270061 113 113 113 0
-1.440897 2.984716 42.008666 115 115 115 0
-1.333196 2.974052 41.858585 115 115 115 0
-1.225213 2.960932 41.673925 116 116 116 0
-1.119324 2.950945 41.533362 115 115 115 0
-1.016903 2.949019 41.506244 117 117 117 0
-0.913294 2.942837 41.419242 117 117 117 0
-0.809944 2.936046 41.323659 116 116 116 0
-0.709250 2.938323 41.355710 117 117 117 0
-0.607656 2.937006 41.337177 115 115 115 0
-0.506272 2.936377 41.328321 114 114 114 0
-0.404855 2.935199 41.311737 114 114 114 0
-0.304320 2.941764 41.404140 113 113 113 0
-0.202697 2.939105 41.366715 114 114 114 0
-0.101381 2.940062 41.380180 113 113 113 0
0.000000 2.946841 41.475591 112 112 112 0
0.101742 2.950524 41.527426 111 111 111 0
0.203370 2.948867 41.504109 108 108 108 0
0.305818 2.956244 41.607935 109 109 109 0
0.408595 2.962312 41.693345 111 111 111 0
0.510870 2.963045 41.703663 108 108 108 0
0.614029 2.967807 41.770678 105 105 105 0
0.719562 2.981041 41.956951 101 101 101 0
0.823553 2.985381 42.018032 94 94 94 0
0.929255 2.994267 42.143099 90 90 90 0
1.038988 3.013066 42.407687 93 93 93 0
1.145297 3.019419 42.497105 93 93 93 0
1.253107 3.028343 42.622700 83 83 83 0
1.362751 3.039983 42.786533 82 82 82 0
1.603079 3.099285 43.621184 89 89 89 0
1.706466 3.092971 43.532308 100 100 100 0
1.807180 3.082837 43.389678 106 106 106 0
1.902930 3.065831 43.150336 106 106 106 0
1.999839 3.052385 42.961089 106 106 106 0
2.089364 3.029578 42.640088 108 108 108 0
2.180684 3.011421 42.384528 107 107 107 0
