ply
format ascii 1.0
element vertex 1122
property float x
property float y
property float z
property uchar red
property uchar green
property uchar blue
property uchar alpha
end_header
7.121076 -0.254324 51.902884 114 114 114 0
7.250819 -0.254415 51.921369 114 114 114 0
7.386574 -0.254709 51.981518 112 112 112 0
7.517689 -0.254837 52.007534 114 114 114 0
7.654119 -0.255137 52.068837 114 114 114 0
7.791685 -0.255465 52.135728 116 116 116 0
7.919732 -0.255475 52.137804 116 116 116 0
8.056550 -0.255763 52.196632 118 118 118 0
8.190774 -0.255962 52.237076 115 115 115 0
8.336038 -0.256493 52.345605 107 107 107 0
8.486446 -0.257165 52.482659 92 92 92 0
8.628808 -0.257576 52.566602 80 80 80 0
-9.428538 -0.117857 48.104784 124 124 124 0
-9.313667 -0.117895 48.120210 124 124 124 0
-9.190435 -0.117826 48.092284 124 124 124 0
-9.068793 -0.117777 48.072052 124 124 124 0
-8.946863 -0.117722 48.049749 126 126 126 0
-8.826219 -0.117683 48.033847 122 122 122 0
-8.706840 -0.117660 48.024491 122 122 122 0
-8.588586 -0.117652 48.021166 123 123 123 0
-8.470934 -0.117652 48.021166 120 120 120 0
-8.351716 -0.117630 48.012163 122 122 122 0
-8.231347 -0.117591 47.996190 121 121 121 0
-8.116747 -0.117634 48.013885 120 120 120 0
-8.000080 -0.117648 48.019687 119 119 119 0
-7.884490 -0.117679 48.032225 119 119 119 0
-7.766447 -0.117673 48.029974 119 119 119 0
-7.648112 -0.117663 48.025821 119 119 119 0
-7.530940 -0.117671 48.028952 118 118 118 0
-7.423036 -0.117826 48.092234 119 119 119 0
-7.302391 -0.117781 48.073674 119 119 119 0
-7.186281 -0.117808 48.084849 120 120 120 0
-7.070890 -0.117848 48.101291 119 119 119 0
-6.949859 -0.117794 48.079276 119 119 119 0
-6.839290 -0.117919 48.130123 119 119 119 0
-6.719626 -0.117888 48.117621 118 118 118 0
-6.605536 -0.117956 48.145307 121 121 121 0
-6.493477 -0.118063 48.189066 120 120 120 0
-6.375959 -0.118073 48.193190 121 121 121 0
-6.254348 -0.118007 48.165945 120 120 120 0
-6.146852 -0.118209 48.248447 122 122 122 0
-6.021715 -0.118073 48.192994 123 123 123 0
-5.906327 -0.118127 48.214910 122 122 122 0
-5.794189 -0.118249 48.264797 122 122 122 0
-5.671555 -0.118157 48.227505 121 121 121 0
-5.553625 -0.118162 48.229482 121 121 121 0
-5.441886 -0.118302 48.286480 120 120 120 0
-5.321803 -0.118262 48.270319 121 121 121 0
-5.201408 -0.118214 48.250543 123 123 123 0
-5.082750 -0.118203 48.246318 125 125 125 0
-4.964958 -0.118213 48.250320 125 125 125 0
-4.836415 -0.117961 48.147484 124 124 124 0
-4.721957 -0.118049 48.183235 123 123 123 0
-4.599138 -0.117927 48.133315 124 124 124 0
-4.479317 -0.117877 48.112966 122 122 122 0
-4.359387 -0.117821 48.090317 121 121 121 0
-4.239714 -0.117770 48.069324 123 123 123 0
-4.116463 -0.117613 48.005401 123 123 123 0
-3.997782 -0.117582 47.992583 121 121 121 0
-3.877594 -0.117503 47.960349 122 122 122 0
-3.757534 -0.117423 47.927733 121 121 121 0
-3.637848 -0.117350 47.897929 120 120 120 0
-3.519728 -0.117324 47.887450 120 120 120 0
-3.399009 -0.117207 47.839681 121 121 121 0
-3.279528 -0.117126 47.806536 119 119 119 0
-3.161162 -0.117080 47.787788 120 120 120 0
-3.041181 -0.116969 47.742250 119 119 119 0
-2.921440 -0.116858 47.696985 119 119 119 0
-2.807201 -0.116967 47.741519 120 120 120 0
-2.687074 -0.116829 47.685421 118 118 118 0
-2.571144 -0.116870 47.702120 119 119 119 0
-2.453136 -0.116816 47.679994 118 118 118 0
-2.334589 -0.116729 47.644668 117 117 117 0
-2.218934 -0.116786 47.667764 116 116 116 0
-2.104689 -0.116927 47.725385 113 113 113 0
-1.987912 -0.116936 47.728977 115 115 115 0
-1.870980 -0.116936 47.729086 115 115 115 0
-1.757055 -0.117137 47.811021 116 116 116 0
-1.639492 -0.117107 47.798608 115 115 115 0
-1.523228 -0.117171 47.825059 117 117 117 0
-1.406478 -0.117207 47.839399 116 116 116 0
-1.290568 -0.117324 47.887500 115 115 115 0
-1.172774 -0.117277 47.868316 116 116 116 0
-1.056106 -0.117345 47.895949 116 116 116 0
-0.938932 -0.117366 47.904676 115 115 115 0
-0.821587 -0.117370 47.905965 115 115 115 0
-0.705030 -0.117505 47.961217 113 113 113 0
-0.588000 -0.117600 48.000000 110 110 110 0
-0.470793 -0.117698 48.040081 112 112 112 0
-0.353334 -0.117778 48.072703 110 110 110 0
-0.235727 -0.117863 48.107536 110 110 110 0
-0.117928 -0.117928 48.133808 110 110 110 0
0.000000 -0.118011 48.167652 109 109 109 0
0.118207 -0.118207 48.247610 111 111 111 0
0.236796 -0.118398 48.325804 108 108 108 0
0.355399 -0.118466 48.353558 107 107 107 0
0.474604 -0.118651 48.428958 108 108 108 0
0.594211 -0.118842 48.507008 106 106 106 0
0.714957 -0.119159 48.636523 106 106 106 0
0.834023 -0.119146 48.631097 108 108 108 0
0.955628 -0.119453 48.756513 108 108 108 0
1.077331 -0.119703 48.858531 110 110 110 0
1.197220 -0.119722 48.866140 108 108 108 0
1.320072 -0.120007 48.982277 107 107 107 0
1.440616 -0.120051 49.000544 108 108 108 0
1.564031 -0.120310 49.106147 106 106 106 0
1.496151 -0.106868 43.619568 107 107 107 0
1.810654 -0.120710 49.269489 106 106 106 0
1.714684 -0.107168 43.741950 108 108 108 0
2.060132 -0.121184 49.462961 105 105 105 0
1.932938 -0.107385 43.830786 107 107 107 0
2.310262 -0.121593 49.629696 106 106 106 0
2.150917 -0.107546 43.896271 106 106 106 0
2.263013 -0.107763 43.984711 106 106 106 0
2.686234 -0.122102 49.837367 108 108 108 0
2.812959 -0.122303 49.919421 103 103 103 0
2.941032 -0.122543 50.017547 105 105 105 0
2.703175 -0.108127 44.133464 108 108 108 0
3.192144 -0.122775 50.112153 107 107 107 0
2.922823 -0.108253 44.184771 109 109 109 0
3.455233 -0.123401 50.367821 107 107 107 0
3.578294 -0.123389 50.363036 107 107 107 0
3.715264 -0.123842 50.547815 105 105 105 0
3.839352 -0.123850 50.551042 106 106 106 0
3.977771 -0.124305 50.736873 108 108 108 0
4.107173 -0.124460 50.799911 108 108 108 0
4.228260 -0.124361 50.759423 108 108 108 0
4.358880 -0.124539 50.832420 107 107 107 0
4.490713 -0.124742 50.915113 107 107 107 0
4.625314 -0.125008 51.023871 108 108 108 0
4.760768 -0.125283 51.136066 110 110 110 0
4.887045 -0.125309 51.146464 110 110 110 0
5.015832 -0.125396 51.181958 110 110 110 0
5.148600 -0.125576 51.255346 109 109 109 0
5.280893 -0.125736 51.320627 111 111 111 0
5.413970 -0.125906 51.390319 109 109 109 0
5.550862 -0.126156 51.492229 113 113 113 0
5.670143 -0.126003 51.429873 111 111 111 0
5.812596 -0.126361 51.575828 113 113 113 0
5.939367 -0.126370 51.579394 112 112 112 0
6.065509 -0.126365 51.577457 112 112 112 0
6.203948 -0.126611 51.678035 115 115 115 0
6.335383 -0.126708 51.717415 113 113 113 0
6.465281 -0.126770 51.742944 114 114 114 0
6.600912 -0.126941 51.812495 113 113 113 0
6.731055 -0.127001 51.837158 112 112 112 0
6.865889 -0.127146 51.896364 113 113 113 0
7.004087 -0.127347 51.978381 111 111 111 0
7.134305 -0.127398 51.999310 111 111 111 0
7.269599 -0.127537 52.055845 115 115 115 0
7.398336 -0.127558 52.064294 114 114 114 0
7.528719 -0.127605 52.083838 113 113 113 0
7.664956 -0.127749 52.142559 117 117 117 0
7.805638 -0.127961 52.229092 119 119 119 0
7.932265 -0.127940 52.220312 120 120 120 0
8.072719 -0.128138 52.301387 118 118 118 0
8.203135 -0.128174 52.315912 112 112 112 0
8.342565 -0.128347 52.386591 98 98 98 0
8.484386 -0.128551 52.469921 86 86 86 0
8.667747 -0.129369 52.803820 80 80 80 0
-9.450891 0.000000 48.218829 122 122 122 0
-9.337863 0.000000 48.245222 121 121 121 0
-9.212574 0.000000 48.208132 124 124 124 0
-9.080505 0.000000 48.134137 123 123 123 0
-8.969032 0.000000 48.168810 122 122 122 0
-8.844335 0.000000 48.132438 122 122 122 0
-8.728056 0.000000 48.141510 122 122 122 0
-8.613441 0.000000 48.160139 121 121 121 0
-8.488079 0.000000 48.118364 121 121 121 0
-8.371188 0.000000 48.124105 123 123 123 0
-8.257487 0.000000 48.148610 121 121 121 0
-8.138587 0.000000 48.143079 121 121 121 0
-8.015939 0.000000 48.114881 120 120 120 0
-7.901040 0.000000 48.133049 123 123 123 0
-7.783777 0.000000 48.137150 121 121 121 0
-7.664063 0.000000 48.125986 121 121 121 0
-7.553150 0.000000 48.170597 119 119 119 0
-7.436601 0.000000 48.180119 119 119 119 0
-7.320120 0.000000 48.190387 119 119 119 0
-7.204493 0.000000 48.206711 118 118 118 0
-7.089694 0.000000 48.229210 120 120 120 0
-6.967216 0.000000 48.199351 120 120 120 0
-6.859696 0.000000 48.273726 120 120 120 0
-6.741162 0.000000 48.271838 119 119 119 0
-6.619763 0.000000 48.249000 120 120 120 0
-6.509368 0.000000 48.306999 121 121 121 0
-6.390932 0.000000 48.306365 122 122 122 0
-6.269133 0.000000 48.279811 120 120 120 0
-6.159515 0.000000 48.347843 121 121 121 0
-6.037853 0.000000 48.322157 121 121 121 0
-5.918739 0.000000 48.316234 121 121 121 0
-5.804760 0.000000 48.352853 121 121 121 0
-5.683125 0.000000 48.325891 121 121 121 0
-5.561619 0.000000 48.298909 121 121 121 0
-5.451241 0.000000 48.369484 124 124 124 0
-5.330756 0.000000 48.351528 124 124 124 0
-5.209231 0.000000 48.323103 128 128 128 0
-5.092693 0.000000 48.340702 125 125 125 0
-4.973281 0.000000 48.331208 124 124 124 0
-4.850361 0.000000 48.286323 121 121 121 0
-4.729753 0.000000 48.262790 122 122 122 0
-4.612668 0.000000 48.274911 122 122 122 0
-4.486796 0.000000 48.193299 121 121 121 0
-4.372220 0.000000 48.231881 120 120 120 0
-4.249213 0.000000 48.177018 121 121 121 0
-4.127879 0.000000 48.138531 120 120 120 0
-4.006558 0.000000 48.097934 120 120 120 0
-3.887738 0.000000 48.085817 121 121 121 0
-3.765584 0.000000 48.030409 119 119 119 0
-3.650291 0.000000 48.061761 121 121 121 0
-3.528937 0.000000 48.012753 119 119 119 0
-3.407110 0.000000 47.953700 121 121 121 0
-3.287800 0.000000 47.927115 122 122 122 0
-3.168088 0.000000 47.892488 120 120 120 0
-3.048804 0.000000 47.861911 118 118 118 0
-2.931961 0.000000 47.868758 119 119 119 0
-2.813566 0.000000 47.849764 118 118 118 0
-2.691914 0.000000 47.771321 119 119 119 0
-2.575480 0.000000 47.782569 119 119 119 0
-2.458285 0.000000 47.780082 118 118 118 0
-2.340157 0.000000 47.758309 117 117 117 0
-2.224355 0.000000 47.784215 113 113 113 0
-2.110163 0.000000 47.849498 113 113 113 0
-1.992269 0.000000 47.833580 115 115 115 0
-1.876855 0.000000 47.878952 116 116 116 0
-1.761448 0.000000 47.930564 114 114 114 0
-1.643893 0.000000 47.926900 115 115 115 0
-1.527020 0.000000 47.944112 116 116 116 0
-1.410000 0.000000 47.959167 117 117 117 0
-1.292385 0.000000 47.954905 117 117 117 0
-1.176440 0.000000 48.017971 117 117 117 0
-1.059189 0.000000 48.035796 115 115 115 0
-0.941167 0.000000 48.018707 112 112 112 0
-0.824721 0.000000 48.088661 112 112 112 0
-0.707111 0.000000 48.102759 112 112 112 0
-0.588962 0.000000 48.078542 113 113 113 0
-0.471938 0.000000 48.156924 113 113 113 0
-0.354297 0.000000 48.203630 110 110 110 0
-0.236402 0.000000 48.245243 110 110 110 0
-0.118317 0.000000 48.292459 109 109 109 0
0.000000 0.000000 48.314952 109 109 109 0
0.118434 0.000000 48.340315 109 109 109 0
0.237331 0.000000 48.434940 106 106 106 0
0.356752 0.000000 48.537741 107 107 107 0
0.475996 0.000000 48.570972 107 107 107 0
0.595628 0.000000 48.622699 107 107 107 0
0.717063 0.000000 48.779769 107 107 107 0
0.836207 0.000000 48.758406 108 108 108 0
0.958147 0.000000 48.885029 111 111 111 0
1.079072 0.000000 48.937498 109 109 109 0
1.201767 0.000000 49.051723 109 109 109 0
1.323898 0.000000 49.124245 108 108 108 0
1.445959 0.000000 49.182283 107 107 107 0
1.569315 0.000000 49.272059 106 106 106 0
1.691391 0.000000 49.311700 106 106 106 0
1.814733 0.000000 49.380488 106 106 106 0
1.939090 0.000000 49.466573 108 108 108 0
2.063932 0.000000 49.554190 107 107 107 0
2.187167 0.000000 49.595630 105 105 105 0
2.315789 0.000000 49.748412 107 107 107 0
2.441879 0.000000 49.834267 105 105 105 0
2.266319 0.000000 44.048964 107 107 107 0
2.692041 0.000000 49.945105 108 108 108 0
2.817344 0.000000 49.997233 105 105 105 0
2.603739 0.000000 44.281273 109 109 109 0
3.075856 0.000000 50.218062 107 107 107 0
3.206743 0.000000 50.341331 107 107 107 0
2.930027 0.000000 44.293680 106 106 106 0
3.046192 0.000000 44.405128 105 105 105 0
3.590082 0.000000 50.528952 104 104 104 0
3.723948 0.000000 50.665955 106 106 106 0
3.848365 0.000000 50.669713 108 108 108 0
3.979699 0.000000 50.761466 106 106 106 0
3.600433 0.000000 44.532260 108 108 108 0
4.239451 0.000000 50.893775 110 110 110 0
4.372094 0.000000 50.986515 111 111 111 0
4.506559 0.000000 51.094776 111 111 111 0
4.632648 0.000000 51.104773 107 107 107 0
4.780641 0.000000 51.349525 111 111 111 0
4.894264 0.000000 51.222025 110 110 110 0
5.044705 0.000000 51.476581 109 109 109 0
5.172066 0.000000 51.488958 110 110 110 0
5.287659 0.000000 51.386389 114 114 114 0
5.426056 0.000000 51.505036 112 112 112 0
5.558552 0.000000 51.563563 110 110 110 0
5.684397 0.000000 51.559156 115 115 115 0
5.822923 0.000000 51.667459 114 114 114 0
5.955252 0.000000 51.717339 113 113 113 0
6.077581 0.000000 51.680113 115 115 115 0
6.208932 0.000000 51.719547 116 116 116 0
6.346227 0.000000 51.805934 112 112 112 0
6.480336 0.000000 51.863435 116 116 116 0
6.611031 0.000000 51.891925 115 115 115 0
6.742005 0.000000 51.921486 114 114 114 0
6.870602 0.000000 51.931984 113 113 113 0
7.014262 0.000000 52.053893 112 112 112 0
7.145746 0.000000 52.082697 113 113 113 0
7.284701 0.000000 52.163991 113 113 113 0
7.416514 0.000000 52.192218 117 117 117 0
7.553797 0.000000 52.257330 117 117 117 0
7.677648 0.000000 52.228895 121 121 121 0
7.815936 0.000000 52.297998 121 121 121 0
7.947107 0.000000 52.318021 118 118 118 0
8.085575 0.000000 52.384676 114 114 114 0
8.216744 0.000000 52.402701 104 104 104 0
8.394394 0.000000 52.712051 92 92 92 0
7.144630 0.000000 44.184480 83 83 83 0
9.962171 0.000000 54.948542 80 80 80 0
-9.473206 0.118415 48.332685 120 120 120 0
-9.356693 0.118439 48.342509 120 120 120 0
-9.239931 0.118461 48.351287 121 121 121 0
-9.109961 0.118311 48.290278 121 121 121 0
-8.988858 0.118274 48.275282 121 121 121 0
-8.871666 0.118289 48.281174 122 122 122 0
-8.747756 0.118213 48.250172 121 121 121 0
-8.630457 0.118225 48.255280 120 120 120 0
-8.513787 0.118247 48.264098 121 121 121 0
-8.389962 0.118168 48.232030 122 122 122 0
-8.272452 0.118178 48.235872 120 120 120 0
-8.156370 0.118208 48.248269 121 121 121 0
-8.036884 0.118189 48.240600 122 122 122 0
-7.917750 0.118175 48.234848 120 120 120 0
-7.806426 0.118279 48.277217 119 119 119 0
-7.683586 0.118209 48.248578 120 120 120 0
-7.574869 0.118357 48.309115 121 121 121 0
-7.455878 0.118347 48.305008 120 120 120 0
-7.333263 0.118278 48.276912 119 119 119 0
-7.221307 0.118382 48.319220 118 118 118 0
-7.104877 0.118415 48.332494 119 119 119 0
-6.983995 0.118373 48.315424 120 120 120 0
-6.871964 0.118482 48.360055 117 117 117 0
-6.758616 0.118572 48.396819 119 119 119 0
-6.634784 0.118478 48.358485 118 118 118 0
-6.524120 0.118620 48.416478 120 120 120 0
-6.403440 0.118582 48.400907 119 119 119 0
-6.283513 0.118557 48.390552 121 121 121 0
-6.169667 0.118647 48.427530 121 121 121 0
-6.050470 0.118637 48.423126 122 122 122 0
-5.930278 0.118606 48.410432 122 122 122 0
-5.812866 0.118630 48.420371 121 121 121 0
-5.695126 0.118648 48.427941 121 121 121 0
-5.574117 0.118598 48.407443 124 124 124 0
-5.460672 0.118710 48.453168 121 121 121 0
-5.344654 0.118770 48.477588 120 120 120 0
-5.219986 0.118636 48.422879 119 119 119 0
-5.105419 0.118731 48.461503 118 118 118 0
-4.986877 0.118735 48.463329 121 121 121 0
-4.862294 0.118593 48.405113 121 121 121 0
-4.746102 0.118653 48.429616 122 122 122 0
-4.623106 0.118541 48.384151 121 121 121 0
-4.498236 0.118375 48.316174 123 123 123 0
-4.382570 0.118448 48.346056 121 121 121 0
-4.260840 0.118357 48.308843 123 123 123 0
-4.135623 0.118161 48.228834 121 121 121 0
-4.021139 0.118269 48.272979 120 120 120 0
-3.896960 0.118090 48.199874 120 120 120 0
-3.774676 0.117959 48.146379 121 121 121 0
-3.660318 0.118075 48.193783 121 121 121 0
-3.536105 0.117870 48.110270 120 120 120 0
-3.415555 0.117778 48.072557 122 122 122 0
-3.299935 0.117855 48.104011 118 118 118 0
-3.178812 0.117734 48.054607 119 119 119 0
-3.056756 0.117568 47.986758 118 118 118 0
-2.939817 0.117593 47.997013 116 116 116 0
-2.820067 0.117503 47.960318 117 117 117 0
-2.701522 0.117457 47.941835 117 117 117 0
-2.582604 0.117391 47.914734 116 116 116 0
-2.465752 0.117417 47.925211 116 116 116 0
-2.347558 0.117378 47.909344 114 114 114 0
-2.232191 0.117484 47.952535 115 115 115 0
-2.114619 0.117479 47.950548 115 115 115 0
-1.997852 0.117521 47.967640 116 116 116 0
-1.881348 0.117584 47.993580 116 116 116 0
-1.764689 0.117646 48.018753 116 116 116 0
-1.648097 0.117721 48.049468 114 114 114 0
-1.532168 0.117859 48.105761 116 116 116 0
-1.414624 0.117885 48.116454 114 114 114 0
-1.294885 0.117717 48.047667 114 114 114 0
-1.179268 0.117927 48.133375 114 114 114 0
-1.061466 0.117941 48.139025 114 114 114 0
-0.943552 0.117944 48.140406 113 113 113 0
-0.827220 0.118174 48.234379 114 114 114 0
-0.708153 0.118026 48.173682 114 114 114 0
-0.590472 0.118094 48.201755 111 111 111 0
-0.473506 0.118377 48.316943 109 109 109 0
-0.355455 0.118485 48.361194 112 112 112 0
-0.237141 0.118570 48.396060 111 111 111 0
-0.118801 0.118801 48.490211 108 108 108 0
0.000000 0.118837 48.504974 107 107 107 0
0.118845 0.118845 48.508007 106 106 106 0
0.238272 0.119136 48.626901 107 107 107 0
0.357619 0.119206 48.655675 109 109 109 0
0.477175 0.119294 48.691288 109 109 109 0
0.598362 0.119672 48.845858 107 107 107 0
0.718586 0.119764 48.883385 111 111 111 0
0.838510 0.119787 48.892705 110 110 110 0
0.960113 0.120014 48.985341 110 110 110 0
1.081470 0.120163 49.046260 110 110 110 0
1.204746 0.120475 49.173314 109 109 109 0
1.326071 0.120552 49.204876 108 108 108 0
1.447695 0.120641 49.241319 105 105 105 0
1.573676 0.121052 49.408991 106 106 106 0
1.695183 0.121084 49.422237 108 108 108 0
1.817100 0.121140 49.444897 106 106 106 0
1.943251 0.121453 49.572732 110 110 110 0
2.069560 0.121739 49.689317 107 107 107 0
2.194662 0.121926 49.765580 108 108 108 0
2.324125 0.122322 49.927500 105 105 105 0
2.447220 0.122361 49.943274 106 106 106 0
2.575570 0.122646 50.059663 106 106 106 0
2.699072 0.122685 50.075554 109 109 109 0
2.829961 0.123042 50.221129 105 105 105 0
2.608381 0.108683 44.360218 106 106 106 0
3.083235 0.123329 50.338539 106 106 106 0
3.216141 0.123698 50.488865 107 107 107 0
3.354202 0.124230 50.705997 110 110 110 0
3.467454 0.123838 50.545980 108 108 108 0
3.602330 0.124218 50.701344 108 108 108 0
3.734683 0.124489 50.812015 110 110 110 0
3.390417 0.109368 44.640123 107 107 107 0
3.993038 0.124782 50.931606 109 109 109 0
4.130327 0.125161 51.086298 109 109 109 0
4.252864 0.125084 51.054785 107 107 107 0
3.833475 0.109528 44.705252 107 107 107 0
4.522389 0.125622 51.274249 106 106 106 0
4.653424 0.125768 51.333965 110 110 110 0
4.785383 0.125931 51.400461 110 110 110 0
4.906154 0.125799 51.346458 111 111 111 0
5.050233 0.126256 51.532989 112 112 112 0
5.177104 0.126271 51.539118 112 112 112 0
5.303126 0.126265 51.536691 113 113 113 0
5.440856 0.126532 51.645526 113 113 113 0
5.571371 0.126622 51.682476 114 114 114 0
5.697244 0.126605 51.675678 113 113 113 0
5.828818 0.126713 51.719769 116 116 116 0
5.965095 0.126917 51.802825 114 114 114 0
6.087425 0.126821 51.763821 114 114 114 0
6.226509 0.127072 51.865963 114 114 114 0
6.359295 0.127186 51.912609 117 117 117 0
6.484195 0.127141 51.894318 116 116 116 0
6.623261 0.127370 51.987921 113 113 113 0
6.752475 0.127405 52.002115 110 110 110 0
6.886310 0.127524 52.050719 111 111 111 0
7.018718 0.127613 52.086959 111 111 111 0
7.154721 0.127763 52.148115 115 115 115 0
7.298815 0.128049 52.265052 117 117 117 0
7.430808 0.128117 52.292806 120 120 120 0
7.553359 0.128023 52.254303 120 120 120 0
7.690069 0.128168 52.313398 120 120 120 0
7.820107 0.128198 52.325906 120 120 120 0
7.954769 0.128303 52.368458 117 117 117 0
8.097389 0.128530 52.461220 110 110 110 0
8.250001 0.128906 52.614799 97 97 97 0
8.388839 0.129059 52.677167 86 86 86 0
8.548717 0.129526 52.867761 81 81 81 0
9.829411 0.134649 54.958963 80 80 80 0
9.962293 0.134626 54.949219 95 95 95 0
-9.505672 0.237642 48.498327 120 120 120 0
-9.378866 0.237440 48.457070 120 120 120 0
-9.265809 0.237585 48.486703 120 120 120 0
-9.131743 0.237188 48.405743 120 120 120 0
-9.013895 0.237208 48.409748 119 119 119 0
-8.896703 0.237245 48.417433 119 119 119 0
-8.771909 0.237079 48.383392 121 121 121 0
-8.649502 0.236973 48.361766 121 121 121 0
-8.530587 0.236961 48.359338 120 120 120 0
-8.409608 0.236890 48.344971 120 120 120 0
-8.290249 0.236864 48.339643 119 119 119 0
-8.178117 0.237047 48.376911 121 121 121 0
-8.050426 0.236777 48.321884 119 119 119 0
-7.935520 0.236881 48.343102 121 121 121 0
-7.828757 0.237235 48.415319 118 118 118 0
-7.698335 0.236872 48.341194 119 119 119 0
-7.587525 0.237110 48.389827 118 118 118 0
-7.473016 0.237239 48.416040 119 119 119 0
-7.353027 0.237194 48.407022 118 118 118 0
-7.235897 0.237243 48.416842 120 120 120 0
-7.122532 0.237418 48.452601 118 118 118 0
-7.000865 0.237317 48.432136 117 117 117 0
-6.888999 0.237552 48.479938 120 120 120 0
-6.775007 0.237720 48.514194 119 119 119 0
-6.646411 0.237372 48.443226 120 120 120 0
-6.532706 0.237553 48.480191 119 119 119 0
-6.422569 0.237873 48.545492 119 119 119 0
-6.296569 0.237606 48.491095 122 122 122 0
-6.183447 0.237825 48.535688 120 120 120 0
-6.065259 0.237853 48.541490 120 120 120 0
-5.945885 0.237835 48.537835 118 118 118 0
-5.828976 0.237917 48.554569 119 119 119 0
-5.711539 0.237981 48.567508 120 120 120 0
-5.585636 0.237687 48.507478 119 119 119 0
-5.471673 0.237899 48.550780 114 114 114 0
-5.355675 0.238030 48.577552 117 117 117 0
-5.233294 0.237877 48.546322 124 124 124 0
-5.115335 0.237923 48.555627 124 124 124 0
-5.000266 0.238108 48.593452 126 126 126 0
-4.873244 0.237719 48.514126 124 124 124 0
-4.755899 0.237795 48.529577 126 126 126 0
-4.634800 0.237682 48.506545 125 125 125 0
-4.505748 0.237145 48.396859 123 123 123 0
-4.391079 0.237356 48.439927 122 122 122 0
-4.271274 0.237293 48.427142 120 120 120 0
-4.147684 0.237011 48.369498 121 121 121 0
-4.032327 0.237196 48.407287 121 121 121 0
-3.909796 0.236957 48.358637 119 119 119 0
-3.786628 0.236664 48.298821 119 119 119 0
-3.671002 0.236839 48.334462 118 118 118 0
-3.548126 0.236542 48.273826 119 119 119 0
-3.423619 0.236112 48.186054 119 119 119 0
-3.310856 0.236490 48.263201 120 120 120 0
-3.187189 0.236088 48.181238 119 119 119 0
-3.066454 0.235881 48.138989 117 117 117 0
-2.948464 0.235877 48.138193 117 117 117 0
-2.827996 0.235666 48.095169 118 118 118 0
-2.708364 0.235510 48.063249 116 116 116 0
-2.590225 0.235475 48.056127 115 115 115 0
-2.474594 0.235676 48.097061 116 116 116 0
-2.354576 0.235458 48.052574 116 116 116 0
-2.237956 0.235574 48.076390 116 116 116 0
-2.121062 0.235674 48.096655 115 115 115 0
-2.003101 0.235659 48.093650 115 115 115 0
-1.885418 0.235677 48.097386 114 114 114 0
-1.768671 0.235823 48.127101 115 115 115 0
-1.652615 0.236088 48.181186 115 115 115 0
-1.535570 0.236242 48.212571 113 113 113 0
-1.418062 0.236344 48.233388 113 113 113 0
-1.299947 0.236354 48.235524 114 114 114 0
-1.183138 0.236628 48.291342 113 113 113 0
-1.065173 0.236705 48.307175 115 115 115 0
-0.946717 0.236679 48.301870 113 113 113 0
-0.829326 0.236950 48.357221 113 113 113 0
-0.711240 0.237080 48.383680 114 114 114 0
-0.592287 0.236915 48.349958 110 110 110 0
-0.474563 0.237282 48.424805 111 111 111 0
-0.356476 0.237650 48.500099 110 110 110 0
-0.237458 0.237458 48.460733 109 109 109 0
-0.119066 0.238133 48.598474 106 106 106 0
0.000000 0.238452 48.663695 106 106 106 0
0.119295 0.238590 48.691777 107 107 107 0
0.239064 0.239064 48.788502 109 109 109 0
0.358771 0.239181 48.812430 107 107 107 0
0.479167 0.239584 48.894628 109 109 109 0
0.600407 0.240163 49.012799 109 109 109 0
0.720633 0.240211 49.022682 112 112 112 0
0.841046 0.240299 49.040578 107 107 107 0
0.963062 0.240765 49.135792 110 110 110 0
1.084851 0.241078 49.199607 110 110 110 0
1.207141 0.241428 49.271042 108 108 108 0
1.329391 0.241707 49.328037 108 108 108 0
1.294043 0.215674 44.015069 106 106 106 0
1.575457 0.242378 49.464913 109 109 109 0
1.702671 0.243239 49.640540 106 106 106 0
1.824300 0.243240 49.640821 103 103 103 0
1.951028 0.243878 49.771116 107 107 107 0
2.073953 0.243994 49.794778 105 105 105 0
1.949491 0.216610 44.206144 109 109 109 0
2.326088 0.244851 49.969660 108 108 108 0
2.455346 0.245535 50.109112 105 105 105 0
2.280498 0.217190 44.324542 108 108 108 0
2.708241 0.246204 50.245660 107 107 107 0
2.835519 0.246567 50.319772 108 108 108 0
2.968805 0.247400 50.489882 108 108 108 0
2.727048 0.218164 44.523239 105 105 105 0
2.838215 0.218324 44.555972 108 108 108 0
3.355061 0.248523 50.718985 107 107 107 0
3.058784 0.218485 44.588688 107 107 107 0
3.168024 0.218484 44.588660 106 106 106 0
3.746552 0.249770 50.973502 108 108 108 0
3.392890 0.218896 44.672675 109 109 109 0
4.006624 0.250414 51.104895 108 108 108 0
3.623476 0.219605 44.817262 107 107 107 0
4.262723 0.250748 51.173143 107 107 107 0
4.408406 0.251909 51.409982 109 109 109 0
3.951790 0.219544 44.804876 110 110 110 0
4.656105 0.251681 51.363546 112 112 112 0
4.795527 0.252396 51.509422 112 112 112 0
4.920496 0.252333 51.496559 114 114 114 0
5.059959 0.252998 51.632237 115 115 115 0
5.196163 0.253471 51.728849 114 114 114 0
5.312537 0.252978 51.628154 116 116 116 0
5.450418 0.253508 51.736290 118 118 118 0
5.581463 0.253703 51.776094 116 116 116 0
5.710267 0.253790 51.793810 116 116 116 0
5.844607 0.254113 51.859869 114 114 114 0
5.973177 0.254178 51.873006 115 115 115 0
6.110210 0.254592 51.957568 114 114 114 0
6.237806 0.254604 51.960063 116 116 116 0
6.377859 0.255114 52.064156 114 114 114 0
6.492707 0.254616 51.962438 111 111 111 0
6.639110 0.255350 52.112321 112 112 112 0
6.768743 0.255424 52.127399 114 114 114 0
6.899090 0.255522 52.147320 113 113 113 0
7.043175 0.256115 52.268458 118 118 118 0
7.158870 0.255674 52.178355 119 119 119 0
7.309694 0.256480 52.342956 121 121 121 0
7.426387 0.256082 52.261695 122 122 122 0
7.570460 0.256626 52.372608 122 122 122 0
7.698740 0.256625 52.372378 119 119 119 0
7.825312 0.256568 52.360738 118 118 118 0
7.963591 0.256890 52.426540 114 114 114 0
8.113660 0.257577 52.566636 104 104 104 0
8.253402 0.257919 52.636495 91 91 91 0
8.437079 0.259602 52.980085 87 87 87 0
8.615284 0.261069 53.279428 81 81 81 0
8.790789 0.262412 53.553388 81 81 81 0
9.829142 0.269292 54.957463 90 90 90 0
9.962360 0.269253 54.949585 102 102 102 0
-9.531167 0.357419 48.628403 119 119 119 0
-9.401533 0.357020 48.574182 118 118 118 0
-9.288481 0.357249 48.605344 119 119 119 0
-9.162403 0.356977 48.568261 118 118 118 0
-9.031844 0.356520 48.506146 120 120 120 0
-8.918254 0.356730 48.534715 119 119 119 0
-8.793478 0.356492 48.502359 120 120 120 0
-8.673752 0.356456 48.497355 120 120 120 0
-8.555759 0.356490 48.502035 119 119 119 0
-8.427810 0.356105 48.449610 121 121 121 0
-8.312935 0.356269 48.471926 121 121 121 0
-8.198052 0.356437 48.494839 121 121 121 0
-8.071888 0.356113 48.450709 121 121 121 0
-7.956482 0.356260 48.470803 118 118 118 0
-7.843566 0.356526 48.506900 119 119 119 0
-7.717381 0.356187 48.460792 120 120 120 0
-7.605203 0.356494 48.502568 120 120 120 0
-7.495854 0.356945 48.564005 119 119 119 0
-7.367349 0.356485 48.501309 118 118 118 0
-7.256329 0.356869 48.553559 119 119 119 0
-7.142156 0.357108 48.586094 117 117 117 0
-7.014182 0.356653 48.524261 118 118 118 0
-6.902333 0.357017 48.573769 119 119 119 0
-6.790626 0.357401 48.626039 118 118 118 0
-6.664569 0.357030 48.575575 118 118 118 0
-6.550369 0.357293 48.611274 118 118 118 0
-6.436327 0.357574 48.649490 120 120 120 0
-6.314980 0.357452 48.632882 119 119 119 0
-6.198328 0.357596 48.652493 119 119 119 0
-6.083302 0.357841 48.685889 120 120 120 0
-5.957899 0.357474 48.635914 119 119 119 0
-5.844677 0.357837 48.685360 118 118 118 0
-5.726300 0.357894 48.693024 118 118 118 0
-5.601843 0.357564 48.648222 120 120 120 0
-5.483716 0.357634 48.657635 126 126 126 0
-5.370805 0.358054 48.714786 130 130 130 0
-5.244394 0.357572 48.649298 128 128 128 0
-5.125612 0.357601 48.653175 126 126 126 0
-5.008203 0.357729 48.670583 126 126 126 0
-4.882871 0.357283 48.609965 125 125 125 0
-4.763714 0.357279 48.609331 124 124 124 0
-4.646301 0.357408 48.626903 122 122 122 0
-4.519453 0.356799 48.544072 121 121 121 0
-4.401703 0.356895 48.557120 120 120 120 0
-4.283477 0.356956 48.565500 121 121 121 0
-4.156685 0.356287 48.474466 121 121 121 0
-4.043245 0.356757 48.538360 120 120 120 0
-3.920425 0.356402 48.490108 121 121 121 0
-3.796123 0.355887 48.419939 121 121 121 0
-3.679861 0.356116 48.451101 120 120 120 0
-3.557422 0.355742 48.400302 119 119 119 0
-3.436397 0.355489 48.365892 118 118 118 0
-3.317694 0.355467 48.362887 118 118 118 0
-3.194437 0.354937 48.290804 118 118 118 0
-3.074896 0.354796 48.271529 119 119 119 0
-2.958771 0.355053 48.306468 118 118 118 0
-2.838701 0.354838 48.277229 116 116 116 0
-2.717775 0.354492 48.230263 115 115 115 0
-2.601071 0.354692 48.257354 117 117 117 0
-2.482798 0.354685 48.256512 115 115 115 0
-2.361373 0.354206 48.191278 116 116 116 0
-2.244395 0.354378 48.214707 116 116 116 0
-2.126738 0.354456 48.225358 114 114 114 0
-2.009219 0.354568 48.240545 115 115 115 0
-1.892103 0.354769 48.267943 113 113 113 0
-1.773623 0.354725 48.261853 115 115 115 0
-1.656123 0.354883 48.283468 114 114 114 0
-1.539163 0.355191 48.325367 113 113 113 0
-1.421695 0.355424 48.356982 113 113 113 0
-1.303094 0.355389 48.352272 113 113 113 0
-1.186385 0.355916 48.423888 114 114 114 0
-1.067704 0.355901 48.421938 112 112 112 0
-0.949592 0.356097 48.448580 114 114 114 0
-0.831279 0.356263 48.471105 110 110 110 0
-0.713301 0.356651 48.523883 110 110 110 0
-0.594570 0.356742 48.536354 113 113 113 0
-0.476734 0.357551 48.646340 111 111 111 0
-0.357729 0.357729 48.670555 112 112 112 0
-0.238443 0.357664 48.661742 109 109 109 0
-0.119590 0.358769 48.812050 109 109 109 0
0.000000 0.358713 48.804539 108 108 108 0
0.119735 0.359204 48.871308 109 109 109 0
0.239712 0.359568 48.920790 108 108 108 0
0.360178 0.360178 49.003817 110 110 110 0
0.480757 0.360568 49.056877 113 113 113 0
0.601932 0.361159 49.137305 109 109 109 0
0.722879 0.361439 49.175413 108 108 108 0
0.845246 0.362248 49.285495 110 110 110 0
0.966094 0.362285 49.290493 108 108 108 0
1.087735 0.362578 49.330379 108 108 108 0
1.211672 0.363502 49.455995 108 108 108 0
1.334462 0.363944 49.516221 107 107 107 0
1.296028 0.324007 44.082588 107 107 107 0
1.581153 0.364881 49.643739 109 109 109 0
1.707042 0.365795 49.767981 105 105 105 0
1.829706 0.365941 49.787932 108 108 108 0
1.956535 0.366850 49.911618 109 109 109 0
2.077501 0.366618 49.879987 110 110 110 0
1.957129 0.326188 44.379352 107 107 107 0
2.334376 0.368586 50.147712 109 109 109 0
2.462894 0.369434 50.263150 109 109 109 0
2.586350 0.369479 50.269197 109 109 109 0
2.722239 0.371214 50.505354 106 106 106 0
2.513930 0.327904 44.612778 107 107 107 0
2.621975 0.327747 44.591403 105 105 105 0
2.735100 0.328212 44.654699 107 107 107 0
2.843809 0.328132 44.643778 108 108 108 0
2.958054 0.328673 44.717375 107 107 107 0
3.072355 0.329181 44.786512 107 107 107 0
3.179199 0.328883 44.745939 108 108 108 0
3.754071 0.375407 51.075793 108 108 108 0
3.404757 0.329493 44.828923 106 106 106 0
4.019551 0.376833 51.269780 111 111 111 0
4.146776 0.376980 51.289742 110 110 110 0
4.278966 0.377556 51.368144 112 112 112 0
4.407890 0.377819 51.403961 112 112 112 0
4.540714 0.378393 51.482016 110 110 110 0
4.673507 0.378933 51.555506 112 112 112 0
4.806465 0.379458 51.626904 114 114 114 0
4.939609 0.379970 51.696593 116 116 116 0
5.064857 0.379864 51.682210 117 117 117 0
5.198013 0.380342 51.747270 115 115 115 0
5.326467 0.380462 51.763529 118 118 118 0
5.460990 0.380999 51.836635 114 114 114 0
5.595616 0.381519 51.907382 114 114 114 0
5.716700 0.381113 51.852155 115 115 115 0
5.860469 0.382205 52.000614 115 115 115 0
5.988801 0.382264 52.008690 116 116 116 0
6.120747 0.382547 52.047169 115 115 115 0
6.253657 0.382877 52.092100 113 113 113 0
6.388635 0.383318 52.152123 111 111 111 0
6.514268 0.383192 52.135001 112 112 112 0
6.660329 0.384250 52.278881 114 114 114 0
6.780386 0.383795 52.217069 116 116 116 0
6.913554 0.384086 52.256647 119 119 119 0
7.054045 0.384766 52.349129 121 121 121 0
7.178110 0.384542 52.318587 123 123 123 0
7.318967 0.385209 52.409356 124 124 124 0
7.447457 0.385213 52.409973 124 124 124 0
7.578741 0.385360 52.429892 123 123 123 0
7.717518 0.385876 52.500119 120 120 120 0
7.834008 0.385279 52.418926 114 114 114 0
7.976819 0.385975 52.513618 110 110 110 0
8.124406 0.386876 52.636253 97 97 97 0
8.258376 0.387111 52.668217 89 89 89 0
8.484058 0.391572 53.275089 85 85 85 0
8.631865 0.392357 53.381971 80 80 80 0
9.828474 0.403910 54.953728 94 94 94 0
9.962237 0.403874 54.948907 109 109 109 0
-9.565596 0.478280 48.804059 119 119 119 0
-9.431998 0.477570 48.731586 116 116 116 0
-9.315444 0.477715 48.746438 119 119 119 0
-9.190223 0.477414 48.715732 118 118 118 0
-9.058317 0.476754 48.648318 117 117 117 0
-8.940914 0.476849 48.658034 118 118 118 0
-8.816721 0.476579 48.630561 119 119 119 0
-8.693023 0.476330 48.605107 119 119 119 0
-8.578153 0.476564 48.628988 118 118 118 0
-8.451181 0.476123 48.583968 121 121 121 0
-8.329344 0.475962 48.567602 122 122 122 0
-8.217399 0.476371 48.609283 120 120 120 0
-8.091224 0.475954 48.566769 118 118 118 0
-7.976470 0.476207 48.592568 118 118 118 0
-7.864746 0.476651 48.637888 118 118 118 0
-7.740517 0.476340 48.606075 118 118 118 0
-7.620651 0.476291 48.601091 117 117 117 0
-7.514804 0.477130 48.686778 117 117 117 0
-7.390352 0.476797 48.652748 116 116 116 0
-7.273206 0.476932 48.666483 118 118 118 0
-7.160236 0.477349 48.709089 117 117 117 0
-7.039787 0.477274 48.701396 119 119 119 0
-6.916736 0.477016 48.675127 119 119 119 0
-6.808092 0.477761 48.751109 119 119 119 0
-6.682493 0.477321 48.706219 118 118 118 0
-6.568205 0.477688 48.743636 120 120 120 0
-6.455023 0.478150 48.790801 119 119 119 0
-6.326484 0.477470 48.721479 119 119 119 0
-6.213322 0.477948 48.770186 120 120 120 0
-6.095797 0.478102 48.785886 119 119 119 0
-5.971898 0.477752 48.750187 121 121 121 0
-5.855094 0.477967 48.772131 122 122 122 0
-5.736888 0.478074 48.783061 121 121 121 0
-5.614074 0.477794 48.754441 123 123 123 0
-5.493020 0.477654 48.740197 125 125 125 0
-5.377853 0.478031 48.778708 124 124 124 0
-5.255786 0.477799 48.754970 120 120 120 0
-5.136278 0.477793 48.754422 123 123 123 0
-5.014781 0.477598 48.734514 121 121 121 0
-4.894916 0.477553 48.729873 123 123 123 0
-4.772168 0.477217 48.695588 121 121 121 0
-4.658445 0.477789 48.754002 121 121 121 0
-4.532871 0.477144 48.688196 120 120 120 0
-4.412299 0.477005 48.674014 119 119 119 0
-4.294828 0.477203 48.694191 119 119 119 0
-4.168411 0.476390 48.611207 119 119 119 0
-4.050683 0.476551 48.627642 119 119 119 0
-3.930665 0.476444 48.616760 121 121 121 0
-3.805956 0.475745 48.545361 119 119 119 0
-3.687508 0.475808 48.551787 117 117 117 0
-3.568425 0.475790 48.549998 116 116 116 0
-3.444812 0.475147 48.484337 115 115 115 0
-3.327605 0.475372 48.507362 119 119 119 0
-3.206664 0.475061 48.475643 117 117 117 0
-3.086561 0.474855 48.454643 117 117 117 0
-2.968965 0.475034 48.472899 115 115 115 0
-2.845773 0.474296 48.397502 117 117 117 0
-2.725166 0.473942 48.361416 116 116 116 0
-2.608848 0.474336 48.401638 119 119 119 0
-2.488519 0.474004 48.367707 117 117 117 0
-2.368226 0.473645 48.331142 119 119 119 0
-2.253430 0.474406 48.408815 117 117 117 0
-2.132457 0.473879 48.355027 116 116 116 0
-2.012992 0.473645 48.331142 112 112 112 0
-1.898848 0.474712 48.439998 112 112 112 0
-1.778747 0.474333 48.401289 112 112 112 0
-1.661359 0.474674 48.436122 111 111 111 0
-1.544231 0.475148 48.484485 114 114 114 0
-1.425739 0.475246 48.494531 115 115 115 0
-1.307049 0.475291 48.499050 112 112 112 0
-1.191068 0.476427 48.615034 114 114 114 0
-1.071833 0.476370 48.609204 112 112 112 0
-0.951861 0.475931 48.564358 110 110 110 0
-0.835330 0.477331 48.707275 111 111 111 0
-0.715734 0.477156 48.689375 110 110 110 0
-0.596510 0.477208 48.694670 111 111 111 0
-0.477736 0.477736 48.748538 109 109 109 0
-0.358714 0.478286 48.804670 109 109 109 0
-0.239473 0.478945 48.871952 110 110 110 0
-0.119781 0.479124 48.890221 110 110 110 0
0.000000 0.479757 48.954752 110 110 110 0
0.120131 0.480522 49.032875 109 109 109 0
0.240435 0.480870 49.068377 110 110 110 0
0.360960 0.481280 49.110173 108 108 108 0
0.482094 0.482094 49.193281 110 110 110 0
0.602772 0.482217 49.205849 110 110 110 0
0.724354 0.482903 49.275795 106 106 106 0
0.845616 0.483209 49.307055 109 109 109 0
0.968787 0.484394 49.427911 109 109 109 0
1.090716 0.484763 49.465571 109 109 109 0
1.214218 0.485687 49.559921 107 107 107 0
1.340851 0.487582 49.753302 106 106 106 0
1.460822 0.486941 49.687829 110 110 110 0
1.583578 0.487255 49.719866 109 109 109 0
1.519364 0.434104 44.296315 106 106 106 0
1.629217 0.434458 44.332423 110 110 110 0
1.740540 0.435135 44.401530 108 108 108 0
2.085638 0.490738 50.075331 107 107 107 0
1.960866 0.435748 44.464084 105 105 105 0
2.341203 0.492885 50.294374 107 107 107 0
2.466343 0.493269 50.333536 109 109 109 0
2.597089 0.494684 50.477912 109 109 109 0
2.405341 0.437335 44.625999 103 103 103 0
2.851513 0.495915 50.603607 107 107 107 0
2.633167 0.438861 44.781753 107 107 107 0
2.738117 0.438099 44.703951 105 105 105 0
3.243704 0.499031 50.921571 109 109 109 0
3.383840 0.501310 51.154040 107 107 107 0
3.500413 0.500059 51.026435 107 107 107 0
3.625694 0.500096 51.030180 107 107 107 0
3.311490 0.441532 45.054289 107 107 107 0
3.415104 0.440659 44.965164 108 108 108 0
4.028016 0.503502 51.377752 110 110 110 0
4.162119 0.504499 51.479522 111 111 111 0
4.296080 0.505421 51.573591 111 111 111 0
4.432483 0.506570 51.690766 111 111 111 0
4.549103 0.505456 51.577136 113 113 113 0
4.681337 0.506091 51.641889 113 113 113 0
4.818066 0.507165 51.751518 114 114 114 0
4.945955 0.507277 51.763006 115 115 115 0
5.077747 0.507775 51.813748 116 116 116 0
5.208703 0.508166 51.853689 116 116 116 0
5.335923 0.508183 51.855423 115 115 115 0
5.469063 0.508750 51.913273 115 115 115 0
5.595329 0.508666 51.904721 116 116 116 0
5.737255 0.509978 52.038597 116 116 116 0
5.877458 0.511083 52.151356 115 115 115 0
6.000188 0.510654 52.107586 115 115 115 0
6.125729 0.510477 52.089529 114 114 114 0
6.267982 0.511672 52.211429 113 113 113 0
6.395240 0.511619 52.206043 114 114 114 0
6.534012 0.512472 52.293016 117 117 117 0
6.661671 0.512436 52.289409 119 119 119 0
6.795211 0.512846 52.331239 119 119 119 0
6.922800 0.512800 52.326530 121 121 121 0
7.061431 0.513559 52.403944 124 124 124 0
7.189166 0.513512 52.399167 124 124 124 0
7.328515 0.514282 52.477732 124 124 124 0
7.455755 0.514190 52.468364 124 124 124 0
7.579150 0.513841 52.432722 120 120 120 0
7.724278 0.514952 52.546107 118 118 118 0
7.850846 0.514810 52.531589 110 110 110 0
7.999884 0.516122 52.665462 102 102 102 0
8.161852 0.518213 52.878861 94 94 94 0
8.321099 0.520069 53.068236 87 87 87 0
7.165966 0.440983 44.998218 83 83 83 0
8.679570 0.526035 53.676997 83 83 83 0
8.860676 0.528996 53.979139 83 83 83 0
8.366261 0.464792 47.427785 78 78 78 0
9.828358 0.538540 54.953079 101 101 101 0
9.962375 0.538507 54.949667 112 112 112 0
10.095655 0.538435 54.942338 77 77 77 0
-9.594147 0.599634 48.949729 115 115 115 0
-9.467049 0.599180 48.912678 115 115 115 0
-9.343383 0.598935 48.892636 116 116 116 0
-9.222196 0.598844 48.885214 116 116 116 0
-9.091217 0.598106 48.825011 115 115 115 0
-8.968347 0.597890 48.807328 116 116 116 0
-8.848838 0.597894 48.807711 115 115 115 0
-8.718409 0.597151 48.747045 116 116 116 0
-8.604108 0.597507 48.776122 118 118 118 0
-8.478066 0.597047 48.738523 117 117 117 0
-8.348893 0.596349 48.681591 117 117 117 0
-8.236775 0.596868 48.723899 116 116 116 0
-8.114496 0.596654 48.706461 119 119 119 0
-7.992654 0.596467 48.691163 116 116 116 0
-7.880101 0.596977 48.732847 118 118 118 0
-7.761959 0.597074 48.740717 117 117 117 0
-7.638294 0.596742 48.713612 118 118 118 0
-7.532834 0.597844 48.803586 117 117 117 0
-7.409645 0.597552 48.779753 120 120 120 0
-7.290728 0.597601 48.783728 117 117 117 0
-7.175464 0.597955 48.812683 117 117 117 0
-7.053710 0.597772 48.797719 117 117 117 0
-6.935665 0.597902 48.808339 117 117 117 0
-6.822374 0.598454 48.853374 117 117 117 0
-6.702344 0.598424 48.850906 118 118 118 0
-6.586223 0.598748 48.877350 119 119 119 0
-6.468266 0.598913 48.890896 119 119 119 0
-6.347615 0.598832 48.884214 119 119 119 0
-6.225842 0.598639 48.868461 121 121 121 0
-6.108418 0.598864 48.886898 121 121 121 0
-5.982329 0.598233 48.835340 121 121 121 0
-5.868984 0.598876 48.887829 120 120 120 0
-5.751777 0.599143 48.909666 120 120 120 0
-5.627879 0.598711 48.874331 120 120 120 0
-5.510396 0.598956 48.894374 121 121 121 0
-5.389358 0.598818 48.883065 122 122 122 0
-5.264721 0.598264 48.837858 121 121 121 0
-5.149157 0.598739 48.876666 121 121 121 0
-5.028492 0.598630 48.867758 124 124 124 0
-4.903695 0.598012 48.817277 120 120 120 0
-4.783283 0.597910 48.809008 120 120 120 0
-4.668157 0.598482 48.855642 120 120 120 0
-4.542209 0.597659 48.788493 120 120 120 0
-4.423240 0.597735 48.794706 120 120 120 0
-4.303954 0.597771 48.797664 121 121 121 0
-4.179305 0.597044 48.738255 118 118 118 0
-4.064239 0.597682 48.790380 119 119 119 0
-3.942937 0.597415 48.768552 118 118 118 0
-3.819624 0.596816 48.719690 119 119 119 0
-3.700357 0.596832 48.720957 117 117 117 0
-3.580093 0.596682 48.708754 116 116 116 0
-3.459386 0.596446 48.689463 117 117 117 0
-3.340479 0.596514 48.695022 117 117 117 0
-3.220533 0.596395 48.685303 116 116 116 0
-3.095492 0.595287 48.594844 116 116 116 0
-2.978665 0.595733 48.631260 116 116 116 0
-2.857202 0.595250 48.591874 117 117 117 0
-2.734743 0.594509 48.531381 118 118 118 0
-2.619714 0.595390 48.603237 119 119 119 0
-2.498305 0.594834 48.557914 116 116 116 0
-2.375786 0.593947 48.485432 115 115 115 0
-2.259296 0.594552 48.534826 113 113 113 0
-2.140281 0.594522 48.532446 115 115 115 0
-2.020692 0.594321 48.516014 112 112 112 0
-1.904314 0.595098 48.579434 113 113 113 0
-1.785102 0.595034 48.574192 113 113 113 0
-1.666556 0.595198 48.587629 114 114 114 0
-1.550048 0.596172 48.667128 111 111 111 0
-1.429939 0.595808 48.637370 112 112 112 0
-1.312289 0.596495 48.693482 112 112 112 0
-1.194632 0.597316 48.760475 114 114 114 0
-1.075976 0.597764 48.797098 112 112 112 0
-0.954915 0.596822 48.720141 112 112 112 0
-0.837615 0.598296 48.840529 110 110 110 0
-0.718116 0.598430 48.851415 110 110 110 0
-0.598356 0.598356 48.845353 111 111 111 0
-0.479110 0.598888 48.888806 112 112 112 0
-0.360143 0.600239 48.999113 109 109 109 0
-0.240105 0.600263 49.001057 110 110 110 0
-0.120296 0.601482 49.100556 111 111 111 0
0.000000 0.601954 49.139123 110 110 110 0
0.120474 0.602368 49.172879 109 109 109 0
0.241266 0.603164 49.237906 111 111 111 0
0.361824 0.603041 49.227797 111 111 111 0
0.483488 0.604359 49.335464 111 111 111 0
0.605102 0.605102 49.396088 109 109 109 0
0.726638 0.605531 49.431138 111 111 111 0
0.849265 0.606618 49.519802 110 110 110 0
0.972351 0.607720 49.609757 107 107 107 0
1.094844 0.608247 49.652778 108 108 108 0
1.219259 0.609629 49.765673 107 107 107 0
1.342128 0.610058 49.800657 109 109 109 0
1.465337 0.610557 49.841379 109 109 109 0
1.589612 0.611389 49.909315 107 107 107 0
1.715543 0.612694 50.015830 108 108 108 0
1.634861 0.544954 44.486025 106 106 106 0
1.963870 0.613709 50.098724 108 108 108 0
2.092006 0.615296 50.228234 105 105 105 0
2.219799 0.616611 50.335568 107 107 107 0
2.077828 0.546797 44.636481 106 106 106 0
2.189068 0.547267 44.674855 107 107 107 0
2.604549 0.620131 50.622922 106 106 106 0
2.412605 0.548319 44.760758 107 107 107 0
2.527225 0.549397 44.848715 106 106 106 0
2.638271 0.549640 44.868559 106 106 106 0
2.751755 0.550351 44.926605 107 107 107 0
2.859578 0.549919 44.891339 108 108 108 0
3.383838 0.626637 51.154008 107 107 107 0
3.516894 0.628017 51.266681 109 109 109 0
3.198510 0.551467 45.017735 111 111 111 0
3.313814 0.552302 45.085900 106 106 106 0
3.418551 0.551379 45.010543 108 108 108 0
4.039640 0.631194 51.526023 112 112 112 0
4.167018 0.631366 51.540106 111 111 111 0
4.303975 0.632938 51.668371 111 111 111 0
4.434173 0.633453 51.710475 114 114 114 0
4.565616 0.634113 51.764353 115 115 115 0
4.692392 0.634107 51.763835 116 116 116 0
4.828471 0.635325 51.863272 115 115 115 0
4.961199 0.636051 51.922541 118 118 118 0
5.086732 0.635842 51.905432 118 118 118 0
5.217086 0.636230 51.937139 119 119 119 0
5.354161 0.637400 52.032660 116 116 116 0
5.485581 0.637858 52.070060 115 115 115 0
5.615912 0.638172 52.095658 114 114 114 0
5.747894 0.638655 52.135089 115 115 115 0
5.878829 0.639003 52.163519 115 115 115 0
6.006765 0.639018 52.164696 115 115 115 0
6.142979 0.639894 52.236215 116 116 116 0
6.284170 0.641242 52.346270 119 119 119 0
6.406004 0.640600 52.293908 117 117 117 0
6.544498 0.641617 52.376934 119 119 119 0
6.674330 0.641762 52.388773 121 121 121 0
6.803572 0.641846 52.395626 124 124 124 0
6.938851 0.642486 52.447855 122 122 122 0
7.069893 0.642718 52.466741 126 126 126 0
7.193759 0.642300 52.432644 123 123 123 0
7.332973 0.643243 52.509655 123 123 123 0
7.452002 0.642414 52.441954 123 123 123 0
7.589827 0.643206 52.506588 120 120 120 0
7.721799 0.643483 52.529245 115 115 115 0
7.854172 0.643785 52.553843 104 104 104 0
8.011346 0.646076 52.740920 96 96 96 0
8.168008 0.648255 52.918743 88 88 88 0
8.342209 0.651735 53.202863 87 87 87 0
8.505193 0.654246 53.407805 83 83 83 0
8.731359 0.661467 53.997274 81 81 81 0
8.918291 0.665544 54.330128 81 81 81 0
9.696008 0.673334 54.966030 84 84 84 0
9.828213 0.673165 54.952266 104 104 104 0
9.962373 0.673133 54.949660 111 111 111 0
10.096142 0.673076 54.944990 89 89 89 0
-9.625115 0.721884 49.107729 112 112 112 0
-9.500016 0.721520 49.083009 117 117 117 0
-9.382716 0.721747 49.098460 117 117 117 0
-9.252536 0.720977 49.046041 119 119 119 0
-9.123534 0.720279 48.998572 115 115 115 0
-8.998477 0.719878 48.971303 117 117 117 0
-8.874993 0.719594 48.951977 117 117 117 0
-8.749858 0.719166 48.922885 116 116 116 0
-8.634395 0.719533 48.947816 118 118 118 0
-8.504280 0.718672 48.889219 116 116 116 0
-8.373563 0.717734 48.825438 115 115 115 0
-8.260445 0.718300 48.863915 116 116 116 0
-8.142793 0.718482 48.876309 117 117 117 0
-8.011334 0.717433 48.804957 115 115 115 0
-7.901135 0.718285 48.862928 116 116 116 0
-7.777648 0.717937 48.839232 116 116 116 0
-7.662562 0.718365 48.868379 113 113 113 0
-7.551096 0.719152 48.921906 115 115 115 0
-7.431868 0.719213 48.926059 120 120 120 0
-7.307327 0.718753 48.894795 116 116 116 0
-7.194900 0.719490 48.944900 118 118 118 0
-7.074317 0.719422 48.940277 115 115 115 0
-6.956902 0.719679 48.957788 117 117 117 0
-6.837491 0.719736 48.961624 117 117 117 0
-6.717824 0.719767 48.963730 118 118 118 0
-6.601545 0.720168 48.991054 117 117 117 0
-6.487861 0.720873 49.039011 119 119 119 0
-6.362131 0.720241 48.996000 119 119 119 0
-6.242524 0.720291 48.999407 119 119 119 0
-6.122410 0.720284 48.998882 120 120 120 0
-6.001874 0.720225 48.994887 119 119 119 0
-5.885379 0.720659 49.024396 120 120 120 0
-5.761517 0.720190 48.992490 121 121 121 0
-5.641655 0.720211 48.993962 121 121 121 0
-5.521817 0.720237 48.995716 120 120 120 0
-5.403995 0.720533 49.015825 120 120 120 0
-5.278314 0.719770 48.963951 121 121 121 0
-5.157662 0.719674 48.957397 121 121 121 0
-5.037874 0.719696 48.958933 120 120 120 0
-4.920470 0.720069 48.984269 120 120 120 0
-4.800291 0.720044 48.982560 119 119 119 0
-4.679273 0.719888 48.971982 121 121 121 0
-4.557335 0.719579 48.950970 119 119 119 0
-4.437709 0.719629 48.954323 119 119 119 0
-4.317716 0.719619 48.953693 118 118 118 0
-4.192266 0.718674 48.889395 119 119 119 0
-4.072408 0.718660 48.888456 118 118 118 0
-3.952205 0.718583 48.883173 117 117 117 0
-3.829701 0.718069 48.848223 117 117 117 0
-3.709404 0.717949 48.840083 117 117 117 0
-3.589946 0.717989 48.842807 117 117 117 0
-3.470111 0.717954 48.840402 118 118 118 0
-3.349656 0.717783 48.828805 116 116 116 0
-3.226121 0.716916 48.769775 117 117 117 0
-3.107100 0.717023 48.777086 118 118 118 0
-2.988484 0.717236 48.791582 116 116 116 0
-2.870678 0.717670 48.821060 118 118 118 0
-2.744662 0.715999 48.707403 117 117 117 0
-2.626096 0.716208 48.721630 116 116 116 0
-2.506444 0.716127 48.716122 117 117 117 0
-2.382361 0.714708 48.619619 116 116 116 0
-2.266133 0.715621 48.681687 114 114 114 0
