ply
format ascii 1.0
element vertex 1100
property float x
property float y
property float z
property uchar red
property uchar green
property uchar blue
property uchar alpha
end_header
-6.512433 -0.801530 40.894400 121 121 121 0
-5.913277 -0.739160 37.712228 116 116 116 0
-5.820626 -0.739127 37.710564 120 120 120 0
-6.169985 -0.796127 40.618729 120 120 120 0
-6.143111 -0.805654 41.104794 110 110 110 0
-6.112935 -0.815058 41.584593 139 139 139 0
-6.029016 -0.817494 41.708863 152 152 152 0
-5.919925 -0.816541 41.660276 152 152 152 0
-5.807254 -0.815053 41.584347 146 146 146 0
-5.710208 -0.815744 41.619588 146 146 146 0
-5.599038 -0.814405 41.551300 142 142 142 0
-5.496417 -0.814284 41.545101 144 144 144 0
-5.400683 -0.815197 41.591703 148 148 148 0
-5.295986 -0.814767 41.569746 148 148 148 0
-5.181878 -0.812844 41.471611 145 145 145 0
-5.088769 -0.814203 41.540975 149 149 149 0
-4.984927 -0.813866 41.523759 147 147 147 0
-4.875682 -0.812614 41.459882 144 144 144 0
-4.766101 -0.811251 41.390371 141 141 141 0
-4.670921 -0.812334 41.445618 144 144 144 0
-4.559634 -0.810602 41.357222 141 141 141 0
-4.465021 -0.811822 41.419493 139 139 139 0
-4.381896 -0.815237 41.593702 146 146 146 0
-4.283024 -0.815814 41.623164 144 144 144 0
-4.167333 -0.813138 41.486638 144 144 144 0
-4.061366 -0.812273 41.442509 146 146 146 0
-3.953837 -0.811043 41.379769 141 141 141 0
-3.829243 -0.806156 41.130427 137 137 137 0
-3.735214 -0.807614 41.204789 130 130 130 0
-3.633336 -0.807408 41.194290 127 127 127 0
-3.529151 -0.806663 41.156285 126 126 126 0
-3.430238 -0.807115 41.179329 123 123 123 0
-3.344000 -0.810667 41.360550 117 117 117 0
-3.250444 -0.812611 41.459746 114 114 114 0
-3.154345 -0.814025 41.531869 123 123 123 0
-3.073485 -0.819596 41.816129 138 138 138 0
-2.977668 -0.821426 41.909468 145 145 145 0
-2.873722 -0.821063 41.890989 143 143 143 0
-2.776343 -0.822620 41.970422 136 136 136 0
-2.671624 -0.822038 41.940717 140 140 140 0
-2.576450 -0.824464 42.064486 152 152 152 0
-2.479859 -0.826620 42.174467 155 155 155 0
-2.375986 -0.826430 42.164789 155 155 155 0
-2.269700 -0.825345 42.109459 158 158 158 0
-2.165136 -0.824814 42.082333 156 156 156 0
-2.057589 -0.823036 41.991612 157 157 157 0
-1.953055 -0.822339 41.956071 151 151 151 0
-1.845329 -0.820146 41.844191 148 148 148 0
-1.740765 -0.819184 41.795088 144 144 144 0
-1.639015 -0.819508 41.811610 142 142 142 0
-1.534594 -0.818450 41.757656 146 146 146 0
-1.431343 -0.817910 41.730110 143 143 143 0
-1.329022 -0.817860 41.727533 134 134 134 0
-1.224024 -0.816016 41.633454 120 120 120 0
-1.120743 -0.815086 41.586005 111 111 111 0
-1.031688 -0.825351 42.109721 141 141 141 0
-0.930151 -0.826801 42.183704 140 140 140 0
-0.825178 -0.825178 42.100920 143 143 143 0
-0.719561 -0.822356 41.956915 141 141 141 0
-0.615055 -0.820073 41.840465 146 146 146 0
-0.511693 -0.818709 41.770862 148 148 148 0
-0.408765 -0.817530 41.710721 149 149 149 0
-0.306789 -0.818104 41.740015 143 143 143 0
-0.204597 -0.818389 41.754536 141 141 141 0
-0.102132 -0.817052 41.686341 139 139 139 0
0.000000 -0.818175 41.743638 139 139 139 0
0.102283 -0.818264 41.748174 140 140 140 0
0.204397 -0.817588 41.713652 143 143 143 0
0.306708 -0.817887 41.728920 145 145 145 0
0.409375 -0.818750 41.772959 147 147 147 0
0.511274 -0.818038 41.736637 147 147 147 0
0.612070 -0.816093 41.637384 149 149 149 0
0.715371 -0.817567 41.712585 149 149 149 0
0.817072 -0.817072 41.687346 145 145 145 0
0.917561 -0.815610 41.612763 144 144 144 0
1.020064 -0.816051 41.635252 140 140 140 0
1.124120 -0.817542 41.711327 131 131 131 0
1.082342 -0.721562 36.814369 126 126 126 0
1.172270 -0.721397 36.805963 127 127 127 0
1.263693 -0.722110 36.842351 127 127 127 0
1.537325 -0.819907 41.831978 126 126 126 0
1.447513 -0.723756 36.926340 129 129 129 0
1.749795 -0.823433 42.011882 131 131 131 0
1.856550 -0.825133 42.098644 133 133 133 0
1.725247 -0.726420 37.062238 133 133 133 0
2.069576 -0.827830 42.236246 132 132 132 0
2.170746 -0.826951 42.191375 126 126 126 0
2.274842 -0.827215 42.204861 125 125 125 0
2.381666 -0.828406 42.265588 122 122 122 0
2.485506 -0.828502 42.270505 122 122 122 0
2.585281 -0.827290 42.208664 124 124 124 0
2.694817 -0.829174 42.304813 121 121 121 0
2.793057 -0.827573 42.223088 129 129 129 0
2.887415 -0.824976 42.090593 134 134 134 0
2.993737 -0.825859 42.135639 135 135 135 0
3.095493 -0.825465 42.115545 136 136 136 0
3.196308 -0.824854 42.084376 140 140 140 0
3.293247 -0.823312 42.005697 139 139 139 0
3.391202 -0.822110 41.944367 138 138 138 0
3.496950 -0.822812 41.980191 138 138 138 0
3.595999 -0.821943 41.935848 131 131 131 0
3.698367 -0.821859 41.931600 125 125 125 0
3.796306 -0.820823 41.878726 127 127 127 0
3.905835 -0.822281 41.953110 125 125 125 0
4.010221 -0.822609 41.969867 125 125 125 0
4.112135 -0.822427 41.960558 127 127 127 0
4.205953 -0.820674 41.871115 129 129 129 0
4.321762 -0.823193 41.999633 127 127 127 0
4.421062 -0.822523 41.965465 129 129 129 0
4.529455 -0.823537 42.017209 134 134 134 0
4.624237 -0.822087 41.943196 135 135 135 0
4.720220 -0.820908 41.883048 134 134 134 0
4.820567 -0.820522 41.863366 126 126 126 0
4.928038 -0.821340 41.905083 114 114 114 0
4.283150 -0.699290 35.678051 95 95 95 0
5.133523 -0.821364 41.906313 99 99 99 0
5.290376 -0.829863 42.339944 123 123 123 0
5.436740 -0.836422 42.674567 139 139 139 0
5.571637 -0.841002 42.908255 144 144 144 0
5.673755 -0.840556 42.885522 141 141 141 0
5.773497 -0.839781 42.845986 141 141 141 0
5.880309 -0.840044 42.859396 136 136 136 0
5.986660 -0.840233 42.869027 135 135 135 0
6.063975 -0.836410 42.674000 125 125 125 0
6.163404 -0.835716 42.638564 123 123 123 0
6.247103 -0.832947 42.497302 124 124 124 0
6.358282 -0.833873 42.544544 121 121 121 0
6.472323 -0.835138 42.609106 122 122 122 0
6.590430 -0.836880 42.697961 128 128 128 0
6.685763 -0.835720 42.638793 130 130 130 0
6.793699 -0.836148 42.660592 134 134 134 0
6.902044 -0.836611 42.684254 135 135 135 0
7.009121 -0.836910 42.699487 138 138 138 0
7.114647 -0.837017 42.704962 140 140 140 0
7.216658 -0.836714 42.689490 138 138 138 0
7.324074 -0.837037 42.705968 137 137 137 0
7.420097 -0.836067 42.656491 132 132 132 0
7.537889 -0.837543 42.731795 124 124 124 0
7.206680 -0.789773 40.294549 94 94 94 0
7.291823 -0.788305 40.219654 81 81 81 0
7.981929 -0.851406 43.439069 105 105 105 0
8.157325 -0.858666 43.809477 127 127 127 0
8.299939 -0.862331 43.996497 116 116 116 0
8.580032 -0.880003 44.898126 124 124 124 0
8.337535 -0.844307 43.076906 143 143 143 0
-7.866551 -0.688323 40.135465 134 134 134 0
-7.774013 -0.688837 40.165398 132 132 132 0
-7.676773 -0.688941 40.171499 130 130 130 0
-7.595295 -0.690481 40.261306 131 131 131 0
-7.498189 -0.690623 40.269544 134 134 134 0
-7.403000 -0.690947 40.288434 131 131 131 0
-7.314781 -0.691939 40.346280 134 134 134 0
-7.223880 -0.692701 40.390719 134 134 134 0
-7.122451 -0.692461 40.376707 135 135 135 0
-7.032605 -0.693355 40.428890 132 132 132 0
-6.943650 -0.694365 40.487754 129 129 129 0
-6.851706 -0.695101 40.530647 124 124 124 0
-6.757481 -0.695623 40.561108 122 122 122 0
-6.676620 -0.697557 40.673895 123 123 123 0
-6.066946 -0.643464 37.519764 119 119 119 0
-5.983404 -0.644367 37.572393 120 120 120 0
-5.919714 -0.647469 37.753281 117 117 117 0
-5.813880 -0.645987 37.666861 109 109 109 0
-6.167295 -0.696307 40.601020 114 114 114 0
-6.164922 -0.707450 41.250732 104 104 104 0
-6.117207 -0.713674 41.613650 149 149 149 0
-6.026864 -0.715052 41.693974 149 149 149 0
-5.916477 -0.714058 41.636007 149 149 149 0
-5.798929 -0.712149 41.524731 145 145 145 0
-5.701086 -0.712636 41.553107 144 144 144 0
-5.595314 -0.712131 41.523670 142 142 142 0
-5.488189 -0.711432 41.482907 146 146 146 0
-5.393289 -0.712321 41.534763 142 142 142 0
-5.289593 -0.712061 41.519566 146 146 146 0
-5.177237 -0.710601 41.434469 145 145 145 0
-5.081049 -0.711347 41.477954 146 146 146 0
-4.971895 -0.710271 41.415201 144 144 144 0
-4.861857 -0.709021 41.342320 141 141 141 0
-4.760637 -0.709031 41.342919 142 142 142 0
-4.661773 -0.709400 41.364447 138 138 138 0
-4.551734 -0.708047 41.285566 135 135 135 0
-4.458676 -0.709335 41.360630 140 140 140 0
-4.367692 -0.711020 41.458872 141 141 141 0
-4.262061 -0.710344 41.419447 143 143 143 0
-4.148376 -0.708259 41.297924 138 138 138 0
-4.037434 -0.706551 41.198305 142 142 142 0
-3.921660 -0.703888 41.043009 144 144 144 0
-3.814998 -0.702763 40.977417 130 130 130 0
-3.718473 -0.703495 41.020112 125 125 125 0
-3.621396 -0.704160 41.058914 125 125 125 0
-3.520923 -0.704185 41.060330 124 124 124 0
-3.422686 -0.704671 41.088671 121 121 121 0
-3.330322 -0.706432 41.191369 116 116 116 0
-3.232866 -0.707189 41.235531 112 112 112 0
-3.139831 -0.708994 41.340765 116 116 116 0
-3.064389 -0.715024 41.692368 132 132 132 0
-2.976499 -0.718465 41.893013 146 146 146 0
-2.876872 -0.719218 41.936916 141 141 141 0
-2.777367 -0.720058 41.985900 145 145 145 0
-2.680393 -0.721644 42.078381 149 149 149 0
-2.578234 -0.721906 42.093618 150 150 150 0
-2.477369 -0.722566 42.132134 158 158 158 0
-2.376653 -0.723329 42.176633 161 161 161 0
-2.269630 -0.722155 42.108156 161 161 161 0
-2.167171 -0.722390 42.121883 158 158 158 0
-2.059252 -0.720738 42.025550 155 155 155 0
-1.954438 -0.720056 41.985781 156 156 156 0
-1.846949 -0.718258 41.880919 148 148 148 0
-1.741512 -0.717093 41.813023 146 146 146 0
-1.640249 -0.717609 41.843075 146 146 146 0
-1.536312 -0.716945 41.804396 148 148 148 0
-1.433286 -0.716643 41.786750 143 143 143 0
-1.331561 -0.716995 41.807265 137 137 137 0
-1.227456 -0.716016 41.750200 127 127 127 0
-1.120553 -0.713079 41.578955 116 116 116 0
-1.030081 -0.721056 42.044107 144 144 144 0
-0.929350 -0.722827 42.147374 146 146 146 0
-0.824200 -0.721175 42.051000 141 141 141 0
-0.718772 -0.718772 41.910932 141 141 141 0
-0.615115 -0.717634 41.844530 147 147 147 0
-0.511774 -0.716483 41.777441 147 147 147 0
-0.408958 -0.715676 41.730358 141 141 141 0
-0.307197 -0.716792 41.795478 139 139 139 0
-0.204828 -0.716898 41.801605 137 137 137 0
-0.102264 -0.715845 41.740229 135 135 135 0
0.000000 -0.716877 41.800392 139 139 139 0
0.102399 -0.716796 41.795704 140 140 140 0
0.204607 -0.716125 41.756549 142 142 142 0
0.306697 -0.715627 41.727494 144 144 144 0
0.409905 -0.717333 41.827017 146 146 146 0
0.511527 -0.716138 41.757319 146 146 146 0
0.613149 -0.715341 41.710817 146 146 146 0
0.715650 -0.715650 41.728882 146 146 146 0
0.817010 -0.714884 41.684196 146 146 146 0
0.918243 -0.714189 41.643696 145 145 145 0
1.021231 -0.714862 41.682899 143 143 143 0
1.124113 -0.715345 41.711063 133 133 133 0
1.081410 -0.630823 36.782665 128 128 128 0
1.173984 -0.632145 36.859780 126 126 126 0
1.264262 -0.632131 36.858942 125 125 125 0
1.354565 -0.632130 36.858910 127 127 127 0
1.643423 -0.718998 41.924068 126 126 126 0
1.749572 -0.720412 42.006528 127 127 127 0
1.632507 -0.634864 37.018292 128 128 128 0
1.962395 -0.722988 42.156712 130 130 130 0
1.817358 -0.636075 37.088930 125 125 125 0
1.916312 -0.638771 37.246096 124 124 124 0
2.003878 -0.637598 37.177702 123 123 123 0
2.097187 -0.638274 37.217165 126 126 126 0
2.193492 -0.639768 37.304279 131 131 131 0
2.609323 -0.730611 42.601200 138 138 138 0
2.713539 -0.730568 42.598735 135 135 135 0
2.805201 -0.727274 42.406670 133 133 133 0
2.895144 -0.723786 42.203264 139 139 139 0
2.998799 -0.723848 42.206878 142 142 142 0
3.102498 -0.723916 42.210859 139 139 139 0
3.202241 -0.723087 42.162494 141 141 141 0
3.299863 -0.721845 42.090083 139 139 139 0
3.400461 -0.721310 42.058890 137 137 137 0
3.498937 -0.720369 42.004043 132 132 132 0
3.604909 -0.720982 42.039753 127 127 127 0
3.694854 -0.718444 41.891767 125 125 125 0
3.798988 -0.718727 41.908302 124 124 124 0
3.904056 -0.719168 41.934002 125 125 125 0
4.018650 -0.721296 42.058082 126 126 126 0
4.123370 -0.721590 42.075199 133 133 133 0
4.230849 -0.722340 42.118955 134 134 134 0
4.322937 -0.720489 42.011048 138 138 138 0
4.441571 -0.723046 42.160140 141 141 141 0
4.538663 -0.722060 42.102623 141 141 141 0
4.632440 -0.720602 42.017592 141 141 141 0
4.725160 -0.719046 41.926887 137 137 137 0
4.830946 -0.719503 41.953506 126 126 126 0
4.935373 -0.719742 41.967458 114 114 114 0
4.265288 -0.609327 35.529259 100 100 100 0
5.163614 -0.722906 42.151948 109 109 109 0
5.295952 -0.726895 42.384572 122 122 122 0
5.418554 -0.729421 42.531823 133 133 133 0
5.566166 -0.735154 42.866122 137 137 137 0
5.681327 -0.736468 42.942763 139 139 139 0
5.787762 -0.736624 42.951851 139 139 139 0
5.887021 -0.735878 42.908316 130 130 130 0
5.983110 -0.734768 42.843609 123 123 123 0
6.073921 -0.733059 42.743990 126 126 126 0
6.180992 -0.733338 42.760236 120 120 120 0
6.302312 -0.735270 42.872872 130 130 130 0
6.392094 -0.733519 42.770783 133 133 133 0
6.498283 -0.733677 42.780004 134 134 134 0
6.605245 -0.733916 42.793940 138 138 138 0
6.699986 -0.732811 42.729500 138 138 138 0
6.805702 -0.732922 42.735964 139 139 139 0
6.915272 -0.733438 42.766063 141 141 141 0
7.017093 -0.733129 42.748051 141 141 141 0
7.119055 -0.732844 42.731424 141 141 141 0
7.217863 -0.732247 42.696615 141 141 141 0
7.327557 -0.732756 42.726278 137 137 137 0
7.419903 -0.731540 42.655379 131 131 131 0
6.954243 -0.676107 39.423148 118 118 118 0
7.353156 -0.705097 41.113535 97 97 97 0
7.465891 -0.706233 41.179761 95 95 95 0
8.055448 -0.751842 43.839172 128 128 128 0
8.173256 -0.752800 43.895036 131 131 131 0
8.300359 -0.754578 43.998720 128 128 128 0
7.721053 -0.692915 40.403210 129 129 129 0
8.162170 -0.723230 42.170863 144 144 144 0
-7.857586 -0.589319 40.089722 134 134 134 0
-7.766589 -0.589868 40.127043 131 131 131 0
-7.672482 -0.590191 40.149042 131 131 131 0
-7.586129 -0.591127 40.212716 132 132 132 0
-7.490229 -0.591334 40.226795 131 131 131 0
-7.393771 -0.591502 40.238208 131 131 131 0
-7.308948 -0.592617 40.314109 132 132 132 0
-7.218357 -0.593290 40.359838 132 132 132 0
-7.120983 -0.593415 40.368384 133 133 133 0
-7.025994 -0.593746 40.390885 135 135 135 0
-6.942080 -0.595035 40.478599 132 132 132 0
-6.849959 -0.595649 40.520315 127 127 127 0
-6.755860 -0.596105 40.551382 123 123 123 0
-6.666109 -0.596965 40.609863 120 120 120 0
-6.052530 -0.550230 37.430611 120 120 120 0
-5.988115 -0.552749 37.601975 117 117 117 0
-5.894749 -0.552633 37.594062 113 113 113 0
-5.783988 -0.550856 37.473197 112 112 112 0
-6.195575 -0.599572 40.787194 107 107 107 0
-6.166284 -0.606520 41.259847 109 109 109 0
-6.116785 -0.611679 41.610784 153 153 153 0
-6.022966 -0.612505 41.667009 148 148 148 0
-5.904024 -0.610761 41.548372 146 146 146 0
-5.789523 -0.609423 41.457377 141 141 141 0
-5.694888 -0.610167 41.507931 145 145 145 0
-5.583385 -0.609097 41.435140 138 138 138 0
-5.481383 -0.609043 41.431468 140 140 140 0
-5.386411 -0.609782 41.481791 142 142 142 0
-5.279339 -0.609155 41.439084 145 145 145 0
-5.172873 -0.608573 41.399548 142 142 142 0
-5.071854 -0.608623 41.402892 142 142 142 0
-4.961740 -0.607560 41.330609 144 144 144 0
-4.854721 -0.606840 41.281637 142 142 142 0
-4.752376 -0.606686 41.271175 144 144 144 0
-4.654266 -0.607078 41.297832 140 140 140 0
-4.544891 -0.605986 41.223504 139 139 139 0
-4.454612 -0.607447 41.322932 139 139 139 0
-4.357305 -0.607996 41.360271 141 141 141 0
-4.249050 -0.607007 41.293007 140 140 140 0
-4.132691 -0.604784 41.141772 139 139 139 0
-4.024597 -0.603690 41.067318 139 139 139 0
-3.912797 -0.601969 40.950253 137 137 137 0
-3.803020 -0.600477 40.848760 134 134 134 0
-3.706788 -0.601101 40.891204 130 130 130 0
-3.604499 -0.600750 40.867337 123 123 123 0
-3.511745 -0.602013 40.953298 124 124 124 0
-3.411192 -0.601975 40.950689 117 117 117 0
-3.329654 -0.605392 41.183108 118 118 118 0
-3.231214 -0.605853 41.214469 111 111 111 0
-3.143756 -0.608469 41.392446 116 116 116 0
-3.049528 -0.609906 41.490173 114 114 114 0
-2.970139 -0.614511 41.803499 134 134 134 0
-2.875537 -0.616187 41.917451 148 148 148 0
-2.779855 -0.617745 42.023500 149 149 149 0
-2.676548 -0.617665 42.018030 140 140 140 0
-2.572500 -0.617400 42.000000 145 145 145 0
-2.471134 -0.617784 42.026092 143 143 143 0
-2.369107 -0.618028 42.042724 151 151 151 0
-2.266948 -0.618259 42.058410 156 156 156 0
-2.165923 -0.618835 42.097637 158 158 158 0
-2.059774 -0.617932 42.036213 158 158 158 0
-1.956457 -0.617828 42.029145 158 158 158 0
-1.849259 -0.616420 41.933310 158 158 158 0
-1.741744 -0.614733 41.818589 155 155 155 0
-1.639747 -0.614905 41.830269 152 152 152 0
-1.537655 -0.615062 41.840958 148 148 148 0
-1.434106 -0.614617 41.810670 142 142 142 0
-1.332228 -0.614874 41.828192 140 140 140 0
-1.230635 -0.615318 41.858344 132 132 132 0
-1.122992 -0.612541 41.669466 116 116 116 0
-1.029353 -0.617612 42.014428 144 144 144 0
-0.928360 -0.618907 42.102514 145 145 145 0
-0.823636 -0.617727 42.022261 144 144 144 0
-0.719261 -0.616510 41.939427 147 147 147 0
-0.614858 -0.614858 41.827087 144 144 144 0
-0.512354 -0.614825 41.824813 140 140 140 0
-0.409184 -0.613776 41.753478 138 138 138 0
-0.307513 -0.615027 41.838564 136 136 136 0
-0.204893 -0.614680 41.814942 136 136 136 0
-0.102520 -0.615119 41.844814 136 136 136 0
0.000000 -0.615093 41.843050 139 139 139 0
0.102554 -0.615323 41.858730 137 137 137 0
0.204876 -0.614627 41.811339 139 139 139 0
0.307235 -0.614469 41.800640 142 142 142 0
0.410041 -0.615062 41.840924 141 141 141 0
0.511867 -0.614241 41.785070 145 145 145 0
0.613288 -0.613288 41.720243 144 144 144 0
0.716138 -0.613832 41.757299 143 143 143 0
0.817206 -0.612904 41.694163 144 144 144 0
0.918710 -0.612473 41.664834 145 145 145 0
1.020938 -0.612563 41.670941 142 142 142 0
1.124668 -0.613455 41.731638 134 134 134 0
1.082964 -0.541482 36.835525 128 128 128 0
1.175083 -0.542346 36.894290 127 127 127 0
1.265083 -0.542178 36.882885 125 125 125 0
1.356528 -0.542611 36.912334 128 128 128 0
1.448423 -0.543159 36.949572 127 127 127 0
1.541566 -0.544082 37.012388 125 125 125 0
1.632941 -0.544314 37.028135 128 128 128 0
1.727638 -0.545570 37.113604 125 125 125 0
1.818528 -0.545558 37.112809 122 122 122 0
1.907711 -0.545060 37.078934 120 120 120 0
2.005431 -0.546936 37.206513 129 129 129 0
2.403027 -0.626877 42.644665 130 130 130 0
2.513782 -0.628446 42.751397 135 135 135 0
2.619167 -0.628600 42.761903 140 140 140 0
2.720603 -0.627832 42.709627 140 140 140 0
2.815499 -0.625666 42.562339 140 140 140 0
2.910209 -0.623616 42.422877 137 137 137 0
3.011355 -0.623039 42.383603 137 137 137 0
3.113574 -0.622715 42.361548 137 137 137 0
3.206101 -0.620536 42.213316 136 136 136 0
3.309710 -0.620571 42.215687 136 136 136 0
3.412412 -0.620439 42.206701 133 133 133 0
3.504905 -0.618513 42.075695 128 128 128 0
3.604040 -0.617835 42.029625 127 127 127 0
3.705368 -0.617561 42.010979 127 127 127 0
3.812869 -0.618303 42.061432 127 127 127 0
3.920059 -0.618957 42.105894 131 131 131 0
4.026691 -0.619491 42.142242 135 135 135 0
4.132349 -0.619852 42.166824 140 140 140 0
4.238645 -0.620289 42.196563 145 145 145 0
4.336987 -0.619570 42.147594 142 142 142 0
4.443918 -0.620082 42.182420 144 144 144 0
4.536087 -0.618557 42.078730 144 144 144 0
4.636803 -0.618240 42.057173 142 142 142 0
4.733733 -0.617443 42.002952 138 138 138 0
4.837610 -0.617567 42.011379 126 126 126 0
4.940837 -0.617605 42.013923 109 109 109 0
4.243815 -0.519651 35.350397 101 101 101 0
5.165006 -0.619801 42.163313 109 109 109 0
5.302671 -0.623844 42.438341 121 121 121 0
5.412423 -0.624510 42.483693 128 128 128 0
5.567518 -0.630285 42.876537 135 135 135 0
5.689387 -0.632154 43.003683 142 142 142 0
5.804743 -0.633245 43.077873 141 141 141 0
5.891702 -0.631254 42.942438 128 128 128 0
5.980661 -0.629543 42.826069 121 121 121 0
6.089318 -0.629929 42.852341 131 131 131 0
6.206806 -0.631201 42.938819 135 135 135 0
6.309487 -0.630949 42.921683 140 140 140 0
6.415499 -0.631033 42.927397 139 139 139 0
6.514782 -0.630463 42.888624 140 140 140 0
6.614238 -0.629927 42.852206 141 141 141 0
6.722273 -0.630213 42.871637 141 141 141 0
6.810879 -0.628697 42.768470 142 142 142 0
6.919302 -0.629027 42.790980 142 142 142 0
7.024879 -0.629094 42.795485 142 142 142 0
7.119739 -0.628212 42.735527 141 141 141 0
7.220464 -0.627866 42.712005 141 141 141 0
7.330938 -0.628366 42.745992 138 138 138 0
7.434321 -0.628252 42.738263 128 128 128 0
7.109102 -0.592425 40.301034 104 104 104 0
7.346214 -0.603798 41.074723 94 94 94 0
7.313619 -0.592996 40.339874 116 116 116 0
7.591747 -0.607340 41.315631 143 143 143 0
8.025600 -0.633600 43.102039 133 133 133 0
8.129544 -0.633471 43.093264 133 133 133 0
7.718828 -0.593756 40.391567 133 133 133 0
8.336462 -0.633149 43.071363 146 146 146 0
-7.846639 -0.490415 40.033872 132 132 132 0
-7.752906 -0.490690 40.056347 131 131 131 0
-7.662322 -0.491174 40.095875 132 132 132 0
-7.578676 -0.492122 40.173209 131 131 131 0
-7.478923 -0.492034 40.166077 132 132 132 0
-7.388570 -0.492571 40.209903 131 131 131 0
-7.300562 -0.493281 40.267853 131 131 131 0
-7.212320 -0.493994 40.326081 133 133 133 0
-7.110300 -0.493771 40.307823 133 133 133 0
-7.019909 -0.494360 40.355901 133 133 133 0
-6.934986 -0.495356 40.437236 133 133 133 0
-6.839773 -0.495636 40.460058 127 127 127 0
-6.207683 -0.456447 37.261001 126 126 126 0
-6.660933 -0.497085 40.578331 119 119 119 0
-6.588457 -0.499126 40.744942 116 116 116 0
-5.984032 -0.460310 37.576339 115 115 115 0
-5.894749 -0.460527 37.594062 107 107 107 0
-5.743170 -0.455807 37.208745 110 110 110 0
-6.216436 -0.501326 40.924531 110 110 110 0
-6.173640 -0.506036 41.309064 115 115 115 0
-6.118391 -0.509866 41.621706 145 145 145 0
-6.016585 -0.509880 41.622866 145 145 145 0
-5.894934 -0.508184 41.484406 145 145 145 0
-5.784439 -0.507407 41.420977 142 142 142 0
-5.684298 -0.507527 41.430742 140 140 140 0
-5.574182 -0.506744 41.366842 137 137 137 0
-5.464862 -0.506006 41.306593 141 141 141 0
-5.373072 -0.506894 41.379065 139 139 139 0
-5.264295 -0.506182 41.320998 138 138 138 0
-5.158733 -0.505758 41.286378 142 142 142 0
-5.060196 -0.506020 41.307721 142 142 142 0
-4.951132 -0.505218 41.242253 146 146 146 0
-4.849400 -0.505146 41.236397 148 148 148 0
-4.750100 -0.505330 41.251413 146 146 146 0
-4.648301 -0.505250 41.244903 145 145 145 0
-4.545670 -0.505074 41.230570 141 141 141 0
-4.446117 -0.505241 41.244130 136 136 136 0
-4.340885 -0.504754 41.204414 139 139 139 0
-4.228182 -0.503355 41.090206 139 139 139 0
-4.122311 -0.502721 41.038439 136 136 136 0
-4.002399 -0.500300 40.840811 136 136 136 0
-3.901819 -0.500233 40.835363 137 137 137 0
-3.796500 -0.499539 40.778728 134 134 134 0
-3.696518 -0.499529 40.777917 131 131 131 0
-3.600065 -0.500009 40.817060 123 123 123 0
-3.504885 -0.500698 40.873296 127 127 127 0
-3.411862 -0.501744 40.958731 121 121 121 0
-3.319554 -0.502963 41.058176 111 111 111 0
-3.218324 -0.502863 41.050052 116 116 116 0
-2.838121 -0.457762 37.368288 116 116 116 0
-2.756050 -0.459342 37.497276 115 115 115 0
-2.955925 -0.509642 41.603455 117 117 117 0
-2.873779 -0.513175 41.891821 137 137 137 0
-2.776806 -0.514223 41.977421 149 149 149 0
-2.676514 -0.514714 42.017487 149 149 149 0
-2.567761 -0.513552 41.922637 143 143 143 0
-2.457808 -0.512043 41.799453 140 140 140 0
-2.357023 -0.512396 41.828272 144 144 144 0
-2.259437 -0.513508 41.919047 144 144 144 0
-2.160189 -0.514331 41.986181 154 154 154 0
-2.062431 -0.515608 42.090426 156 156 156 0
-1.956790 -0.514945 42.036313 151 151 151 0
-1.848965 -0.513601 41.926639 155 155 155 0
-1.742749 -0.512573 41.842721 156 156 156 0
-1.641403 -0.512939 41.872532 153 153 153 0
-1.536669 -0.512223 41.814117 152 152 152 0
-1.434779 -0.512421 41.830292 144 144 144 0
-1.332913 -0.512659 41.849717 143 143 143 0
-1.231765 -0.513236 41.896785 137 137 137 0
-1.124463 -0.511119 41.724036 124 124 124 0
-1.028735 -0.514368 41.989203 144 144 144 0
-0.927685 -0.515381 42.071883 148 148 148 0
-0.823761 -0.514851 42.028625 145 145 145 0
-0.719351 -0.513822 41.944687 143 143 143 0
-0.615525 -0.512938 41.872462 141 141 141 0
-0.512835 -0.512835 41.864091 141 141 141 0
-0.410231 -0.512789 41.860328 137 137 137 0
-0.307789 -0.512981 41.876029 137 137 137 0
-0.205209 -0.513023 41.879453 136 136 136 0
-0.102647 -0.513236 41.896783 139 139 139 0
0.000000 -0.513100 41.885729 139 139 139 0
0.102632 -0.513161 41.890710 140 140 140 0
0.205068 -0.512670 41.850609 141 141 141 0
0.307729 -0.512881 41.867846 142 142 142 0
0.410484 -0.513106 41.886165 142 142 142 0
0.512087 -0.512087 41.803048 144 144 144 0
0.614013 -0.511678 41.769625 144 144 144 0
0.716807 -0.512005 41.796340 143 143 143 0
0.817850 -0.511156 41.727057 145 145 145 0
0.919005 -0.510559 41.678250 143 143 143 0
1.021306 -0.510653 41.685968 141 141 141 0
1.125333 -0.511515 41.756343 137 137 137 0
1.083937 -0.451641 36.868617 126 126 126 0
1.330075 -0.511567 41.760590 125 125 125 0
1.265081 -0.451815 36.882819 125 125 125 0
1.538648 -0.512883 41.867965 126 126 126 0
1.446096 -0.451905 36.890206 130 130 130 0
1.541203 -0.453295 37.003674 123 123 123 0
1.631450 -0.453181 36.994328 120 120 120 0
1.720077 -0.452652 36.951178 121 121 121 0
1.822001 -0.455500 37.183693 124 124 124 0
1.914339 -0.455795 37.207759 121 121 121 0
2.013477 -0.457608 37.355783 130 130 130 0
2.409586 -0.523823 42.761059 139 139 139 0
2.524576 -0.525953 42.934967 145 145 145 0
2.622398 -0.524480 42.814657 146 146 146 0
2.726309 -0.524290 42.799196 138 138 138 0
2.826074 -0.523347 42.722206 138 138 138 0
2.916346 -0.520776 42.512334 136 136 136 0
3.023187 -0.521239 42.550139 140 140 140 0
3.118773 -0.519795 42.432282 135 135 135 0
3.209036 -0.517586 42.251950 136 136 136 0
3.314704 -0.517923 42.279393 135 135 135 0
3.412701 -0.517076 42.210272 134 134 134 0
3.521220 -0.517826 42.271547 131 131 131 0
3.617464 -0.516781 42.186165 130 130 130 0
3.724519 -0.517294 42.228105 129 129 129 0
3.828305 -0.517339 42.231721 133 133 133 0
3.928630 -0.516925 42.197961 135 135 135 0
4.040511 -0.518014 42.286874 141 141 141 0
4.141841 -0.517730 42.263684 144 144 144 0
4.241546 -0.517262 42.225450 149 149 149 0
4.340510 -0.516727 42.181823 148 148 148 0
4.445328 -0.516899 42.195802 149 149 149 0
4.539024 -0.515798 42.105975 148 148 148 0
4.640069 -0.515563 42.086798 143 143 143 0
4.740263 -0.515246 42.060893 142 142 142 0
4.844771 -0.515401 42.073569 125 125 125 0
4.949735 -0.515597 42.089586 107 107 107 0
4.257746 -0.434464 35.466443 108 108 108 0
5.170357 -0.517036 42.206996 112 112 112 0
5.296335 -0.519249 42.387633 122 122 122 0
5.421835 -0.521330 42.557573 127 127 127 0
5.544260 -0.523043 42.697420 126 126 126 0
5.678132 -0.525753 42.918606 142 142 142 0
5.806138 -0.527831 43.088221 141 141 141 0
5.874212 -0.524483 42.814956 124 124 124 0
5.991221 -0.525546 42.901692 133 133 133 0
6.114510 -0.527113 43.029627 135 135 135 0
6.225127 -0.527553 43.065563 135 135 135 0
6.317681 -0.526473 42.977423 140 140 140 0
6.420782 -0.526294 42.962743 140 140 140 0
6.513250 -0.525262 42.878538 139 139 139 0
6.622807 -0.525620 42.907721 141 141 141 0
6.728587 -0.525671 42.911906 142 142 142 0
6.825549 -0.525042 42.860589 144 144 144 0
6.927006 -0.524773 42.838629 143 143 143 0
7.030128 -0.524636 42.827461 144 144 144 0
7.116213 -0.523251 42.714362 140 140 140 0
7.230653 -0.523960 42.772277 139 139 139 0
7.338722 -0.524194 42.791381 136 136 136 0
7.435123 -0.523600 42.742874 126 126 126 0
6.958332 -0.483217 39.446324 100 100 100 0
7.354568 -0.503738 41.121431 100 100 100 0
7.872979 -0.531958 43.425146 122 122 122 0
7.755505 -0.517034 42.206830 141 141 141 0
7.362998 -0.484408 39.543491 135 135 135 0
7.623847 -0.495055 40.412651 128 128 128 0
7.888815 -0.505693 41.281081 143 143 143 0
8.336489 -0.527626 43.071503 147 147 147 0
-7.837240 -0.391862 39.985920 130 130 130 0
-7.748232 -0.392316 40.032199 132 132 132 0
-7.656665 -0.392650 40.066277 129 129 129 0
-7.569489 -0.393220 40.124511 130 130 130 0
-7.471563 -0.393240 40.126548 129 129 129 0
-7.383775 -0.393801 40.183810 131 131 131 0
-7.296999 -0.394432 40.248203 133 133 133 0
-7.203190 -0.394695 40.275033 134 134 134 0
-7.104973 -0.394721 40.277624 132 132 132 0
-7.016206 -0.395279 40.334614 132 132 132 0
-6.928865 -0.395935 40.401543 130 130 130 0
-6.831931 -0.396054 40.413668 128 128 128 0
-6.737990 -0.396352 40.444117 124 124 124 0
-6.128029 -0.365852 37.331885 121 121 121 0
-6.052434 -0.366814 37.430016 122 122 122 0
-5.959127 -0.366716 37.419952 114 114 114 0
-5.872791 -0.367049 37.454022 112 112 112 0
-5.756552 -0.365495 37.295442 105 105 105 0
-6.211585 -0.400747 40.892597 101 101 101 0
-6.177152 -0.405059 41.332565 106 106 106 0
-6.113104 -0.407540 41.585741 138 138 138 0
-6.006204 -0.407200 41.551051 141 141 141 0
-5.879482 -0.405482 41.375664 143 143 143 0
-5.775911 -0.405327 41.359907 139 139 139 0
-5.674289 -0.405306 41.357791 143 143 143 0
-5.565886 -0.404792 41.305279 137 137 137 0
-5.462680 -0.404643 41.290099 139 139 139 0
-5.361376 -0.404632 41.288996 138 138 138 0
-5.251809 -0.403985 41.222987 139 139 139 0
-5.146514 -0.403648 41.188587 142 142 142 0
-5.049482 -0.403959 41.220258 150 150 150 0
-4.944041 -0.403595 41.183182 153 153 153 0
-4.842927 -0.403577 41.181350 153 153 153 0
-4.746848 -0.403987 41.223172 152 152 152 0
-4.646747 -0.404065 41.231121 147 147 147 0
-4.537865 -0.403366 41.159773 146 146 146 0
-4.436764 -0.403342 41.157369 140 140 140 0
-4.325106 -0.402335 41.054639 139 139 139 0
-4.206324 -0.400602 40.877784 134 134 134 0
-4.094138 -0.399428 40.757974 139 139 139 0
-3.993429 -0.399343 40.749276 136 136 136 0
-3.894583 -0.399444 40.759630 137 137 137 0
-3.788905 -0.398832 40.697154 136 136 136 0
-3.690728 -0.398998 40.714043 128 128 128 0
-3.594423 -0.399380 40.753096 123 123 123 0
-3.501809 -0.400207 40.837420 125 125 125 0
-3.401626 -0.400191 40.835851 124 124 124 0
-3.007345 -0.364527 37.196604 118 118 118 0
-2.914750 -0.364344 37.177929 114 114 114 0
-2.839115 -0.366337 37.381372 112 112 112 0
-2.756992 -0.367599 37.510102 114 114 114 0
-2.927712 -0.403822 41.206364 110 110 110 0
-2.861889 -0.408841 41.718497 127 127 127 0
-2.770551 -0.410452 41.882862 153 153 153 0
-2.671901 -0.411062 41.945067 148 148 148 0
-2.558482 -0.409357 41.771141 146 146 146 0
-2.456212 -0.409369 41.772307 134 134 134 0
-2.350823 -0.408839 41.718237 131 131 131 0
-2.251809 -0.409420 41.777533 133 133 133 0
-2.154523 -0.410385 41.876047 145 145 145 0
-2.060038 -0.412008 42.041582 153 153 153 0
-1.958142 -0.412240 42.065344 156 156 156 0
-1.850578 -0.411240 41.963224 154 154 154 0
-1.743315 -0.410192 41.856293 157 157 157 0
-1.642381 -0.410595 41.897477 156 156 156 0
-1.538398 -0.410239 41.861161 154 154 154 0
-1.433553 -0.409587 41.794546 144 144 144 0
-1.332617 -0.410036 41.840412 142 142 142 0
-1.231764 -0.410588 41.896735 137 137 137 0
-1.124246 -0.408817 41.715983 124 124 124 0
-1.029433 -0.411773 42.017679 147 147 147 0
-0.928282 -0.412570 42.098978 151 151 151 0
-0.824461 -0.412231 42.064348 145 145 145 0
-0.720016 -0.411438 41.983444 144 144 144 0
-0.616407 -0.410938 41.932434 141 141 141 0
-0.513391 -0.410713 41.909504 139 139 139 0
-0.410635 -0.410635 41.901510 138 138 138 0
-0.308106 -0.410808 41.919207 137 137 137 0
-0.205540 -0.411080 41.946973 137 137 137 0
-0.102680 -0.410721 41.910317 140 140 140 0
0.000000 -0.411045 41.943380 142 142 142 0
0.102699 -0.410796 41.917970 142 142 142 0
0.205420 -0.410840 41.922470 142 142 142 0
0.307982 -0.410642 41.902274 142 142 142 0
0.410538 -0.410538 41.891681 142 142 142 0
0.512642 -0.410114 41.848333 143 143 143 0
0.614835 -0.409890 41.825477 144 144 144 0
0.716958 -0.409690 41.805142 145 145 145 0
0.818583 -0.409292 41.764454 143 143 143 0
0.919813 -0.408806 41.714881 142 142 142 0
1.022367 -0.408947 41.729253 140 140 140 0
1.125977 -0.409446 41.780211 132 132 132 0
1.227368 -0.409123 41.747211 123 123 123 0
1.178253 -0.362539 36.993824 126 126 126 0
1.436287 -0.410368 41.874249 127 127 127 0
1.540487 -0.410797 41.918011 128 128 128 0
1.448037 -0.362009 36.939710 127 127 127 0
1.539321 -0.362193 36.958479 126 126 126 0
1.636216 -0.363603 37.102393 122 122 122 0
1.718959 -0.361886 36.927152 116 116 116 0
1.812461 -0.362492 36.988995 116 116 116 0
1.910858 -0.363973 37.140100 122 122 122 0
2.014151 -0.366209 37.368295 135 135 135 0
2.415820 -0.420143 42.871700 141 141 141 0
2.522314 -0.420386 42.896489 145 145 145 0
2.630686 -0.420910 42.949968 141 141 141 0
2.733856 -0.420593 42.917677 141 141 141 0
2.834998 -0.420000 42.857106 144 144 144 0
2.928496 -0.418357 42.689452 141 141 141 0
3.025293 -0.417282 42.579777 139 139 139 0
3.128280 -0.417104 42.561627 136 136 136 0
3.223599 -0.415948 42.443698 133 133 133 0
3.325215 -0.415652 42.413460 136 136 136 0
3.430429 -0.415810 42.429549 131 131 131 0
3.533342 -0.415687 42.417068 131 131 131 0
3.628751 -0.414714 42.317792 132 132 132 0
3.737987 -0.415332 42.380802 136 136 136 0
3.829297 -0.413978 42.242656 138 138 138 0
3.934893 -0.414199 42.265232 142 142 142 0
4.047226 -0.415100 42.357150 144 144 144 0
4.148362 -0.414836 42.330221 148 148 148 0
4.245264 -0.414172 42.262454 150 150 150 0
4.344540 -0.413766 42.220992 151 151 151 0
4.445328 -0.413519 42.195802 147 147 147 0
4.540851 -0.412805 42.122920 149 149 149 0
4.640299 -0.412471 42.088876 147 147 147 0
4.740248 -0.412195 42.060762 141 141 141 0
4.846190 -0.412442 42.085891 126 126 126 0
4.949735 -0.412478 42.089586 110 110 110 0
5.049541 -0.412207 42.061986 105 105 105 0
5.174197 -0.413936 42.238340 111 111 111 0
5.287669 -0.414719 42.318277 114 114 114 0
5.422661 -0.417128 42.564055 123 123 123 0
5.538649 -0.418011 42.654211 130 130 130 0
5.660847 -0.419322 42.787957 125 125 125 0
5.780174 -0.420376 42.895538 131 131 131 0
5.855104 -0.418222 42.675686 123 123 123 0
5.997130 -0.420851 42.944001 130 130 130 0
6.131543 -0.422865 43.149495 137 137 137 0
6.247207 -0.423539 43.218315 138 138 138 0
6.327154 -0.421810 43.041865 142 142 142 0
6.431303 -0.421725 43.033142 144 144 144 0
6.525110 -0.420975 42.956614 142 142 142 0
6.641660 -0.421693 43.029870 142 142 142 0
6.731157 -0.420697 42.928295 142 142 142 0
6.840114 -0.420930 42.952051 145 145 145 0
6.932946 -0.420179 42.875360 142 142 142 0
7.034422 -0.419965 42.853620 140 140 140 0
7.122846 -0.418991 42.754178 139 139 139 0
7.230039 -0.419133 42.768641 139 139 139 0
7.343501 -0.419629 42.819247 133 133 133 0
7.441591 -0.419245 42.780058 119 119 119 0
7.111167 -0.395065 40.312738 99 99 99 0
7.359624 -0.403267 41.149699 96 96 96 0
7.874878 -0.425669 43.435621 128 128 128 0
8.072140 -0.430514 43.930014 138 138 138 0
8.191802 -0.431147 43.994641 132 132 132 0
8.298169 -0.431074 43.987114 137 137 137 0
7.888509 -0.404539 41.279484 144 144 144 0
8.160982 -0.413214 42.164725 149 149 149 0
-7.828084 -0.293553 39.939205 130 130 130 0
-7.737606 -0.293833 39.977300 128 128 128 0
-7.650349 -0.294244 40.033224 128 128 128 0
-7.557789 -0.294459 40.062492 130 130 130 0
-7.466271 -0.294721 40.098125 129 129 129 0
-7.375315 -0.295013 40.137770 130 130 130 0
-7.287693 -0.295447 40.196875 133 133 133 0
-7.199134 -0.295855 40.252359 132 132 132 0
-7.097535 -0.295731 40.235461 133 133 133 0
-7.010332 -0.296211 40.300842 132 132 132 0
-6.919577 -0.296553 40.347388 130 130 130 0
-6.824595 -0.296722 40.370272 128 128 128 0
-6.727528 -0.296803 40.381318 121 121 121 0
-6.650076 -0.297765 40.512188 121 121 121 0
-6.046832 -0.274856 37.395377 119 119 119 0
-5.960721 -0.275110 37.429960 115 115 115 0
-5.853205 -0.274369 37.329115 111 111 111 0
-5.720248 -0.272393 37.060239 106 106 106 0
-6.225729 -0.301245 40.985705 90 90 90 0
-6.173808 -0.303630 41.310188 88 88 88 0
-6.100810 -0.305040 41.502106 133 133 133 0
-5.985994 -0.304373 41.411236 144 144 144 0
-5.874642 -0.303861 41.341602 138 138 138 0
-5.769109 -0.303637 41.311197 140 140 140 0
-5.661118 -0.303274 41.261795 139 139 139 0
-5.548241 -0.302631 41.174327 138 138 138 0
-5.450374 -0.302799 41.197080 140 140 140 0
-5.351564 -0.302919 41.213431 139 139 139 0
-5.244791 -0.302584 41.167903 145 145 145 0
-5.143304 -0.302547 41.162895 149 149 149 0
-5.046609 -0.302797 41.196808 152 152 152 0
-4.942297 -0.302590 41.168651 157 157 157 0
-4.841671 -0.302604 41.170674 155 155 155 0
-4.747298 -0.303019 41.227079 152 152 152 0
-4.644566 -0.302907 41.211769 142 142 142 0
-4.531646 -0.302110 41.103368 144 144 144 0
-4.423036 -0.301571 41.030016 140 140 140 0
-4.297892 -0.299853 40.796319 140 140 140 0
-4.190599 -0.299329 40.724968 139 139 139 0
-4.087880 -0.299113 40.695666 137 137 137 0
-3.986967 -0.299023 40.683338 138 138 138 0
-3.886048 -0.298927 40.670312 139 139 139 0
-3.781080 -0.298506 40.613109 138 138 138 0
-3.682553 -0.298585 40.623861 130 130 130 0
-3.591294 -0.299275 40.717619 126 126 126 0
-3.491946 -0.299310 40.722400 128 128 128 0
-3.396832 -0.299720 40.778298 123 123 123 0
-3.304815 -0.300438 40.875877 117 117 117 0
-2.917939 -0.273557 37.218614 111 111 111 0
-2.827005 -0.273581 37.221916 112 112 112 0
-2.751089 -0.275109 37.429787 113 113 113 0
-2.934916 -0.303612 41.307753 114 114 114 0
-2.847649 -0.305105 41.510912 116 116 116 0
-2.767075 -0.307453 41.830306 140 140 140 0
-2.665674 -0.307578 41.847316 147 147 147 0
-2.557280 -0.306874 41.751513 149 149 149 0
-2.444499 -0.305562 41.573105 136 136 136 0
-2.342729 -0.305573 41.574609 129 129 129 0
-2.240379 -0.305506 41.565467 123 123 123 0
-2.150242 -0.307177 41.792846 140 140 140 0
-2.058126 -0.308719 42.002572 150 150 150 0
-1.953474 -0.308443 41.965076 157 157 157 0
-1.848822 -0.308137 41.923403 150 150 150 0
-1.742133 -0.307435 41.827915 154 154 154 0
-1.641160 -0.307717 41.866318 155 155 155 0
-1.537172 -0.307434 41.827821 154 154 154 0
-1.434726 -0.307441 41.828736 145 145 145 0
-1.332954 -0.307605 41.850995 138 138 138 0
-1.230105 -0.307526 41.840309 132 132 132 0
-1.125895 -0.307062 41.777182 115 115 115 0
-1.030035 -0.309010 42.042239 142 142 142 0
-0.928639 -0.309546 42.115167 148 148 148 0
-0.824346 -0.309130 42.058453 146 146 146 0
-0.720390 -0.308739 42.005253 147 147 147 0
-0.616561 -0.308281 41.942956 142 142 142 0
-0.513853 -0.308312 41.947156 139 139 139 0
-0.411050 -0.308288 41.943881 141 141 141 0
-0.308280 -0.308280 41.942814 138 138 138 0
-0.205714 -0.308571 41.982502 141 141 141 0
-0.102851 -0.308553 41.979945 141 141 141 0
0.000000 -0.308612 41.988058 144 144 144 0
0.102793 -0.308380 41.956499 143 143 143 0
0.205460 -0.308190 41.930656 143 143 143 0
0.308263 -0.308263 41.940571 142 142 142 0
0.410994 -0.308246 41.938201 142 142 142 0
0.513342 -0.308005 41.905500 144 144 144 0
0.615239 -0.307619 41.852969 145 145 145 0
0.717648 -0.307563 41.845373 145 145 145 0
0.819824 -0.307434 41.827779 144 144 144 0
0.921309 -0.307103 41.782711 142 142 142 0
1.022673 -0.306802 41.741763 139 139 139 0
1.126776 -0.307302 41.809858 133 133 133 0
1.228506 -0.307126 41.785913 127 127 127 0
1.332946 -0.307603 41.850726 130 130 130 0
1.267523 -0.271612 36.954024 134 134 134 0
1.541394 -0.308279 41.942696 132 132 132 0
1.450101 -0.271894 36.992361 127 127 127 0
1.542423 -0.272192 37.032976 124 124 124 0
1.632821 -0.272137 37.025414 116 116 116 0
1.719732 -0.271537 36.943749 121 121 121 0
1.805249 -0.270787 36.841825 115 115 115 0
1.919087 -0.274155 37.300047 124 124 124 0
2.017672 -0.275137 37.433609 141 141 141 0
2.122176 -0.276806 37.660628 144 144 144 0
2.528533 -0.316067 43.002263 147 147 147 0
2.635192 -0.316223 43.023539 146 146 146 0
2.741834 -0.316365 43.042919 144 144 144 0
2.846248 -0.316250 43.027184 144 144 144 0
2.937685 -0.314752 42.823402 142 142 142 0
3.048933 -0.315407 42.912492 141 141 141 0
3.137464 -0.313746 42.686591 139 139 139 0
3.241496 -0.313693 42.679339 135 135 135 0
3.340014 -0.313126 42.602217 139 139 139 0
3.436734 -0.312430 42.507530 133 133 133 0
3.541635 -0.312497 42.516627 136 136 136 0
3.634171 -0.311500 42.381003 141 141 141 0
3.740244 -0.311687 42.406390 139 139 139 0
3.844961 -0.311754 42.415450 139 139 139 0
3.945870 -0.311516 42.383139 146 146 146 0
4.051222 -0.311632 42.398971 144 144 144 0
4.152918 -0.311469 42.376711 144 144 144 0
4.246752 -0.310738 42.277274 149 149 149 0
4.344554 -0.310325 42.221124 148 148 148 0
4.448849 -0.310385 42.229229 149 149 149 0
4.540851 -0.309603 42.122920 149 149 149 0
4.640400 -0.309360 42.089797 149 149 149 0
4.742810 -0.309314 42.083496 140 140 140 0
4.846190 -0.309331 42.085891 128 128 128 0
4.952207 -0.309513 42.110600 115 115 115 0
5.064862 -0.310094 42.189604 113 113 113 0
5.182976 -0.310979 42.310008 110 110 110 0
5.287481 -0.311028 42.316776 117 117 117 0
5.409818 -0.312105 42.463251 120 120 120 0
5.527005 -0.312849 42.564532 123 123 123 0
5.647462 -0.313748 42.686789 123 123 123 0
5.719816 -0.311990 42.447613 118 118 118 0
5.849269 -0.313354 42.633155 115 115 115 0
5.989727 -0.315249 42.890995 140 140 140 0
6.136832 -0.317422 43.186716 147 147 147 0
6.255546 -0.318079 43.276003 142 142 142 0
6.352532 -0.317627 43.214504 145 145 145 0
6.437038 -0.316576 43.071514 144 144 144 0
6.536395 -0.316277 43.030905 146 146 146 0
6.643822 -0.316372 43.043875 144 144 144 0
6.748322 -0.316328 43.037768 141 141 141 0
6.847750 -0.316050 43.000000 142 142 142 0
6.935297 -0.315241 42.889900 141 141 141 0
7.044137 -0.315409 42.912808 140 140 140 0
7.139665 -0.314985 42.855131 141 141 141 0
7.245052 -0.315002 42.857451 138 138 138 0
7.349592 -0.314983 42.854766 132 132 132 0
6.861442 -0.289920 39.444911 114 114 114 0
7.112219 -0.296342 40.318701 100 100 100 0
7.203471 -0.296033 40.276608 96 96 96 0
7.322064 -0.296840 40.386456 130 130 130 0
7.755708 -0.310228 42.207934 140 140 140 0
7.856142 -0.310111 42.191954 135 135 135 0
8.124179 -0.316526 43.064826 140 140 140 0
8.348101 -0.321081 43.684464 145 145 145 0
8.336894 -0.316591 43.073595 147 147 147 0
-7.823348 -0.195584 39.915042 129 129 129 0
-7.730889 -0.195719 39.942591 129 129 129 0
-7.641092 -0.195925 39.984782 129 129 129 0
-7.554053 -0.196209 40.042688 129 129 129 0
-7.460106 -0.196319 40.065014 130 130 130 0
-7.366900 -0.196451 40.091974 132 132 132 0
-7.282011 -0.196811 40.165534 132 132 132 0
-7.185515 -0.196863 40.176211 133 133 133 0
-7.092616 -0.197017 40.207576 132 132 132 0
-7.001809 -0.197234 40.251846 133 133 133 0
-6.915259 -0.197579 40.322210 131 131 131 0
-6.819176 -0.197657 40.338219 129 129 129 0
-6.727089 -0.197856 40.378684 124 124 124 0
-6.646145 -0.198392 40.488242 122 122 122 0
-6.037172 -0.182945 37.335634 117 117 117 0
-5.947989 -0.183015 37.350006 118 118 118 0
-5.811188 -0.181600 37.061151 111 111 111 0
-6.271040 -0.199081 40.628699 99 99 99 0
-6.245718 -0.201475 41.117304 70 70 70 0
-6.177240 -0.202532 41.333155 97 97 97 0
-6.088791 -0.202960 41.420345 137 137 137 0
-5.976244 -0.202585 41.343787 136 136 136 0
-5.853458 -0.201843 41.192526 136 136 136 0
-5.756232 -0.201973 41.218994 135 135 135 0
-5.644325 -0.201583 41.139397 136 136 136 0
-5.537908 -0.201378 41.097644 138 138 138 0
-5.440766 -0.201510 41.124461 136 136 136 0
-5.343430 -0.201639 41.150788 141 141 141 0
-5.235612 -0.201370 41.095856 146 146 146 0
-5.138405 -0.201506 41.123688 145 145 145 0
-5.045534 -0.201821 41.188035 152 152 152 0
-4.941035 -0.201675 41.158140 155 155 155 0
-4.843284 -0.201803 41.184387 151 151 151 0
-4.741893 -0.201783 41.180135 144 144 144 0
-4.640858 -0.201776 41.178865 143 143 143 0
-4.521637 -0.200962 41.012584 143 143 143 0
-4.400656 -0.200030 40.822409 138 138 138 0
-4.289698 -0.199521 40.718534 140 140 140 0
-4.183572 -0.199218 40.656677 136 136 136 0
-4.078882 -0.198970 40.606088 136 136 136 0
-3.979537 -0.198977 40.607525 136 136 136 0
-3.877422 -0.198842 40.580034 134 134 134 0
-3.773535 -0.198607 40.532063 130 130 130 0
-3.680109 -0.198925 40.596900 125 125 125 0
-3.585500 -0.199194 40.651928 127 127 127 0
-3.485904 -0.199195 40.651944 127 127 127 0
-3.390833 -0.199461 40.706277 126 126 126 0
-3.299777 -0.199986 40.813565 113 113 113 0
-3.210301 -0.200644 40.947714 113 113 113 0
-2.817848 -0.181797 37.101352 116 116 116 0
-2.736336 -0.182422 37.229068 108 108 108 0
-2.658884 -0.183371 37.422715 111 111 111 0
-2.840510 -0.202894 41.406855 103 103 103 0
-2.757024 -0.204224 41.678366 135 135 135 0
-2.658478 -0.204498 41.734345 146 146 146 0
-2.549433 -0.203955 41.623391 151 151 151 0
-2.443221 -0.203602 41.551380 136 136 136 0
-2.340656 -0.203535 41.537826 126 126 126 0
-2.233286 -0.203026 41.433871 125 125 125 0
-2.146826 -0.204460 41.726457 131 131 131 0
-2.050649 -0.205065 41.849986 149 149 149 0
-1.946732 -0.204919 41.820240 140 140 140 0
-1.845467 -0.205052 41.847323 144 144 144 0
-1.741978 -0.204939 41.824209 148 148 148 0
-1.640416 -0.205052 41.847337 150 150 150 0
-1.536055 -0.204807 41.797419 153 153 153 0
-1.433458 -0.204780 41.791787 147 147 147 0
-1.331725 -0.204881 41.812395 139 139 139 0
-1.229156 -0.204859 41.808038 125 125 125 0
-1.122241 -0.204044 41.641579 119 119 119 0
-1.031237 -0.206247 42.091304 145 145 145 0
-0.928585 -0.206352 42.112698 143 143 143 0
-0.824540 -0.206135 42.068375 146 146 146 0
-0.720894 -0.205970 42.034637 143 143 143 0
-0.617551 -0.205850 42.010285 143 143 143 0
-0.514705 -0.205882 42.016707 142 142 142 0
-0.411337 -0.205669 41.973176 142 142 142 0
-0.308537 -0.205692 41.977880 142 142 142 0
-0.205887 -0.205887 42.017795 142 142 142 0
-0.102870 -0.205740 41.987655 143 143 143 0
0.000000 -0.205941 42.028712 144 144 144 0
0.102859 -0.205718 41.983180 145 145 145 0
0.205886 -0.205886 42.017502 145 145 145 0
0.308420 -0.205613 41.961855 146 146 146 0
0.411555 -0.205778 41.995450 145 145 145 0
0.513637 -0.205455 41.929574 144 144 144 0
0.616141 -0.205380 41.914383 145 145 145 0
0.718566 -0.205305 41.898888 143 143 143 0
0.820315 -0.205079 41.852810 142 142 142 0
0.922019 -0.204893 41.814906 144 144 144 0
1.025074 -0.205015 41.839751 140 140 140 0
1.127363 -0.204975 41.831664 136 136 136 0
1.229852 -0.204975 41.831687 131 131 131 0
1.333880 -0.205212 41.880052 132 132 132 0
1.436979 -0.205283 41.894427 131 131 131 0
1.358592 -0.181146 36.968481 128 128 128 0
1.450156 -0.181269 36.993770 123 123 123 0
1.546846 -0.181982 37.139148 119 119 119 0
1.635342 -0.181705 37.082595 119 119 119 0
1.724296 -0.181505 37.041814 116 116 116 0
1.824645 -0.182465 37.237655 123 123 123 0
1.924544 -0.183290 37.406105 133 133 133 0
2.300877 -0.209171 42.687889 142 142 142 0
2.416446 -0.210126 42.882804 146 146 146 0
2.524543 -0.210379 42.934408 149 149 149 0
2.638052 -0.211044 43.070229 148 148 148 0
2.746329 -0.211256 43.113489 147 147 147 0
2.847578 -0.210932 43.047281 145 145 145 0
2.946361 -0.210454 42.949873 141 141 141 0
3.038573 -0.209557 42.766684 139 139 139 0
3.150108 -0.210007 42.858609 134 134 134 0
3.239150 -0.208977 42.648452 138 138 138 0
3.347831 -0.209239 42.701928 135 135 135 0
3.456254 -0.209470 42.748963 137 137 137 0
3.558089 -0.209299 42.714154 135 135 135 0
3.651016 -0.208629 42.577449 140 140 140 0
3.762511 -0.209028 42.658850 141 141 141 0
3.853513 -0.208298 42.509801 134 134 134 0
3.957952 -0.208313 42.512912 140 140 140 0
4.061121 -0.208263 42.502578 143 143 143 0
4.151068 -0.207553 42.357840 140 140 140 0
4.248480 -0.207243 42.294474 140 140 140 0
4.350176 -0.207151 42.275763 142 142 142 0
4.452609 -0.207098 42.264913 148 148 148 0
4.545135 -0.206597 42.162658 148 148 148 0
4.640326 -0.206237 42.089125 146 146 146 0
4.746520 -0.206370 42.116419 141 141 141 0
4.849291 -0.206353 42.112820 130 130 130 0
4.954977 -0.206457 42.134155 123 123 123 0
5.058524 -0.206470 42.136806 117 117 117 0
5.175674 -0.207027 42.250404 118 118 118 0
5.282106 -0.207141 42.273759 113 113 113 0
5.403111 -0.207812 42.410602 120 120 120 0
5.514730 -0.208103 42.470006 125 125 125 0
5.620606 -0.208171 42.483797 123 123 123 0
5.735646 -0.208569 42.565091 122 122 122 0
5.817135 -0.207755 42.398947 117 117 117 0
5.951484 -0.208824 42.617143 124 124 124 0
6.127019 -0.211277 43.117656 146 146 146 0
6.259697 -0.212193 43.304719 148 148 148 0
6.364767 -0.212159 43.297737 148 148 148 0
6.448281 -0.211419 43.146744 149 149 149 0
6.540057 -0.210970 43.055016 145 145 145 0
6.638914 -0.210759 43.012077 147 147 147 0
6.745119 -0.210785 43.017342 149 149 149 0
6.858206 -0.211022 43.065659 146 146 146 0
6.950168 -0.210611 42.981866 143 143 143 0
7.042702 -0.210230 42.904065 146 146 146 0
7.145459 -0.210161 42.889910 146 146 146 0
7.247223 -0.210064 42.870293 140 140 140 0
7.360612 -0.210303 42.919021 131 131 131 0
7.466952 -0.210337 42.925854 112 112 112 0
6.801916 -0.188942 38.559616 97 97 97 0
7.359604 -0.201633 41.149591 101 101 101 0
7.906077 -0.213678 43.607707 130 130 130 0
