ply
format ascii 1.0
element vertex 1134
property float x
property float y
property float z
property uchar red
property uchar green
property uchar blue
property uchar alpha
end_header
-3.097236 3.774756 39.505558 118 118 118 0
-3.004820 3.780257 39.563133 115 115 115 0
-2.916986 3.792082 39.686888 113 113 113 0
-2.823916 3.797680 39.745475 111 111 111 0
-2.731743 3.804927 39.821323 103 103 103 0
-2.647339 3.823934 40.020244 85 85 85 0
-2.472746 3.709118 38.818613 78 78 78 0
-2.423773 3.781086 39.571808 77 77 77 0
-2.371338 3.853424 40.328875 92 92 92 0
-2.290757 3.884328 40.652304 101 101 101 0
-2.202343 3.904153 40.859790 101 101 101 0
-2.112289 3.922823 41.055186 91 91 91 0
-2.009817 3.919143 41.016676 85 85 85 0
-1.936280 3.974470 41.595706 93 93 93 0
-1.853410 4.015722 42.027441 126 126 126 0
-1.752068 4.019450 42.066460 116 116 116 0
-1.653071 4.029360 42.170176 109 109 109 0
-1.549957 4.029889 42.175706 112 112 112 0
-1.446034 4.028238 42.158434 113 113 113 0
-1.341034 4.023103 42.104685 115 115 115 0
-1.238269 4.024373 42.117980 116 116 116 0
-1.132771 4.016189 42.032324 118 118 118 0
-1.030038 4.017149 42.042379 119 119 119 0
-0.927022 4.017094 42.041798 116 116 116 0
-0.823104 4.012634 41.995120 116 116 116 0
-0.721187 4.018044 42.051747 117 117 117 0
-0.617736 4.015286 42.022882 120 120 120 0
-0.514763 4.015151 42.021467 120 120 120 0
-0.412227 4.019218 42.064030 121 121 121 0
-0.309196 4.019548 42.067484 120 120 120 0
-0.206065 4.018267 42.054072 119 119 119 0
-0.103101 4.020923 42.081874 116 116 116 0
0.000000 4.029753 42.174287 111 111 111 0
0.103375 4.031627 42.193901 103 103 103 0
0.207276 4.041891 42.301319 99 99 99 0
0.311851 4.054064 42.428720 99 99 99 0
0.416153 4.057488 42.464548 97 97 97 0
0.520555 4.060326 42.494250 89 89 89 0
0.861163 4.198168 43.936870 73 73 73 0
0.972037 4.212158 44.083289 120 120 120 0
1.080126 4.212493 44.086793 126 126 126 0
1.188542 4.213923 44.101762 125 125 125 0
1.296851 4.214765 44.110574 125 125 125 0
1.404025 4.212074 44.082409 125 125 125 0
1.511804 4.211455 44.075931 124 124 124 0
1.619244 4.210035 44.061067 126 126 126 0
1.728029 4.212071 44.082379 126 126 126 0
1.833887 4.207152 44.030897 126 126 126 0
1.941038 4.205582 44.014468 119 119 119 0
2.050087 4.208073 44.040532 108 108 108 0
2.157615 4.207350 44.032963 104 104 104 0
2.269397 4.214594 44.108779 104 104 104 0
2.380944 4.220765 44.173362 113 113 113 0
2.492587 4.226560 44.234016 126 126 126 0
2.604027 4.231543 44.286165 129 129 129 0
2.712346 4.231259 44.283197 134 134 134 0
2.819074 4.228611 44.255475 134 134 134 0
2.929670 4.231745 44.288277 135 135 135 0
3.036477 4.229378 44.263511 133 133 133 0
3.141447 4.224704 44.214592 135 135 135 0
3.250149 4.225194 44.219713 127 127 127 0
3.366973 4.235870 44.331447 108 108 108 0
3.481704 4.243327 44.409492 86 86 86 0
3.162480 3.737476 39.115395 79 79 79 0
4.115013 4.457931 46.655480 112 112 112 0
4.238065 4.467149 46.751955 135 135 135 0
4.356063 4.470696 46.789073 136 136 136 0
4.466022 4.466022 46.740152 139 139 139 0
4.572241 4.457934 46.655515 136 136 136 0
4.687896 4.459218 46.668947 135 135 135 0
4.797021 4.454376 46.618276 133 133 133 0
4.904438 4.448212 46.553758 130 130 130 0
5.025232 4.454183 46.616251 133 133 133 0
5.127784 4.444080 46.510515 135 135 135 0
5.234223 4.437711 46.443864 136 136 136 0
5.352506 4.441441 46.482898 135 135 135 0
5.462085 4.437944 46.446303 136 136 136 0
5.571658 4.434585 46.411142 134 134 134 0
5.687297 4.436092 46.426918 134 134 134 0
5.804619 4.438827 46.455537 135 135 135 0
5.912229 4.434171 46.406818 132 132 132 0
6.030887 4.437823 46.445031 122 122 122 0
6.167763 4.454495 46.619521 89 89 89 0
6.301556 4.468376 46.764794 98 98 98 0
6.444900 4.488412 46.974490 111 111 111 0
6.573501 4.497658 47.071254 105 105 105 0
6.892296 4.555925 47.681054 88 88 88 0
7.046090 4.579958 47.932582 91 91 91 0
-7.982094 3.991047 40.724969 104 104 104 0
-7.974529 4.037736 41.201390 128 128 128 0
-7.897698 4.050102 41.327567 147 147 147 0
-7.781749 4.042467 41.249666 147 147 147 0
-7.646093 4.024259 41.063871 150 150 150 0
-7.524190 4.012901 40.947972 144 144 144 0
-7.376996 3.987566 40.689445 144 144 144 0
-7.252049 3.973725 40.548217 144 144 144 0
-7.099402 3.944112 40.246043 138 138 138 0
-6.965020 3.923955 40.040355 137 137 137 0
-6.834447 3.905399 39.851005 139 139 139 0
-6.708089 3.888747 39.681093 140 140 140 0
-6.589985 3.876462 39.555730 143 143 143 0
-6.481713 3.869679 39.486523 144 144 144 0
-6.368008 3.859399 39.381619 147 147 147 0
-6.267780 3.857096 39.358118 147 147 147 0
-6.172596 3.857872 39.366046 147 147 147 0
-6.063351 3.849747 39.283130 148 148 148 0
-5.959199 3.844644 39.231065 148 148 148 0
-5.865365 3.846141 39.246336 148 148 148 0
-5.756394 3.837596 39.159140 146 146 146 0
-5.655640 3.834332 39.125837 148 148 148 0
-5.556908 3.832350 39.105614 148 148 148 0
-5.454385 3.827639 39.057537 149 149 149 0
-5.354567 3.824691 39.027456 149 149 149 0
-5.255458 3.822151 39.001543 151 151 151 0
-5.157016 3.820012 38.979713 151 151 151 0
-5.056334 3.816101 38.939808 153 153 153 0
-4.959644 3.815111 38.929701 154 154 154 0
-4.861726 3.813118 38.909370 154 154 154 0
-4.768638 3.814911 38.927659 151 151 151 0
-4.672856 3.814577 38.924251 151 151 151 0
-4.576715 3.813929 38.917645 151 151 151 0
-4.481096 3.813699 38.915295 149 149 149 0
-4.386010 3.813922 38.917568 146 146 146 0
-4.290500 3.813778 38.916099 142 142 142 0
-4.199022 3.817293 38.951964 135 135 135 0
-4.106099 3.819627 38.975784 129 129 129 0
-4.012416 3.821348 38.993348 128 128 128 0
-3.922486 3.826816 39.049140 126 126 126 0
-3.830920 3.830920 39.091017 125 125 125 0
-3.740417 3.836325 39.146177 128 128 128 0
-3.647948 3.839945 39.183111 126 126 126 0
-3.560346 3.849022 39.275736 127 127 127 0
-3.465299 3.850332 39.289099 126 126 126 0
-3.370992 3.852562 39.311861 123 123 123 0
-3.281157 3.860185 39.389643 123 123 123 0
-3.193265 3.870625 39.496171 122 122 122 0
-3.097351 3.871689 39.507027 120 120 120 0
-3.004732 3.877073 39.561974 116 116 116 0
-2.916266 3.888354 39.677082 112 112 112 0
-2.825836 3.897705 39.772504 113 113 113 0
-2.734836 3.906909 39.866413 103 103 103 0
-2.644594 3.917918 39.978752 92 92 92 0
-2.319904 3.569084 36.419221 82 82 82 0
-2.414170 3.862672 39.415023 82 82 82 0
-2.365251 3.942085 40.225361 85 85 85 0
-2.296437 3.993804 40.753099 98 98 98 0
-2.210620 4.019309 41.013357 93 93 93 0
-2.106462 4.012308 40.941915 88 88 88 0
-1.996313 3.992627 40.741087 80 80 80 0
-1.930763 4.064763 41.477177 92 92 92 0
-1.851228 4.113841 41.977969 119 119 119 0
-1.754911 4.129203 42.134726 104 104 104 0
-1.660678 4.151696 42.364241 115 115 115 0
-1.557452 4.153205 42.379639 119 119 119 0
-1.454873 4.156780 42.416126 123 123 123 0
-1.348969 4.150674 42.353817 125 125 125 0
-1.241600 4.138668 42.231302 126 126 126 0
-1.137696 4.137077 42.215073 127 127 127 0
-1.032575 4.130300 42.145913 123 123 123 0
-0.928766 4.127848 42.120901 120 120 120 0
-0.825809 4.129047 42.133137 122 122 122 0
-0.722940 4.131086 42.153941 120 120 120 0
-0.619687 4.131244 42.155549 122 122 122 0
-0.515919 4.127349 42.115809 123 123 123 0
-0.413425 4.134255 42.186275 124 124 124 0
-0.309925 4.132336 42.166691 119 119 119 0
-0.206605 4.132096 42.164244 111 111 111 0
-0.103456 4.138220 42.226736 101 101 101 0
0.000000 4.150486 42.351896 97 97 97 0
0.104030 4.161185 42.461071 95 95 95 0
0.208530 4.170609 42.557236 99 99 99 0
0.313547 4.180627 42.659457 102 102 102 0
0.418742 4.187418 42.728751 100 100 100 0
0.865659 4.328297 44.166301 111 111 111 0
0.974262 4.330053 44.184213 127 127 127 0
1.081823 4.327293 44.156055 126 126 126 0
1.191533 4.332849 44.212746 128 128 128 0
1.300083 4.333611 44.220524 125 125 125 0
1.406348 4.327224 44.155350 128 128 128 0
1.514834 4.328098 44.164265 128 128 128 0
1.623304 4.328811 44.171546 129 129 129 0
1.729998 4.324994 44.132590 127 127 127 0
1.837635 4.323847 44.120887 118 118 118 0
1.946840 4.326311 44.146034 111 111 111 0
2.056281 4.329012 44.173591 107 107 107 0
2.166591 4.333182 44.216141 111 111 111 0
2.280119 4.343084 44.317181 118 118 118 0
2.389600 4.344727 44.333951 125 125 125 0
2.497634 4.343712 44.323587 133 133 133 0
2.610124 4.350206 44.389855 135 135 135 0
2.714314 4.342903 44.315334 138 138 138 0
2.821262 4.340404 44.289833 135 135 135 0
2.932174 4.343961 44.326136 134 134 134 0
3.041247 4.344638 44.333046 132 132 132 0
3.145236 4.338257 44.267929 129 129 129 0
3.254629 4.339505 44.280665 116 116 116 0
3.370961 4.349627 44.383949 92 92 92 0
3.005137 3.756422 38.330834 82 82 82 0
3.598344 4.361629 44.506423 78 78 78 0
3.791669 4.460787 45.518232 85 85 85 0
4.002259 4.574010 46.673576 118 118 118 0
4.125296 4.583662 46.772064 135 135 135 0
4.240942 4.584802 46.783693 140 140 140 0
4.359501 4.588949 46.826006 142 142 142 0
4.467092 4.581633 46.751360 141 141 141 0
4.569365 4.569365 46.626170 137 137 137 0
4.691677 4.577246 46.706589 135 135 135 0
4.799478 4.570931 46.642158 131 131 131 0
4.906672 4.564346 46.574958 134 134 134 0
5.028016 4.570924 46.642079 132 132 132 0
5.132158 4.561918 46.550187 131 131 131 0
5.234964 4.552143 46.450436 136 136 136 0
5.357455 4.559536 46.525876 136 136 136 0
5.467192 4.555994 46.489731 136 136 136 0
5.574674 4.550754 46.436266 134 134 134 0
5.688921 4.551137 46.440173 134 134 134 0
5.810236 4.557048 46.500491 134 134 134 0
5.907059 4.543892 46.366243 130 130 130 0
6.037205 4.556381 46.493685 116 116 116 0
6.169219 4.569792 46.630530 86 86 86 0
6.297037 4.579663 46.731255 97 97 97 0
6.442293 4.601638 46.955485 109 109 109 0
6.570902 4.611159 47.052644 102 102 102 0
6.890087 4.671245 47.665767 91 91 91 0
7.053174 4.702116 47.980779 84 84 84 0
-7.966284 4.082720 40.644304 97 97 97 0
-7.963102 4.132749 41.142350 110 110 110 0
-7.892135 4.148430 41.298456 146 146 146 0
-7.777332 4.141177 41.226250 147 147 147 0
-7.643080 4.123240 41.047690 147 147 147 0
-7.518679 4.110211 40.917981 146 146 146 0
-7.379897 4.088862 40.705444 145 145 145 0
-7.252799 4.073490 40.552413 142 142 142 0
-7.106744 4.046896 40.287665 138 138 138 0
-6.962224 4.020439 40.024285 136 136 136 0
-6.829479 4.000123 39.822033 138 138 138 0
-6.698631 3.980346 39.625144 140 140 140 0
-6.582879 3.969089 39.513078 144 144 144 0
-6.479355 3.964978 39.472157 145 145 145 0
-6.366407 3.954889 39.371719 146 146 146 0
-6.267689 3.953465 39.357542 148 148 148 0
-6.167788 3.951239 39.335382 148 148 148 0
-6.059213 3.943297 39.256317 149 149 149 0
-5.960162 3.941398 39.237407 149 149 149 0
-5.863496 3.941038 39.233829 147 147 147 0
-5.755821 3.933144 39.155246 148 148 148 0
-5.653506 3.928708 39.111079 146 146 146 0
-5.555796 3.927373 39.097787 148 148 148 0
-5.454314 3.923279 39.057032 149 149 149 0
-5.353636 3.919627 39.020673 148 148 148 0
-5.253268 3.916073 38.985292 151 151 151 0
-5.154464 3.913575 38.960427 152 152 152 0
-5.057081 3.912081 38.945557 153 153 153 0
-4.958799 3.909822 38.923068 154 154 154 0
-4.860613 3.907552 38.900463 154 154 154 0
-4.766726 3.908715 38.912049 153 153 153 0
-4.669303 3.906968 38.894651 151 151 151 0
-4.572667 3.905820 38.883221 150 150 150 0
-4.478604 3.906867 38.893649 149 149 149 0
-4.384836 3.908224 38.907154 147 147 147 0
-4.286990 3.905924 38.884263 142 142 142 0
-4.196904 3.910752 38.932323 137 137 137 0
-4.103594 3.912729 38.952008 131 131 131 0
-4.010356 3.914872 38.973337 129 129 129 0
-3.921007 3.921007 39.034416 127 127 127 0
-3.829096 3.924823 39.072403 126 126 126 0
-3.740038 3.931835 39.142212 125 125 125 0
-3.647083 3.935010 39.173822 125 125 125 0
-3.559845 3.944694 39.270220 125 125 125 0
-3.464357 3.945518 39.278429 125 125 125 0
-3.369618 3.947267 39.295836 125 125 125 0
-3.279492 3.954682 39.369656 122 122 122 0
-3.193654 3.967874 39.500983 118 118 118 0
-3.098640 3.970132 39.523466 118 118 118 0
-3.003316 3.972128 39.543330 115 115 115 0
-2.916607 3.986029 39.681722 115 115 115 0
-2.824101 3.992695 39.748082 112 112 112 0
-2.733813 4.003083 39.851497 105 105 105 0
-2.644580 4.015843 39.978527 93 93 93 0
-2.314466 3.649735 36.333843 83 83 83 0
-2.378419 4.063133 40.449304 84 84 84 0
-2.301270 4.102264 40.838869 90 90 90 0
-1.991838 3.712061 36.954318 90 90 90 0
-2.102295 4.104481 40.860938 80 80 80 0
-2.012987 4.126624 41.081370 79 79 79 0
-1.933602 4.172509 41.538169 91 91 91 0
-1.842365 4.196498 41.776981 93 93 93 0
-1.748924 4.217993 41.990973 85 85 85 0
-1.666262 4.269796 42.506684 111 111 111 0
-1.564447 4.276156 42.569994 119 119 119 0
-1.460175 4.276228 42.570713 126 126 126 0
-1.354905 4.273162 42.540187 128 128 128 0
-1.246563 4.259091 42.400107 129 129 129 0
-1.140248 4.250016 42.309769 127 127 127 0
-1.035493 4.245521 42.265012 122 122 122 0
-0.931199 4.242127 42.231232 121 121 121 0
-0.827759 4.242263 42.232584 119 119 119 0
-0.724892 4.245795 42.267748 120 120 120 0
-0.621214 4.244959 42.259428 120 120 120 0
-0.517439 4.243001 42.239931 117 117 117 0
-0.414916 4.252889 42.338368 115 115 115 0
-0.312102 4.265389 42.462808 106 106 106 0
-0.208530 4.274867 42.557161 105 105 105 0
-0.104513 4.285033 42.658369 106 106 106 0
0.000000 4.294835 42.755953 107 107 107 0
0.104779 4.295935 42.766900 109 109 109 0
0.209463 4.293993 42.747564 109 109 109 0
0.314787 4.302083 42.828106 106 106 106 0
0.421135 4.316632 42.972940 93 93 93 0
0.755558 4.425409 44.055834 92 92 92 0
0.868099 4.449010 44.290787 129 129 129 0
0.976017 4.446298 44.263790 128 128 128 0
1.083510 4.442392 44.224906 124 124 124 0
1.193063 4.446871 44.269494 126 126 126 0
1.302059 4.448703 44.287736 126 126 126 0
1.409112 4.444124 44.242150 130 130 130 0
1.517876 4.445207 44.252932 131 131 131 0
1.626163 4.444846 44.249343 130 130 130 0
1.731897 4.437986 44.181048 127 127 127 0
1.840628 4.439162 44.192754 117 117 117 0
1.950606 4.443048 44.231437 114 114 114 0
2.060994 4.447408 44.274844 119 119 119 0
2.169830 4.448151 44.282243 126 126 126 0
2.284754 4.460710 44.407264 130 130 130 0
2.392370 4.458507 44.385338 136 136 136 0
2.500368 4.457178 44.372101 136 136 136 0
2.611877 4.461957 44.419683 137 137 137 0
2.716895 4.455708 44.357472 136 136 136 0
2.824752 4.454416 44.344608 133 133 133 0
2.934058 4.455421 44.354619 132 132 132 0
3.044647 4.458233 44.382610 128 128 128 0
3.149616 4.452906 44.329574 117 117 117 0
3.268101 4.466405 44.463958 93 93 93 0
3.033783 3.887034 38.696211 86 86 86 0
3.196246 3.971094 39.533039 83 83 83 0
3.832128 4.621096 46.003939 98 98 98 0
4.004873 4.691422 46.704055 132 132 132 0
4.131959 4.705842 46.847606 136 136 136 0
4.242289 4.700915 46.798558 139 139 139 0
4.358809 4.702925 46.818568 139 139 139 0
4.469906 4.699132 46.780803 141 141 141 0
4.571791 4.686086 46.650926 137 137 137 0
4.695346 4.695346 46.743120 134 134 134 0
4.803756 4.689381 46.683735 134 134 134 0
4.909322 4.680981 46.600114 134 134 134 0
5.031010 4.687986 46.669849 138 138 138 0
5.141536 4.684511 46.635247 136 136 136 0
5.236259 4.667101 46.461927 135 135 135 0
5.360147 4.675873 46.549256 134 134 134 0
5.468656 4.671144 46.502180 135 135 135 0
5.578317 4.667571 46.466613 134 134 134 0
5.690278 4.666028 46.451250 136 136 136 0
5.809774 4.670603 46.496792 133 133 133 0
5.918607 4.666594 46.456881 128 128 128 0
6.049881 4.680097 46.591307 114 114 114 0
6.173147 4.687019 46.660217 89 89 89 0
6.307326 4.701825 46.807614 95 95 95 0
6.446848 4.720013 46.988685 105 105 105 0
6.587024 4.738035 47.168094 98 98 98 0
6.890009 4.787973 47.665232 85 85 85 0
-7.959455 4.178714 40.609464 100 100 100 0
-7.943974 4.223378 41.043522 103 103 103 0
-7.882130 4.244224 41.246100 146 146 146 0
-7.763432 4.234600 41.152570 144 144 144 0
-7.642301 4.223377 41.043508 144 144 144 0
-7.523821 4.213340 40.945966 145 145 145 0
-7.382358 4.189987 40.719018 142 142 142 0
-7.262165 4.178232 40.604782 141 141 141 0
-7.111675 4.148477 40.315620 137 137 137 0
-6.953559 4.113373 39.974470 139 139 139 0
-6.825486 4.095292 39.798754 137 137 137 0
-6.693589 4.074358 39.595320 141 141 141 0
-6.580963 4.064712 39.501577 145 145 145 0
-6.480512 4.062410 39.479206 145 145 145 0
-6.366830 4.051619 39.374338 145 145 145 0
-6.265760 4.048645 39.345429 148 148 148 0
-6.166932 4.047049 39.329925 150 150 150 0
-6.061712 4.041142 39.272512 149 149 149 0
-5.959295 4.036942 39.231699 148 148 148 0
-5.864432 4.037806 39.240095 147 147 147 0
-5.755572 4.028900 39.153550 147 147 147 0
-5.653436 4.024480 39.110595 147 147 147 0
-5.554424 4.022169 39.088132 148 148 148 0
-5.450633 4.016256 39.030666 148 148 148 0
-5.351955 4.013966 39.008418 149 149 149 0
-5.251111 4.009939 38.969283 151 151 151 0
-5.151505 4.006726 38.938058 152 152 152 0
-5.053544 4.004696 38.918325 153 153 153 0
-4.957396 4.004051 38.912056 156 156 156 0
-4.857889 4.000614 38.878659 153 153 153 0
-4.765450 4.002978 38.901630 152 152 152 0
-4.667376 4.000608 38.878599 152 152 152 0
-4.570651 3.999319 38.866079 152 152 152 0
-4.476351 4.000144 38.874088 151 151 151 0
-4.383754 4.002558 38.897547 148 148 148 0
-4.287409 4.001581 38.888060 142 142 142 0
-4.193822 4.003194 38.903731 138 138 138 0
-4.103951 4.008511 38.955400 130 130 130 0
-4.011645 4.011645 38.985860 128 128 128 0
-3.921347 4.016990 39.037799 125 125 125 0
-3.829101 4.020556 39.072463 125 125 125 0
-3.737557 4.025062 39.116247 124 124 124 0
-3.646813 4.030688 39.170927 123 123 123 0
-3.560137 4.041236 39.273433 123 123 123 0
-3.465508 4.043093 39.291479 121 121 121 0
-3.371934 4.046321 39.322848 119 119 119 0
-3.282480 4.054829 39.405527 117 117 117 0
-3.193938 4.065013 39.504495 116 116 116 0
-3.099572 4.068189 39.535362 117 117 117 0
-3.004413 4.070495 39.557772 115 115 115 0
-2.917872 4.085021 39.698937 113 113 113 0
-2.826180 4.093088 39.777337 110 110 110 0
-2.734167 4.101251 39.856667 101 101 101 0
-2.648927 4.120553 40.044244 91 91 91 0
-2.560163 4.135648 40.190944 85 85 85 0
-2.222876 3.734432 36.291854 79 79 79 0
-2.357626 4.125846 40.095683 80 80 80 0
-2.295332 4.191476 40.733489 86 86 86 0
-1.999035 3.816340 37.087850 80 80 80 0
-2.031476 4.266101 41.458703 81 81 81 0
-1.939109 4.286451 41.656473 89 89 89 0
-1.826858 4.262668 41.425341 86 86 86 0
-1.741099 4.301539 41.803099 79 79 79 0
-1.669465 4.382345 42.588384 100 100 100 0
-1.572304 4.402450 42.783774 116 116 116 0
-1.469552 4.408656 42.844086 121 121 121 0
-1.364331 4.407839 42.836145 118 118 118 0
-1.254048 4.389169 42.654701 117 117 117 0
-1.147673 4.382023 42.585256 118 118 118 0
-1.042972 4.380482 42.570281 118 118 118 0
-0.936623 4.370908 42.477244 117 117 117 0
-0.832343 4.369798 42.466457 118 118 118 0
-0.730029 4.380174 42.567290 117 117 117 0
-0.626533 4.385730 42.621287 117 117 117 0
-0.524148 4.402844 42.787603 116 116 116 0
-0.420525 4.415508 42.910668 116 116 116 0
-0.315351 4.414908 42.904840 115 115 115 0
-0.210059 4.411234 42.869131 118 118 118 0
-0.105098 4.414096 42.896952 119 119 119 0
0.000000 4.416726 42.922504 118 118 118 0
0.105007 4.410291 42.859971 117 117 117 0
0.210250 4.415257 42.908229 116 116 116 0
0.315639 4.418944 42.944063 109 109 109 0
0.373056 3.917092 38.066976 83 83 83 0
0.759140 4.554843 44.264750 126 126 126 0
0.868589 4.560095 44.315789 130 130 130 0
0.977606 4.562160 44.335859 127 127 127 0
1.085374 4.558572 44.300989 126 126 126 0
1.194429 4.560548 44.320195 125 125 125 0
1.304084 4.564294 44.356598 126 126 126 0
1.410159 4.555898 44.275003 130 130 130 0
1.519946 4.559838 44.313298 130 130 130 0
1.627656 4.557438 44.289968 130 130 130 0
1.734596 4.553313 44.249886 127 127 127 0
1.844321 4.556557 44.281406 121 121 121 0
1.955399 4.562598 44.340113 120 120 120 0
2.064009 4.562546 44.339611 123 123 123 0
2.174677 4.566821 44.381155 129 129 129 0
2.287003 4.574005 44.450973 132 132 132 0
2.394598 4.571505 44.426673 135 135 135 0
2.501665 4.568258 44.395119 132 132 132 0
2.612987 4.572727 44.438549 129 129 129 0
2.719231 4.568308 44.395611 128 128 128 0
2.828103 4.568475 44.397227 126 126 126 0
2.936800 4.568356 44.396072 122 122 122 0
3.053337 4.580005 44.509285 107 107 107 0
3.171150 4.592700 44.632652 90 90 90 0
3.321213 4.649698 45.186570 84 84 84 0
3.014986 4.084819 39.696982 86 86 86 0
3.083491 4.047082 39.330244 87 87 87 0
3.231480 4.112792 39.968825 94 94 94 0
3.315902 4.096114 39.806746 96 96 96 0
4.003881 4.804657 46.692492 128 128 128 0
4.132199 4.820899 46.850334 136 136 136 0
4.247880 4.821918 46.860231 139 139 139 0
4.364421 4.823834 46.878854 140 140 140 0
4.470599 4.814491 46.788061 137 137 137 0
4.577552 4.806429 46.709712 137 137 137 0
4.698174 4.812763 46.771265 136 136 136 0
4.808591 4.808591 46.730716 135 135 135 0
4.915593 4.801277 46.659638 136 136 136 0
5.035800 4.806900 46.714285 137 137 137 0
5.146013 4.802945 46.675852 135 135 135 0
5.253074 4.796285 46.611131 132 132 132 0
5.367484 4.796475 46.612973 130 130 130 0
5.477488 4.792802 46.577277 131 131 131 0
5.584499 4.786713 46.518106 131 131 131 0
5.697591 4.785977 46.510948 131 131 131 0
5.813289 4.787414 46.524919 128 128 128 0
5.921624 4.782850 46.480566 124 124 124 0
6.050990 4.795124 46.599843 111 111 111 0
6.177391 4.804638 46.692299 92 92 92 0
6.302427 4.812762 46.771257 97 97 97 0
6.447633 4.835725 46.994409 104 104 104 0
6.583201 4.850780 47.140719 94 94 94 0
6.882616 4.899489 47.614086 78 78 78 0
-7.962372 4.279775 40.624349 102 102 102 0
-7.939018 4.321237 41.017915 98 98 98 0
-7.875720 4.341743 41.212561 143 143 143 0
-7.762885 4.335117 41.149667 149 149 149 0
-7.636362 4.320573 41.011611 146 146 146 0
-7.516711 4.309581 40.907269 147 147 147 0
-7.392450 4.295613 40.774684 142 142 142 0
-7.272112 4.283573 40.660398 141 141 141 0
-7.120983 4.252809 40.368384 136 136 136 0
-6.961915 4.216371 40.022506 142 142 142 0
-6.820599 4.189796 39.770255 141 141 141 0
-6.693720 4.171448 39.596093 142 142 142 0
-6.582457 4.162436 39.510547 147 147 147 0
-6.481202 4.159577 39.483410 149 149 149 0
-6.365938 4.147505 39.368816 147 147 147 0
-6.264988 4.144531 39.340585 146 146 146 0
-6.167074 4.143503 39.330831 147 147 147 0
-6.059811 4.136062 39.260196 148 148 148 0
-5.957811 4.132030 39.221927 149 149 149 0
-5.863507 4.133292 39.233903 147 147 147 0
-5.756323 4.125365 39.158658 148 148 148 0
-5.653665 4.120468 39.112175 147 147 147 0
-5.555755 4.118922 39.097501 149 149 149 0
-5.451661 4.112657 39.038034 149 149 149 0
-5.348478 4.106867 38.983078 150 150 150 0
-5.248958 4.103731 38.953308 150 150 150 0
-5.152215 4.102689 38.943422 152 152 152 0
-5.054817 4.101078 38.928123 154 154 154 0
-4.957041 4.099092 38.909274 156 156 156 0
-4.857280 4.095354 38.873790 157 157 157 0
-4.763391 4.096516 38.884825 154 154 154 0
-4.666287 4.094904 38.869525 153 153 153 0
-4.568861 4.092938 38.850858 151 151 151 0
-4.477515 4.096450 38.884193 148 148 148 0
-4.383285 4.097419 38.893393 142 142 142 0
-4.287915 4.097341 38.892653 137 137 137 0
-4.196614 4.101237 38.929632 131 131 131 0
-4.105205 4.105205 38.967303 127 127 127 0
-4.012404 4.107938 38.993238 123 123 123 0
-3.923345 4.114727 39.057687 119 119 119 0
-3.834157 4.121719 39.124052 118 118 118 0
-3.743092 4.126999 39.174175 119 119 119 0
-3.649319 4.129493 39.197844 117 117 117 0
-3.563019 4.140805 39.305224 118 118 118 0
-3.469722 4.144390 39.339253 114 114 114 0
-3.377567 4.149582 39.388531 111 111 111 0
-3.286416 4.156349 39.452770 112 112 112 0
-3.199137 4.168572 39.568791 113 113 113 0
-3.104869 4.172167 39.602915 113 113 113 0
-3.009656 4.174685 39.626811 111 111 111 0
-2.921733 4.187817 39.751470 110 110 110 0
-2.829160 4.194962 39.819284 106 106 106 0
-2.738439 4.205460 39.918936 100 100 100 0
-2.647339 4.216133 40.020244 92 92 92 0
-2.562900 4.238642 40.233906 89 89 89 0
-2.231037 3.837383 36.425089 83 83 83 0
-2.149377 3.850967 36.554025 83 83 83 0
-2.070073 3.870137 36.735993 82 82 82 0
-2.000184 3.909451 37.109165 78 78 78 0
-2.096809 4.293465 40.754298 82 82 82 0
-1.839577 3.955090 37.542379 87 87 87 0
-1.944264 4.400176 41.767216 87 87 87 0
-1.822886 4.354673 41.335292 81 81 81 0
-1.672462 4.494741 42.664838 97 97 97 0
-1.573553 4.510851 42.817757 117 117 117 0
-1.475724 4.532582 43.024036 128 128 128 0
-1.373633 4.543557 43.128207 118 118 118 0
-1.262590 4.524282 42.945247 99 99 99 0
-1.164317 4.551420 43.202848 119 119 119 0
-1.063985 4.575136 43.427967 134 134 134 0
-0.958536 4.579670 43.471000 131 131 131 0
-0.850587 4.571905 43.397293 124 124 124 0
-0.742248 4.559522 43.279750 125 125 125 0
-0.635079 4.551396 43.202620 121 121 121 0
-0.529197 4.551095 43.199765 119 119 119 0
-0.423165 4.549020 43.180065 121 121 121 0
-0.316753 4.540121 43.095596 121 121 121 0
-0.210992 4.536318 43.059501 121 121 121 0
-0.105535 4.538016 43.075613 121 121 121 0
0.000000 4.536083 43.057263 119 119 119 0
0.105445 4.534150 43.038915 118 118 118 0
0.210867 4.533634 43.034024 111 111 111 0
0.316923 4.542558 43.118726 96 96 96 0
0.650726 4.663540 44.267107 112 112 112 0
0.760378 4.670895 44.336924 132 132 132 0
0.869339 4.672694 44.354005 133 133 133 0
0.978305 4.674125 44.367586 125 125 125 0
1.086276 4.670988 44.337812 127 127 127 0
1.197679 4.681837 44.440784 128 128 128 0
1.306314 4.680957 44.432435 130 130 130 0
1.412571 4.672350 44.350733 130 130 130 0
1.522377 4.675872 44.384165 129 129 129 0
1.631332 4.676485 44.389985 128 128 128 0
1.737519 4.669582 44.324462 124 124 124 0
1.846338 4.670149 44.329844 122 122 122 0
1.957755 4.676860 44.393546 119 119 119 0
2.068010 4.680234 44.425569 114 114 114 0
2.181860 4.691000 44.527764 118 118 118 0
2.295178 4.699650 44.609867 120 120 120 0
2.401716 4.694262 44.558729 118 118 118 0
2.509187 4.691089 44.528613 118 118 118 0
2.621449 4.696763 44.582468 117 117 117 0
2.727461 4.691233 44.529974 115 115 115 0
2.841460 4.699338 44.606914 111 111 111 0
2.965159 4.722291 44.824784 108 108 108 0
3.100146 4.760939 45.191638 107 107 107 0
3.219907 4.774345 45.318887 112 112 112 0
3.342322 4.790662 45.473775 107 107 107 0
3.027220 4.199048 39.858070 88 88 88 0
3.132966 4.209923 39.961304 87 87 87 0
3.243928 4.226936 40.122791 96 96 96 0
3.330948 4.212669 39.987369 98 98 98 0
4.001203 4.915764 46.661264 124 124 124 0
4.132951 4.936581 46.858859 140 140 140 0
4.246214 4.934789 46.841852 138 138 138 0
4.364167 4.938400 46.876125 139 139 139 0
4.475855 4.934918 46.843071 137 137 137 0
4.582397 4.926077 46.759155 138 138 138 0
4.698781 4.927990 46.777314 135 135 135 0
4.812556 4.927140 46.769248 134 134 134 0
4.921862 4.921862 46.719143 133 133 133 0
5.040508 4.925951 46.757961 129 129 129 0
5.145137 4.916464 46.667906 131 131 131 0
5.258239 4.915311 46.656958 129 129 129 0
5.370492 4.913429 46.639095 127 127 127 0
5.483621 4.912411 46.629432 127 127 127 0
5.589854 4.905382 46.562712 126 126 126 0
5.701111 4.902955 46.539680 126 126 126 0
5.825174 4.911421 46.620039 124 124 124 0
5.929673 4.903383 46.543744 123 123 123 0
6.060716 4.917185 46.674750 112 112 112 0
6.181404 4.922229 46.722629 97 97 97 0
6.311067 4.934107 46.835374 97 97 97 0
6.441950 4.946498 46.952991 100 100 100 0
6.585771 4.968213 47.159120 93 93 93 0
-7.964288 4.380358 40.634122 91 91 91 0
-7.932641 4.418180 40.984968 99 99 99 0
-7.868162 4.438450 41.173009 143 143 143 0
-7.757185 4.432677 41.119454 153 153 153 0
-7.629504 4.417081 40.974781 148 148 148 0
-7.519770 4.411599 40.923920 148 148 148 0
-7.392677 4.395646 40.775937 147 147 147 0
-7.273998 4.384328 40.670944 144 144 144 0
-7.123772 4.353416 40.384195 138 138 138 0
-6.958233 4.312144 40.001337 136 136 136 0
-6.817601 4.285349 39.752776 139 139 139 0
-6.692213 4.267498 39.587182 144 144 144 0
-6.582754 4.259429 39.512327 143 143 143 0
-6.479535 4.255217 39.473253 147 147 147 0
-6.367134 4.244756 39.376217 146 146 146 0
-6.266691 4.242068 39.351277 146 146 146 0
-6.168587 4.240904 39.340478 146 146 146 0
-6.059936 4.232336 39.261006 145 145 145 0
-5.958353 4.228509 39.225499 145 145 145 0
-5.862772 4.228885 39.228987 146 146 146 0
-5.757587 4.222231 39.167260 147 147 147 0
-5.652887 4.215712 39.106794 146 146 146 0
-5.556188 4.215039 39.100546 148 148 148 0
-5.451142 4.207899 39.034313 147 147 147 0
-5.350098 4.203648 38.994884 147 147 147 0
-5.250359 4.200287 38.963703 148 148 148 0
-5.151049 4.197151 38.934609 151 151 151 0
-5.054863 4.196490 38.928482 151 151 151 0
-4.955514 4.193128 38.897287 150 150 150 0
-4.857401 4.190699 38.874754 151 151 151 0
-4.765809 4.193912 38.904563 150 150 150 0
-4.667128 4.190891 38.876538 147 147 147 0
-4.572214 4.191196 38.879371 142 142 142 0
-4.479236 4.193328 38.899143 139 139 139 0
-4.385269 4.194606 38.910998 133 133 133 0
-4.291540 4.196173 38.925536 127 127 127 0
-4.200094 4.200094 38.961912 123 123 123 0
-4.111051 4.206657 39.022789 118 118 118 0
-4.019351 4.210748 39.060744 113 113 113 0
-3.931690 4.219375 39.140767 112 112 112 0
-3.841197 4.225316 39.195883 112 112 112 0
-3.748399 4.228963 39.229715 112 112 112 0
-3.657292 4.234759 39.283480 109 109 109 0
-3.569348 4.244630 39.375047 107 107 107 0
-3.480785 4.254293 39.464688 102 102 102 0
-3.385858 4.256507 39.485226 102 102 102 0
-3.296778 4.266419 39.577172 105 105 105 0
-3.207451 4.276601 39.671623 105 105 105 0
-3.114543 4.282496 39.726309 105 105 105 0
-3.017745 4.283251 39.733312 103 103 103 0
-2.930760 4.298448 39.874282 103 103 103 0
-2.835187 4.301663 39.904109 102 102 102 0
-2.743548 4.311290 39.993416 97 97 97 0
-2.654465 4.325794 40.127960 96 96 96 0
-2.567398 4.344828 40.304529 91 91 91 0
-2.475614 4.357081 40.418193 85 85 85 0
-2.157782 3.955933 36.696971 81 81 81 0
-2.077222 3.973816 36.862854 88 88 88 0
-1.919040 4.020845 37.299121 78 78 78 0
-2.039274 4.486403 41.617840 84 84 84 0
-1.752825 4.059175 37.654680 88 88 88 0
-1.672117 4.598321 42.656037 104 104 104 0
-1.573611 4.615926 42.819347 115 115 115 0
-1.473808 4.631968 42.968167 119 119 119 0
-1.373916 4.650178 43.137086 122 122 122 0
-1.264997 4.638324 43.027126 104 104 104 0
-1.161033 4.644132 43.081005 116 116 116 0
-1.066140 4.691016 43.515923 144 144 144 0
-0.961545 4.700888 43.607498 153 153 153 0
-0.854355 4.698953 43.589543 137 137 137 0
-0.745479 4.685866 43.468143 129 129 129 0
-0.638470 4.682113 43.433335 128 128 128 0
-0.531916 4.680864 43.421740 127 127 127 0
-0.425176 4.676939 43.385337 125 125 125 0
-0.318214 4.667143 43.294459 125 125 125 0
-0.211715 4.657729 43.207136 123 123 123 0
-0.105985 4.663327 43.259059 121 121 121 0
0.000000 4.658508 43.214359 118 118 118 0
0.105712 4.651312 43.147607 113 113 113 0
0.211856 4.660831 43.235909 104 104 104 0
0.316844 4.647052 43.108090 86 86 86 0
0.374342 4.117759 38.198134 77 77 77 0
0.651791 4.779799 44.339509 119 119 119 0
0.761591 4.787146 44.407660 134 134 134 0
0.871051 4.790782 44.441389 128 128 128 0
0.979766 4.789968 44.433844 123 123 123 0
1.087816 4.786392 44.400668 125 125 125 0
1.199136 4.796542 44.494827 127 127 127 0
1.309263 4.800629 44.532740 131 131 131 0
1.414875 4.788806 44.423062 131 131 131 0
1.524355 4.790829 44.441830 130 130 130 0
1.633786 4.792437 44.456748 123 123 123 0
1.741137 4.788127 44.416759 115 115 115 0
1.854788 4.800627 44.532719 112 112 112 0
1.975847 4.829847 44.803777 119 119 119 0
2.093272 4.847576 44.968240 130 130 130 0
2.204198 4.849236 44.983638 139 139 139 0
2.317860 4.856468 45.050725 130 130 130 0
2.424365 4.848729 44.978937 121 121 121 0
2.536721 4.852857 45.017226 118 118 118 0
2.646995 4.852825 45.016926 114 114 114 0
2.760469 4.858425 45.068875 111 111 111 0
2.879124 4.872364 45.198184 116 116 116 0
2.996797 4.883669 45.303053 125 125 125 0
3.109173 4.885843 45.323222 128 128 128 0
3.224575 4.892459 45.384594 125 125 125 0
3.340753 4.899771 45.452422 108 108 108 0
3.019159 4.285258 39.751933 90 90 90 0
3.108145 4.273700 39.644712 88 88 88 0
3.237972 4.317296 40.049124 94 94 94 0
3.341510 4.324307 40.114166 95 95 95 0
3.996626 5.024329 46.607879 109 109 109 0
4.135380 5.054354 46.886397 139 139 139 0
4.249698 5.053695 46.880284 135 135 135 0
4.366930 5.056445 46.905796 136 136 136 0
4.479334 5.053607 46.879472 136 136 136 0
4.589667 5.048633 46.833335 135 135 135 0
4.701485 5.045497 46.804235 133 133 133 0
4.813547 5.042764 46.778883 131 131 131 0
4.927545 5.042139 46.773091 130 130 130 0
5.045515 5.045515 46.804404 128 128 128 0
5.156046 5.041467 46.766858 128 128 128 0
5.266042 5.037084 46.726194 125 125 125 0
5.380280 5.036858 46.724102 123 123 123 0
5.490115 5.032606 46.684652 123 123 123 0
5.601602 5.030010 46.660575 123 123 123 0
5.716259 5.030308 46.663336 121 121 121 0
5.832406 5.031879 46.677916 120 120 120 0
5.937630 5.024148 46.606200 119 119 119 0
6.062633 5.033130 46.689515 114 114 114 0
6.186938 5.041209 46.764461 104 104 104 0
6.312155 5.049724 46.843448 101 101 101 0
6.450400 5.068171 47.014576 100 100 100 0
6.592446 5.088906 47.206920 93 93 93 0
-7.963158 4.479276 40.628357 84 84 84 0
-7.930759 4.517521 40.975247 110 110 110 0
-7.855833 4.532212 41.108494 146 146 146 0
-7.752118 4.530458 41.092593 151 151 151 0
-7.633356 4.519750 40.995466 147 147 147 0
-7.524233 4.514540 40.948209 149 149 149 0
-7.390090 4.493973 40.761663 146 146 146 0
-7.277529 4.486148 40.690685 139 139 139 0
-7.139306 4.462066 40.472257 136 136 136 0
-6.984225 4.426622 40.150763 138 138 138 0
-6.821563 4.385291 39.775880 137 137 137 0
-6.695289 4.366493 39.605378 142 142 142 0
-6.582312 4.355942 39.509675 146 146 146 0
-6.482758 4.354091 39.492893 146 146 146 0
-6.369407 4.342777 39.390269 145 145 145 0
-6.269445 4.340385 39.368568 145 145 145 0
-6.172253 4.339865 39.363858 144 144 144 0
-6.064630 4.331878 39.291412 143 143 143 0
-5.960803 4.326389 39.241628 143 143 143 0
-5.865940 4.327333 39.250185 142 142 142 0
-5.759057 4.319293 39.177257 145 145 145 0
-5.658057 4.315467 39.142562 143 143 143 0
-5.557727 4.312029 39.111377 144 144 144 0
-5.453471 4.305372 39.050993 142 142 142 0
-5.354819 4.302979 39.029292 140 140 140 0
-5.253542 4.298353 38.987328 142 142 142 0
-5.155064 4.295887 38.964958 142 142 142 0
-5.054283 4.291372 38.924013 142 142 142 0
-4.958317 4.290852 38.919288 144 144 144 0
-4.859673 4.287947 38.892941 143 143 143 0
-4.766878 4.290190 38.913291 141 141 141 0
-4.670008 4.288782 38.900521 135 135 135 0
-4.575475 4.289508 38.907100 132 132 132 0
-4.483545 4.292755 38.936557 128 128 128 0
-4.391207 4.295746 38.963684 121 121 121 0
-4.298899 4.298899 38.992285 120 120 120 0
-4.209276 4.304941 39.047084 114 114 114 0
-4.120662 4.312321 39.114024 109 109 109 0
-4.027312 4.314977 39.138113 107 107 107 0
-3.942167 4.326769 39.245070 106 106 106 0
-3.854521 4.336336 39.331842 104 104 104 0
-3.761322 4.339987 39.364965 101 101 101 0
-3.670767 4.346961 39.428221 96 96 96 0
-3.581496 4.355874 39.509062 92 92 92 0
-3.488139 4.360173 39.548058 92 92 92 0
-3.440041 4.422910 40.117093 100 100 100 0
-3.368661 4.458522 40.440109 102 102 102 0
-3.267732 4.455999 40.417220 104 104 104 0
-3.169832 4.457576 40.431533 104 104 104 0
-3.070602 4.457325 40.429254 109 109 109 0
-2.958430 4.437645 40.250752 110 110 110 0
-2.859139 4.436595 40.241226 108 108 108 0
-2.762213 4.439270 40.265490 103 103 103 0
-2.670993 4.451655 40.377825 99 99 99 0
-2.578400 4.462615 40.477232 94 94 94 0
-2.488762 4.479771 40.632842 91 91 91 0
-2.395486 4.491537 40.739563 85 85 85 0
-2.091568 4.092198 37.117445 83 83 83 0
-2.002511 4.096044 37.152329 79 79 79 0
-1.925770 4.126649 37.429924 85 85 85 0
-1.835972 4.130937 37.468816 88 88 88 0
-1.751082 4.147299 37.617228 81 81 81 0
-1.676122 4.714093 42.758214 115 115 115 0
-1.573637 4.720910 42.820045 126 126 126 0
-1.472800 4.733999 42.938764 122 122 122 0
-1.370185 4.742950 43.019953 114 114 114 0
-1.265579 4.745920 43.046890 107 107 107 0
-1.157150 4.733797 42.936933 110 110 110 0
-1.061038 4.774669 43.307659 131 131 131 0
-0.960884 4.804420 43.577508 156 156 156 0
-0.854552 4.806853 43.599570 148 148 148 0
-0.747814 4.807376 43.604321 139 139 139 0
-0.639103 4.793269 43.476364 135 135 135 0
-0.532606 4.793452 43.478020 129 129 129 0
-0.426488 4.797992 43.519204 132 132 132 0
-0.319461 4.791908 43.464022 128 128 128 0
-0.212611 4.783737 43.389903 128 128 128 0
-0.106344 4.785462 43.405554 124 124 124 0
0.000000 4.784340 43.395376 123 123 123 0
0.106216 4.779728 43.353544 115 115 115 0
0.212605 4.783617 43.388817 104 104 104 0
0.285302 4.279530 38.816595 95 95 95 0
0.422134 4.749004 43.074863 83 83 83 0
0.652673 4.895050 44.399551 109 109 109 0
0.762107 4.899261 44.437741 131 131 131 0
0.872519 4.907917 44.516255 128 128 128 0
0.981645 4.908223 44.519032 128 128 128 0
1.088389 4.897751 44.424050 128 128 128 0
1.199578 4.907363 44.511233 130 130 130 0
1.310454 4.914204 44.573280 134 134 134 0
1.417396 4.906369 44.502214 130 130 130 0
1.527765 4.910674 44.541257 122 122 122 0
1.634795 4.904386 44.484227 109 109 109 0
1.751217 4.925297 44.673900 101 101 101 0
1.872482 4.956570 44.957550 123 123 123 0
1.985040 4.962599 45.012236 142 142 142 0
2.098106 4.969199 45.072096 141 141 141 0
2.207789 4.967525 45.056915 133 133 133 0
2.319001 4.969287 45.072902 124 124 124 0
2.429797 4.970038 45.079714 125 125 125 0
2.543557 4.976525 45.138552 127 127 127 0
2.654751 4.977659 45.148833 125 125 125 0
2.767931 4.982275 45.190705 123 123 123 0
2.885996 4.994992 45.306052 125 125 125 0
3.000031 5.000051 45.351939 129 129 129 0
3.113094 5.003187 45.380382 132 132 132 0
3.224454 5.003464 45.382890 122 122 122 0
3.345073 5.017610 45.511203 111 111 111 0
3.034260 4.404570 39.950752 94 94 94 0
3.125616 4.395398 39.867554 86 86 86 0
3.245175 4.425238 40.138214 95 95 95 0
3.834047 5.074474 46.026974 100 100 100 0
3.456100 4.443558 40.304379 110 110 110 0
4.134972 5.168715 46.881769 134 134 134 0
4.253202 5.172813 46.918943 132 132 132 0
4.369616 5.174545 46.934648 133 133 133 0
4.485409 5.175472 46.943052 137 137 137 0
4.594163 5.168433 46.879210 135 135 135 0
4.706465 5.165633 46.853810 132 132 132 0
4.814743 5.158654 46.790509 128 128 128 0
4.935598 5.165160 46.849527 125 125 125 0
5.050982 5.165777 46.855119 124 124 124 0
5.166061 5.166061 46.857694 126 126 126 0
5.277890 5.163153 46.831319 124 124 124 0
5.393305 5.163802 46.837209 122 122 122 0
5.503817 5.159828 46.801163 119 119 119 0
5.616219 5.157752 46.782335 118 118 118 0
5.728808 5.155928 46.765784 118 118 118 0
5.843162 5.155732 46.764005 120 120 120 0
5.950308 5.149305 46.705711 119 119 119 0
6.073356 5.156623 46.772088 118 118 118 0
6.196990 5.164159 46.840441 110 110 110 0
6.316524 5.168065 46.875872 103 103 103 0
6.451858 5.184529 47.025207 101 101 101 0
6.592446 5.204563 47.206920 92 92 92 0
-7.937037 4.563796 40.495087 96 96 96 0
-7.943947 4.625590 41.043386 112 112 112 0
-7.854352 4.632054 41.100743 149 149 149 0
-7.749188 4.629385 41.077064 150 150 150 0
-7.633842 4.620483 40.998075 147 147 147 0
-7.514920 4.609151 40.897525 145 145 145 0
-7.390569 4.594137 40.764306 148 148 148 0
-7.279776 4.587256 40.703251 146 146 146 0
-7.140637 4.562073 40.479799 142 142 142 0
-6.999693 4.535012 40.239683 139 139 139 0
-6.827755 4.486810 39.811980 141 141 141 0
-6.703892 4.469261 39.656266 137 137 137 0
-6.593056 4.460009 39.574168 140 140 140 0
-6.486539 4.453445 39.515926 142 142 142 0
-6.372586 4.441499 39.409932 143 143 143 0
-6.274992 4.440764 39.403405 142 142 142 0
-6.178153 4.440548 39.401487 143 143 143 0
-6.070757 4.432616 39.331109 140 140 140 0
-5.967424 4.427444 39.285214 137 137 137 0
-5.877195 4.431983 39.325493 137 137 137 0
-5.768889 4.422815 39.244141 134 134 134 0
-5.664027 4.416021 39.183861 134 134 134 0
-5.569317 4.417044 39.192939 133 133 133 0
-5.465177 4.410494 39.134819 131 131 131 0
-5.362345 4.404784 39.084149 129 129 129 0
-5.262733 4.401558 39.055530 130 130 130 0
-5.163777 4.398773 39.030818 132 132 132 0
-5.063831 4.395023 38.997546 133 133 133 0
-4.965380 4.392452 38.974725 134 134 134 0
-4.867653 4.390432 38.956807 133 133 133 0
-4.772791 4.390967 38.961557 129 129 129 0
-4.676282 4.389979 38.952788 127 127 127 0
-4.583462 4.392484 38.975017 123 123 123 0
-4.491850 4.396279 39.008689 119 119 119 0
-4.400501 4.400501 39.046150 114 114 114 0
-4.307982 4.403715 39.074663 111 111 111 0
-4.220738 4.412590 39.153414 106 106 106 0
-4.134181 4.422612 39.242342 103 103 103 0
-4.042508 4.427508 39.285788 101 101 101 0
-3.955864 4.438286 39.381424 99 99 99 0
-3.870210 4.450742 39.491942 88 88 88 0
-3.760078 4.434964 39.351943 86 86 86 0
-3.668156 4.440400 39.400176 77 77 77 0
-3.638992 4.649823 41.258410 94 94 94 0
-3.534554 4.645414 41.219289 115 115 115 0
-3.429263 4.639591 41.167619 116 116 116 0
-3.325552 4.635618 41.132372 114 114 114 0
-3.220532 4.629515 41.078218 117 117 117 0
-3.115808 4.623457 41.024464 116 116 116 0
-3.011324 4.617364 40.970395 116 116 116 0
-2.906793 4.610775 40.911933 113 113 113 0
-2.798859 4.598125 40.799693 111 111 111 0
-2.698404 4.597281 40.792204 109 109 109 0
-2.601045 4.601849 40.832736 105 105 105 0
-2.506596 4.612137 40.924022 100 100 100 0
-2.409555 4.618313 40.978822 93 93 93 0
-2.320221 4.640441 41.175166 88 88 88 0
-2.227082 4.656625 41.318769 86 86 86 0
-1.928098 4.223453 37.475184 92 92 92 0
-2.052571 4.720913 41.889201 88 88 88 0
-1.745915 4.226953 37.506238 80 80 80 0
-1.773687 4.799389 42.585528 90 90 90 0
-1.676761 4.820687 42.774509 124 124 124 0
-1.573545 4.825538 42.817555 129 129 129 0
-1.471491 4.834898 42.900602 122 122 122 0
-1.368936 4.843929 42.980735 111 111 111 0
-1.264309 4.846519 43.003717 108 108 108 0
-1.158983 4.846658 43.004948 109 109 109 0
-1.058492 4.869063 43.203755 118 118 118 0
-0.957265 4.892686 43.413367 132 132 132 0
-0.853168 4.905718 43.528996 149 149 149 0
-0.748303 4.917419 43.632825 145 145 145 0
-0.639761 4.904836 43.521171 138 138 138 0
-0.532926 4.902917 43.504146 136 136 136 0
-0.427234 4.913189 43.595284 137 137 137 0
-0.320078 4.907868 43.548071 136 136 136 0
-0.213179 4.903124 43.505981 134 134 134 0
-0.106584 4.902876 43.503784 131 131 131 0
0.000000 4.895266 43.436259 126 126 126 0
0.106368 4.892918 43.415423 123 123 123 0
0.213035 4.899799 43.476473 113 113 113 0
0.320224 4.910095 43.567833 100 100 100 0
0.377836 4.345118 38.554727 81 81 81 0
0.653272 5.008417 44.440259 98 98 98 0
0.763015 5.014102 44.490699 130 130 130 0
0.873408 5.022094 44.561614 127 127 127 0
0.983128 5.024876 44.586297 126 126 126 0
1.090524 5.016412 44.511200 130 130 130 0
1.201559 5.024702 44.584759 132 132 132 0
1.311043 5.025663 44.593285 129 129 129 0
1.418925 5.020811 44.550232 122 122 122 0
1.528807 5.023222 44.571620 103 103 103 0
1.638664 5.025236 44.589496 101 101 101 0
1.756516 5.049985 44.809094 112 112 112 0
1.879633 5.086066 45.129248 138 138 138 0
1.990378 5.086520 45.133278 137 137 137 0
2.099820 5.083774 45.108908 127 127 127 0
2.210861 5.084981 45.119615 130 130 130 0
2.321899 5.086065 45.129235 130 130 130 0
2.432844 5.086856 45.136257 129 129 129 0
2.547390 5.094779 45.206561 130 130 130 0
2.659189 5.096779 45.224300 129 129 129 0
2.769699 5.096246 45.219577 125 125 125 0
2.885646 5.105374 45.300564 128 128 128 0
2.999041 5.109477 45.336978 128 128 128 0
3.109636 5.108688 45.329974 127 127 127 0
3.222771 5.111982 45.359203 121 121 121 0
3.348598 5.134517 45.559155 109 109 109 0
3.022841 4.485506 39.800410 91 91 91 0
3.135603 4.507429 39.994930 89 89 89 0
3.251722 4.532704 40.219201 97 97 97 0
3.336858 4.514572 40.058314 99 99 99 0
3.945314 5.185270 46.009494 100 100 100 0
4.131170 5.278718 46.838667 126 126 126 0
4.258668 5.294560 46.979236 134 134 134 0
4.373759 5.294550 46.979151 137 137 137 0
4.486067 5.291258 46.949940 134 134 134 0
4.594527 5.283706 46.882928 134 134 134 0
4.710067 5.284466 46.889670 130 130 130 0
4.820997 5.280140 46.851284 127 127 127 0
4.937957 5.282466 46.871926 124 124 124 0
5.054400 5.284146 46.886830 125 125 125 0
5.173771 5.288744 46.927628 126 126 126 0
5.284489 5.284489 46.889879 124 124 124 0
5.399727 5.284839 46.892983 121 121 121 0
5.515520 5.285707 46.900682 120 120 120 0
5.626279 5.281813 46.866135 122 122 122 0
5.737628 5.278618 46.837782 122 122 122 0
5.856906 5.282700 46.873999 120 120 120 0
5.960399 5.272661 46.784921 119 119 119 0
6.085918 5.282117 46.868832 118 118 118 0
6.200558 5.281956 46.867404 112 112 112 0
6.326082 5.290905 46.946804 106 106 106 0
6.461291 5.307489 47.093954 100 100 100 0
6.593842 5.321346 47.216916 87 87 87 0
-7.940349 4.664955 40.511985 90 90 90 0
-7.929917 4.717799 40.970899 106 106 106 0
-7.857250 4.734497 41.115909 149 149 149 0
-7.744141 4.726943 41.050311 150 150 150 0
-7.631453 4.719451 40.985246 149 149 149 0
-7.512914 4.708093 40.886605 151 151 151 0
-7.396478 4.697763 40.796900 147 147 147 0
-7.286152 4.691084 40.738901 145 145 145 0
-7.158103 4.672650 40.578815 143 143 143 0
-7.028513 4.652677 40.405362 141 141 141 0
-6.859349 4.605563 39.996201 136 136 136 0
-6.716893 4.575275 39.733174 133 133 133 0
-6.600376 4.562024 39.618101 138 138 138 0
-6.493070 4.554840 39.555712 138 138 138 0
-6.381294 4.544255 39.463786 139 139 139 0
-6.281447 4.541969 39.443935 137 137 137 0
-6.185323 4.542346 39.447212 135 135 135 0
-6.081428 4.536938 39.400247 131 131 131 0
-5.979280 4.532680 39.363264 130 130 130 0
-5.887635 4.536374 39.395349 128 128 128 0
-5.786093 4.532439 39.361174 126 126 126 0
-5.678581 4.523615 39.284546 124 124 124 0
-5.580780 4.522356 39.273611 122 122 122 0
-5.481394 4.519746 39.250942 122 122 122 0
-5.379036 4.514548 39.205800 120 120 120 0
-5.277006 4.509442 39.161456 122 122 122 0
-5.178736 4.507419 39.143889 120 120 120 0
-5.078039 4.503167 39.106964 121 121 121 0
-4.976525 4.498013 39.062203 120 120 120 0
-4.880515 4.497730 39.059745 118 118 118 0
-4.785610 4.498474 39.066206 118 118 118 0
-4.687004 4.495698 39.042099 117 117 117 0
-4.596063 4.500312 39.082168 113 113 113 0
-4.506940 4.506940 39.139733 111 111 111 0
-4.411153 4.507048 39.140669 108 108 108 0
-4.321564 4.513633 39.197859 103 103 103 0
-4.237739 4.526676 39.311124 100 100 100 0
-4.151346 4.537517 39.405273 96 96 96 0
-4.063641 4.547408 39.491166 86 86 86 0
-3.962827 4.542753 39.450744 85 85 85 0
-4.175153 4.905805 42.603604 84 84 84 0
-3.747031 4.759742 41.335146 89 89 89 0
-3.656949 4.774350 41.462004 113 113 113 0
-3.547400 4.763651 41.369091 117 117 117 0
-3.445016 4.762228 41.356737 119 119 119 0
-3.343093 4.761375 41.349330 117 117 117 0
-3.236381 4.753434 41.280365 120 120 120 0
-3.131443 4.747671 41.230318 119 119 119 0
-3.032953 4.751626 41.264662 116 116 116 0
-2.927669 4.744843 41.205760 115 115 115 0
-2.823490 4.739430 41.158748 112 112 112 0
-2.726292 4.745768 41.213789 109 109 109 0
-2.627472 4.749661 41.247598 108 108 108 0
-2.530098 4.756585 41.307730 103 103 103 0
-2.433075 4.764772 41.378828 102 102 102 0
-2.337221 4.776059 41.476851 99 99 99 0
-2.239996 4.785446 41.558371 95 95 95 0
-2.142231 4.794518 41.637151 95 95 95 0
-2.049751 4.816916 41.831663 86 86 86 0
-1.865596 4.871279 42.303771 87 87 87 0
-1.776630 4.911860 42.656184 113 113 113 0
-1.676385 4.924380 42.764918 126 126 126 0
-1.572158 4.926096 42.779820 129 129 129 0
-1.471180 4.938963 42.891559 125 125 125 0
-1.367585 4.944346 42.938308 113 113 113 0
-1.263960 4.950511 42.991844 106 106 106 0
-1.160736 4.959508 43.069977 111 111 111 0
-1.057091 4.968328 43.146572 113 113 113 0
-0.954479 4.984501 43.287024 120 120 120 0
-0.851959 5.005260 43.467307 131 131 131 0
-0.748503 5.025660 43.644464 140 140 140 0
-0.640978 5.020997 43.603969 142 142 142 0
-0.533635 5.016166 43.562013 142 142 142 0
-0.427731 5.025839 43.646014 139 139 139 0
-0.320401 5.019615 43.591964 138 138 138 0
-0.213433 5.015673 43.557737 140 140 140 0
-0.106769 5.018151 43.579254 136 136 136 0
0.000000 5.011275 43.519539 133 133 133 0
0.106494 5.005204 43.466816 128 128 128 0
0.213280 5.012083 43.526554 120 120 120 0
0.320937 5.028017 43.664931 102 102 102 0
0.379747 4.462023 38.749658 85 85 85 0
0.653473 5.118868 44.453916 92 92 92 0
0.764000 5.129715 44.548111 132 132 132 0
0.875214 5.141883 44.653783 131 131 131 0
0.984719 5.142423 44.658470 129 129 129 0
1.092368 5.134131 44.586464 133 133 133 0
1.203960 5.144193 44.673843 130 130 130 0
1.313022 5.142670 44.660615 126 126 126 0
1.422860 5.144187 44.673787 114 114 114 0
1.531247 5.140616 44.642780 100 100 100 0
1.644343 5.152275 44.744031 105 105 105 0
1.759683 5.169070 44.889879 115 115 115 0
1.880328 5.198554 45.145932 143 143 143 0
1.990564 5.197584 45.137508 132 132 132 0
2.099667 5.193912 45.105619 131 131 131 0
2.213890 5.202642 45.181435 133 133 133 0
2.324893 5.203331 45.187419 136 136 136 0
2.433578 5.199008 45.149873 133 133 133 0
