ply
format ascii 1.0
element vertex 1130
property float x
property float y
property float z
property uchar red
property uchar green
property uchar blue
property uchar alpha
end_header
-0.497830 5.177430 40.639170 111 111 111 0
-0.397810 5.171533 40.592882 109 109 109 0
-0.298714 5.177710 40.641368 103 103 103 0
-0.199337 5.182766 40.681052 98 98 98 0
-0.099016 5.148827 40.414653 88 88 88 0
0.000000 5.247751 41.191135 120 120 120 0
0.101219 5.263410 41.314050 140 140 140 0
0.202192 5.256993 41.263683 138 138 138 0
0.302603 5.245113 41.170431 136 136 136 0
0.402804 5.236449 41.102423 138 138 138 0
0.502595 5.226988 41.028163 132 132 132 0
0.602835 5.224569 41.009172 128 128 128 0
0.703254 5.224173 41.006069 122 122 122 0
0.803422 5.222240 40.990894 119 119 119 0
0.903796 5.221930 40.988460 114 114 114 0
1.005921 5.230789 41.057999 115 115 115 0
1.108539 5.240364 41.133155 113 113 113 0
1.207446 5.232265 41.069586 113 113 113 0
1.309598 5.238393 41.117681 117 117 117 0
1.412392 5.246026 41.177602 117 117 117 0
1.512832 5.244483 41.165489 120 120 120 0
1.611487 5.237332 41.109353 122 122 122 0
1.713478 5.241228 41.139937 121 121 121 0
1.814945 5.243174 41.155210 121 121 121 0
1.910978 5.230046 41.052169 121 121 121 0
2.014449 5.237567 41.111204 117 117 117 0
2.117637 5.243674 41.159134 114 114 114 0
2.220796 5.249153 41.202145 107 107 107 0
2.330830 5.269702 41.363438 99 99 99 0
2.438807 5.284081 41.476306 97 97 97 0
2.548063 5.299972 41.601034 102 102 102 0
2.657337 5.314674 41.716438 102 102 102 0
2.416214 4.653450 36.526293 90 90 90 0
2.536079 4.709861 36.969080 85 85 85 0
3.029312 5.431870 42.636344 125 125 125 0
3.139697 5.442141 42.716965 130 130 130 0
3.239552 5.434087 42.653745 127 127 127 0
3.350244 5.444147 42.732707 127 127 127 0
3.465267 5.460420 42.860443 128 128 128 0
3.576673 5.470205 42.937246 131 131 131 0
3.684476 5.474078 42.967645 133 133 133 0
3.792079 5.477447 42.994087 122 122 122 0
3.882805 5.456915 42.832926 115 115 115 0
3.997959 5.470891 42.942632 131 131 131 0
4.139103 5.518804 43.318716 151 151 151 0
4.241921 5.514497 43.284904 147 147 147 0
4.349834 5.516863 43.303476 145 145 145 0
4.457987 5.519412 43.323489 141 141 141 0
4.551183 5.503756 43.200599 140 140 140 0
4.632214 5.474435 42.970448 139 139 139 0
4.720876 5.455234 42.819734 140 140 140 0
4.824740 5.454054 42.810468 138 138 138 0
4.932191 5.456893 42.832753 138 138 138 0
5.022453 5.440991 42.707938 135 135 135 0
5.126071 5.439912 42.699467 132 132 132 0
5.227644 5.436750 42.674644 135 135 135 0
5.317039 5.421295 42.553336 129 129 129 0
5.414733 5.414733 42.501825 127 127 127 0
5.521202 5.417029 42.519849 125 125 125 0
5.618393 5.410304 42.467065 119 119 119 0
5.722863 5.410707 42.470226 115 115 115 0
5.833394 5.416723 42.517451 114 114 114 0
5.949778 5.427868 42.604930 117 117 117 0
6.056867 5.430295 42.623979 115 115 115 0
6.172049 5.439772 42.698366 114 114 114 0
6.286651 5.448431 42.766331 117 117 117 0
6.395996 5.452325 42.796897 116 116 116 0
6.517913 5.466637 42.909240 117 117 117 0
6.624188 5.467584 42.916672 122 122 122 0
6.742109 5.477963 42.998142 120 120 120 0
6.858704 5.486963 43.068787 110 110 110 0
6.963593 5.486467 43.064890 101 101 101 0
7.080992 5.495695 43.137327 103 103 103 0
7.224527 5.524638 43.364506 112 112 112 0
7.358164 5.545283 43.526556 124 124 124 0
7.476805 5.554198 43.596531 130 130 130 0
7.588342 5.557659 43.623698 132 132 132 0
7.714104 5.571298 43.730751 135 135 135 0
7.806761 5.560981 43.649770 135 135 135 0
7.927134 5.570418 43.723849 132 132 132 0
8.036160 5.571738 43.734205 129 129 129 0
8.148954 5.575600 43.764521 119 119 119 0
8.300205 5.605334 43.997908 93 93 93 0
8.708317 5.732057 44.992596 97 97 97 0
-7.082996 4.692485 36.137737 105 105 105 0
-7.026267 4.713824 36.302075 95 95 95 0
-6.962941 4.731229 36.436112 86 86 86 0
-6.347203 4.368854 33.645390 85 85 85 0
-6.304456 4.396528 33.858515 82 82 82 0
-6.241587 4.410722 33.967822 81 81 81 0
-6.188428 4.432252 34.133633 84 84 84 0
-6.698735 4.863465 37.454486 85 85 85 0
-6.339770 4.732504 36.445933 75 75 75 0
-6.369083 4.892194 37.675736 76 76 76 0
-6.453115 5.029634 38.734183 103 103 103 0
-6.376388 5.044008 38.844883 140 140 140 0
-6.292389 5.052979 38.913969 149 149 149 0
-6.199887 5.055292 38.931785 153 153 153 0
-6.109287 5.059253 38.962287 152 152 152 0
-6.017637 5.062456 38.986957 157 157 157 0
-5.917652 5.058638 38.957548 151 151 151 0
-5.799763 5.039138 38.807379 146 146 146 0
-5.661959 5.001397 38.516727 144 144 144 0
-5.559506 4.994133 38.460784 141 141 141 0
-5.460618 4.989875 38.427995 135 135 135 0
-5.363045 4.986691 38.403471 130 130 130 0
-5.268240 4.986013 38.398248 122 122 122 0
-5.186111 4.997525 38.486907 115 115 115 0
-5.107320 5.012740 38.604083 108 108 108 0
-4.591841 4.591841 35.362659 99 99 99 0
-4.832435 4.925367 37.931202 97 97 97 0
-4.421527 4.594920 35.386368 93 93 93 0
-4.764499 5.153437 39.687620 75 75 75 0
-4.687007 5.175237 39.855503 122 122 122 0
-4.593935 5.180395 39.895225 132 132 132 0
-4.498276 5.182796 39.913719 130 130 130 0
-4.393853 5.174982 39.853539 124 124 124 0
-4.296953 5.175876 39.860420 126 126 126 0
-4.204470 5.182254 39.909540 129 129 129 0
-4.104565 5.179570 39.888872 127 127 127 0
-4.014240 5.189139 39.962565 126 126 126 0
-3.916515 5.189383 39.964440 121 121 121 0
-3.819925 5.191180 39.978284 131 131 131 0
-3.729652 5.201884 40.060713 143 143 143 0
-3.639000 5.212622 40.143409 152 152 152 0
-3.534686 5.203843 40.075806 139 139 139 0
-3.435027 5.201613 40.058628 141 141 141 0
-3.342996 5.211141 40.132010 137 137 137 0
-3.251441 5.222011 40.215715 154 154 154 0
-3.157152 5.229032 40.269792 161 161 161 0
-3.059769 5.231218 40.286622 161 161 161 0
-2.962861 5.234387 40.311028 153 153 153 0
-2.858952 5.224982 40.238598 152 152 152 0
-2.757993 5.220487 40.203982 153 153 153 0
-2.662496 5.226380 40.249368 148 148 148 0
-2.565228 5.229119 40.270457 145 145 145 0
-2.463389 5.222384 40.218590 138 138 138 0
-2.369711 5.233112 40.301211 134 134 134 0
-2.273357 5.238605 40.343515 123 123 123 0
-2.175428 5.240804 40.360446 110 110 110 0
-2.074185 5.234848 40.314582 103 103 103 0
-1.990044 5.273616 40.613139 113 113 113 0
-1.900716 5.301999 40.831718 130 130 130 0
-1.804033 5.311876 40.907785 140 140 140 0
-1.704836 5.315077 40.932440 145 145 145 0
-1.604714 5.315615 40.936578 141 141 141 0
-1.505787 5.320449 40.973809 140 140 140 0
-1.406598 5.324979 41.008692 140 140 140 0
-1.306404 5.326107 41.017382 140 140 140 0
-1.206980 5.330828 41.053740 134 134 134 0
-1.109250 5.344567 41.159547 141 141 141 0
-1.008415 5.344599 41.159790 143 143 143 0
-0.906297 5.337082 41.101901 140 140 140 0
-0.803260 5.321596 40.982638 132 132 132 0
-0.703043 5.323043 40.993782 129 129 129 0
-0.601380 5.312187 40.910178 119 119 119 0
-0.501207 5.312795 40.914863 122 122 122 0
-0.400355 5.304702 40.852539 115 115 115 0
-0.300608 5.310750 40.899113 109 109 109 0
-0.200627 5.316603 40.944188 104 104 104 0
-0.100122 5.306473 40.866178 95 95 95 0
0.000000 5.356051 41.247990 120 120 120 0
0.101514 5.380242 41.434284 135 135 135 0
0.202374 5.362919 41.300875 134 134 134 0
0.303040 5.353708 41.229940 130 130 130 0
0.403933 5.352109 41.217630 124 124 124 0
0.503496 5.337062 41.101748 119 119 119 0
0.604871 5.343029 41.147698 114 114 114 0
0.705776 5.343734 41.153128 113 113 113 0
0.807667 5.350795 41.207509 110 110 110 0
0.910260 5.360418 41.281618 110 110 110 0
1.012539 5.366456 41.328119 110 110 110 0
1.113151 5.363366 41.304320 114 114 114 0
1.214382 5.363522 41.305523 112 112 112 0
1.316258 5.366283 41.326783 115 115 115 0
1.418272 5.369172 41.349032 117 117 117 0
1.518383 5.364955 41.316556 119 119 119 0
1.618052 5.359798 41.276846 120 120 120 0
1.721277 5.366333 41.327168 118 118 118 0
1.819437 5.357230 41.257068 120 120 120 0
1.918874 5.352650 41.221793 121 121 121 0
2.020258 5.353683 41.229749 118 118 118 0
2.124024 5.360632 41.283267 114 114 114 0
2.223640 5.356951 41.254920 105 105 105 0
2.042486 4.706598 36.246421 99 99 99 0
2.443497 5.396056 41.556075 102 102 102 0
2.551085 5.408300 41.650362 104 104 104 0
2.317898 4.724945 36.387719 93 93 93 0
2.445129 4.799698 36.963403 90 90 90 0
2.916063 5.519692 42.508214 125 125 125 0
3.031198 5.539775 42.662881 131 131 131 0
3.140419 5.548074 42.726789 131 131 131 0
3.246621 5.550674 42.746815 125 125 125 0
3.351634 5.551144 42.750432 122 122 122 0
3.462697 5.561302 42.828663 129 129 129 0
3.572167 5.568378 42.883155 136 136 136 0
3.681198 5.574386 42.929428 128 128 128 0
3.787317 5.575772 42.940097 121 121 121 0
3.872439 5.547007 42.718576 115 115 115 0
3.986680 5.560369 42.821480 131 131 131 0
4.133397 5.617180 43.258992 151 151 151 0
4.241842 5.620440 43.284099 146 146 146 0
4.355008 5.629644 43.354978 146 146 146 0
4.463926 5.633049 43.381203 139 139 139 0
4.554356 5.613508 43.230713 138 138 138 0
4.630493 5.577640 42.954483 138 138 138 0
4.725748 5.565880 42.863923 140 140 140 0
4.827575 5.562206 42.835622 137 137 137 0
4.933609 5.563432 42.845067 141 141 141 0
5.031571 5.555693 42.785467 137 137 137 0
5.129380 5.548105 42.727029 138 138 138 0
5.235904 5.550059 42.742076 137 137 137 0
5.325961 5.534822 42.624734 133 133 133 0
5.427029 5.531395 42.598346 130 130 130 0
5.535606 5.535606 42.630772 128 128 128 0
5.631071 5.526792 42.562892 125 125 125 0
5.730860 5.522465 42.529570 122 122 122 0
5.847023 5.533789 42.616783 123 123 123 0
5.955914 5.537955 42.648863 125 125 125 0
6.060314 5.537873 42.648232 117 117 117 0
6.179792 5.551339 42.751933 120 120 120 0
6.289471 5.555699 42.785518 119 119 119 0
6.404590 5.564643 42.854397 117 117 117 0
6.517829 5.571693 42.908685 114 114 114 0
6.637693 5.584091 43.004164 118 118 118 0
6.751364 5.590974 43.057171 121 121 121 0
6.865784 5.598255 43.113244 114 114 114 0
5.959568 4.785714 36.855708 103 103 103 0
7.077330 5.598485 43.115016 99 99 99 0
7.222948 5.629651 43.355032 111 111 111 0
7.342112 5.639593 43.431600 123 123 123 0
7.473442 5.658463 43.576921 129 129 129 0
7.592360 5.667536 43.646793 131 131 131 0
7.711977 5.676872 43.718689 132 132 132 0
7.803943 5.665876 43.634010 131 131 131 0
7.926367 5.676992 43.719618 128 128 128 0
8.037939 5.680143 43.743884 123 123 123 0
8.151311 5.684467 43.777180 110 110 110 0
8.734166 5.859630 45.126148 98 98 98 0
-7.104261 4.795376 36.246230 98 98 98 0
-7.050344 4.819223 36.426476 90 90 90 0
-6.997466 4.844399 36.616774 88 88 88 0
-6.406492 4.492864 33.959669 82 82 82 0
-6.324656 4.493835 33.967003 84 84 84 0
-6.239597 4.492510 33.956992 82 82 82 0
-6.583816 5.078944 38.389598 86 86 86 0
-6.552847 5.128315 38.762774 115 115 115 0
-6.465761 5.134575 38.810089 142 142 142 0
-6.377132 5.139778 38.849418 144 144 144 0
-6.283108 5.140725 38.856576 145 145 145 0
-6.191372 5.143601 38.878314 153 153 153 0
-6.109454 5.154851 38.963352 154 154 154 0
-6.019486 5.159560 38.998940 153 153 153 0
-5.921204 5.157178 38.980936 152 152 152 0
-5.818895 5.151153 38.935394 150 150 150 0
-5.690651 5.121586 38.711915 147 147 147 0
-5.564585 5.093010 38.495919 141 141 141 0
-5.469612 5.092398 38.491290 134 134 134 0
-5.371932 5.089199 38.467112 128 128 128 0
-5.276382 5.087940 38.457593 120 120 120 0
-5.193369 5.098944 38.540770 115 115 115 0
-5.113455 5.113455 38.650452 109 109 109 0
-4.597519 4.684265 35.406384 101 101 101 0
-4.833268 5.019163 37.937737 92 92 92 0
-4.885655 5.173046 39.100879 92 92 92 0
-4.696631 5.283710 39.937336 127 127 127 0
-4.601806 5.287181 39.963577 139 139 139 0
-4.501856 5.284787 39.945480 131 131 131 0
-4.404865 5.285838 39.953422 134 134 134 0
-4.312653 5.292802 40.006059 136 136 136 0
-4.213095 5.290863 39.991407 131 131 131 0
-4.114796 5.290452 39.988296 129 129 129 0
-4.026289 5.302917 40.082517 136 136 136 0
-3.928320 5.303232 40.084896 139 139 139 0
-3.832463 5.306487 40.109500 149 149 149 0
-3.735545 5.308406 40.124008 153 153 153 0
-3.637025 5.308090 40.121621 152 152 152 0
-3.531189 5.296784 40.036158 140 140 140 0
-3.433846 5.297933 40.044846 140 140 140 0
-3.336517 5.299175 40.054231 134 134 134 0
-3.251935 5.321348 40.221829 146 146 146 0
-3.158779 5.330439 40.290547 161 161 161 0
-3.055581 5.322626 40.231487 155 155 155 0
-2.961264 5.330276 40.289312 157 157 157 0
-2.854053 5.314443 40.169641 154 154 154 0
-2.755744 5.314650 40.171200 148 148 148 0
-2.660586 5.321172 40.220499 144 144 144 0
-2.565307 5.327946 40.271702 143 143 143 0
-2.462912 5.319889 40.210804 133 133 133 0
-2.367984 5.327965 40.271842 130 130 130 0
-2.270966 5.331833 40.301084 121 121 121 0
-2.172548 5.332617 40.307010 104 104 104 0
-2.072042 5.328109 40.272933 102 102 102 0
-1.987064 5.365074 40.552334 109 109 109 0
-1.897404 5.392623 40.760569 125 125 125 0
-1.803601 5.410803 40.897982 138 138 138 0
-1.706201 5.419697 40.965210 149 149 149 0
-1.606613 5.422320 40.985037 150 150 150 0
-1.504425 5.415931 40.936743 144 144 144 0
-1.405398 5.420823 40.973717 143 143 143 0
-1.305850 5.424300 41.000000 139 139 139 0
-1.205040 5.422679 40.987746 135 135 135 0
-1.107335 5.436007 41.088486 142 142 142 0
-1.010126 5.454679 41.229622 140 140 140 0
-0.908297 5.449782 41.192611 143 143 143 0
-0.805126 5.434599 41.077845 137 137 137 0
-0.703817 5.429443 41.038871 134 134 134 0
-0.603152 5.428371 41.030773 128 128 128 0
-0.502404 5.425960 41.012549 123 123 123 0
-0.401507 5.420350 40.970143 117 117 117 0
-0.301615 5.429063 41.035998 114 114 114 0
-0.201552 5.441900 41.133031 114 114 114 0
-0.100422 5.422807 40.988715 100 100 100 0
0.000000 5.472294 41.362768 110 110 110 0
0.101749 5.494456 41.530281 126 126 126 0
0.202819 5.476121 41.391693 127 127 127 0
0.304341 5.478145 41.406991 123 123 123 0
0.405409 5.473020 41.368252 116 116 116 0
0.505939 5.464140 41.301131 116 116 116 0
0.607492 5.467426 41.325971 111 111 111 0
0.710597 5.481747 41.434221 111 111 111 0
0.812277 5.482868 41.442691 114 114 114 0
0.913945 5.483668 41.448738 112 112 112 0
1.017753 5.495866 41.540938 117 117 117 0
1.119531 5.495879 41.541036 115 115 115 0
1.220641 5.492883 41.518393 117 117 117 0
1.320850 5.486608 41.470957 119 119 119 0
1.421697 5.483687 41.448881 119 119 119 0
1.523702 5.485327 41.461281 116 116 116 0
1.626668 5.490005 41.496634 119 119 119 0
1.728467 5.490424 41.499806 119 119 119 0
1.827114 5.481343 41.431164 118 118 118 0
1.927552 5.478307 41.408216 121 121 121 0
2.027498 5.474246 41.377520 117 117 117 0
2.128213 5.472548 41.364688 112 112 112 0
2.231650 5.477685 41.403517 99 99 99 0
2.340600 5.495321 41.536821 104 104 104 0
2.449659 5.511733 41.660866 106 106 106 0
2.563135 5.536372 41.847102 95 95 95 0
2.690726 5.588431 42.240594 91 91 91 0
2.815119 5.630238 42.556600 121 121 121 0
2.919510 5.630484 42.558458 130 130 130 0
3.028675 5.639603 42.627382 132 132 132 0
3.137978 5.648361 42.693584 126 126 126 0
3.245129 5.652805 42.727177 124 124 124 0
3.348801 5.651102 42.714303 124 124 124 0
3.465234 5.670383 42.860041 130 130 130 0
3.570607 5.670965 42.864434 137 137 137 0
3.680970 5.679210 42.926758 130 130 130 0
3.791238 5.686858 42.984563 121 121 121 0
3.878431 5.660413 42.784676 118 118 118 0
3.974150 5.647476 42.686894 124 124 124 0
4.134442 5.724612 43.269929 139 139 139 0
4.239032 5.722693 43.255431 144 144 144 0
4.357065 5.738573 43.375456 150 150 150 0
4.459805 5.734035 43.341160 143 143 143 0
4.565441 5.733345 43.335937 140 140 140 0
4.637532 5.691517 43.019777 141 141 141 0
4.729907 5.675888 42.901649 135 135 135 0
4.831328 5.671559 42.868930 141 141 141 0
4.934857 5.669836 42.855903 143 143 143 0
5.023671 5.651630 42.718292 145 145 145 0
5.133588 5.657423 42.762078 141 141 141 0
5.236082 5.654969 42.743530 139 139 139 0
5.335251 5.649089 42.699084 143 143 143 0
5.424477 5.633110 42.578310 139 139 139 0
5.540576 5.645115 42.669047 136 136 136 0
5.643222 5.643222 42.654738 134 134 134 0
5.735156 5.630880 42.561452 131 131 131 0
5.852650 5.643627 42.657798 129 129 129 0
5.957905 5.644331 42.663120 129 129 129 0
6.066625 5.648237 42.692644 127 127 127 0
6.180679 5.656893 42.758070 123 123 123 0
6.293346 5.664012 42.811880 118 118 118 0
6.396751 5.662698 42.801948 114 114 114 0
6.523962 5.682161 42.949061 109 109 109 0
6.635917 5.687929 42.992660 110 110 110 0
6.757019 5.701235 43.093236 124 124 124 0
6.875458 5.711919 43.173990 119 119 119 0
6.988282 5.717685 43.217573 105 105 105 0
7.095405 5.718684 43.225128 103 103 103 0
7.212985 5.727959 43.295227 112 112 112 0
7.347009 5.749833 43.460565 120 120 120 0
7.476651 5.767702 43.595633 123 123 123 0
7.592099 5.774272 43.645293 126 126 126 0
7.705977 5.779483 43.684679 131 131 131 0
7.803253 5.772269 43.630154 124 124 124 0
7.925134 5.783206 43.712818 123 123 123 0
8.049802 5.795857 43.808444 113 113 113 0
8.186661 5.816838 43.967029 95 95 95 0
8.804778 6.018456 45.490975 97 97 97 0
-7.134188 4.904754 36.398917 91 91 91 0
-7.082040 4.930534 36.590237 90 90 90 0
-6.484343 4.572293 33.931676 86 86 86 0
-6.414917 4.582084 34.004332 87 87 87 0
-6.594688 4.772472 35.417230 91 91 91 0
-7.057669 5.175624 38.409080 81 81 81 0
-6.821092 5.210556 38.668322 83 83 83 0
-6.723499 5.208344 38.651905 108 108 108 0
-6.642729 5.219287 38.733111 124 124 124 0
-6.547358 5.218909 38.730305 128 128 128 0
-6.462729 5.227208 38.791893 137 137 137 0
-6.377641 5.235377 38.852520 144 144 144 0
-6.282128 5.235107 38.850515 145 145 145 0
-6.190307 5.237952 38.871628 149 149 149 0
-6.098298 5.240725 38.892209 159 159 159 0
-6.015293 5.251446 38.971772 153 153 153 0
-5.923175 5.254430 38.993913 156 156 156 0
-5.826912 5.253773 38.989039 154 154 154 0
-5.714779 5.238547 38.876045 147 147 147 0
-5.595161 5.215829 38.707447 144 144 144 0
-5.485119 5.201405 38.600412 134 134 134 0
-5.393082 5.203851 38.618564 128 128 128 0
-5.291112 5.196627 38.564954 117 117 117 0
-5.201157 5.201157 38.598566 110 110 110 0
-5.123704 5.218588 38.727923 107 107 107 0
-5.038048 5.228163 38.798980 98 98 98 0
-4.464047 4.721588 35.039616 90 90 90 0
-4.438650 4.786779 35.523407 82 82 82 0
-4.789602 5.376084 39.896727 86 86 86 0
-4.706517 5.392884 40.021406 140 140 140 0
-4.605469 5.389379 39.995392 146 146 146 0
-4.507125 5.388954 39.992234 138 138 138 0
-4.411743 5.392131 40.015811 139 139 139 0
-4.316154 5.395192 40.038534 138 138 138 0
-4.216270 5.392903 40.021546 138 138 138 0
-4.123030 5.399206 40.068321 139 139 139 0
-4.030154 5.406304 40.120991 153 153 153 0
-3.937497 5.414059 40.178543 153 153 153 0
-3.833978 5.406893 40.125363 158 158 158 0
-3.732906 5.402890 40.095662 157 157 157 0
-3.635166 5.403625 40.101112 148 148 148 0
-3.535552 5.401538 40.085624 140 140 140 0
-3.435297 5.398324 40.061773 135 135 135 0
-3.337718 5.399250 40.068646 136 136 136 0
-3.247918 5.413196 40.172143 144 144 144 0
-3.153375 5.419863 40.221619 157 157 157 0
-3.053873 5.418162 40.208994 155 155 155 0
-2.959268 5.425325 40.262155 159 159 159 0
-2.853615 5.412029 40.163478 155 155 155 0
-2.754757 5.411130 40.156809 152 152 152 0
-2.656956 5.412318 40.165624 151 151 151 0
-2.556327 5.407615 40.130726 136 136 136 0
-2.457946 5.407482 40.129733 134 134 134 0
-2.361445 5.411644 40.160622 129 129 129 0
-2.265980 5.418649 40.212605 116 116 116 0
-2.168857 5.422143 40.238536 102 102 102 0
-2.067810 5.415694 40.190679 104 104 104 0
-1.984301 5.456829 40.495945 105 105 105 0
-1.893264 5.480501 40.671618 113 113 113 0
-1.800771 5.502355 40.833804 133 133 133 0
-1.707109 5.522998 40.987001 154 154 154 0
-1.607688 5.526428 41.012452 154 154 154 0
-1.505633 5.520656 40.969619 143 143 143 0
-1.403958 5.515549 40.931721 141 141 141 0
-1.304201 5.517772 40.948217 135 135 135 0
-1.202728 5.512503 40.909116 130 130 130 0
-1.105406 5.527029 41.016913 132 132 132 0
-1.010486 5.557672 41.244317 147 147 147 0
-0.909215 5.556316 41.234258 150 150 150 0
-0.806528 5.544882 41.149401 143 143 143 0
-0.705774 5.545367 41.153002 137 137 137 0
-0.604079 5.537386 41.093777 133 133 133 0
-0.503390 5.537287 41.093037 129 129 129 0
-0.402612 5.535915 41.082854 122 122 122 0
-0.302436 5.544663 41.147777 124 124 124 0
-0.201720 5.547299 41.167340 120 120 120 0
-0.100920 5.550612 41.191927 88 88 88 0
0.000000 5.591722 41.497008 104 104 104 0
0.101974 5.608550 41.621891 125 125 125 0
0.203382 5.593003 41.506514 123 123 123 0
0.305139 5.594207 41.515449 117 117 117 0
0.407356 5.601143 41.566925 115 115 115 0
0.508182 5.590003 41.484251 116 116 116 0
0.609962 5.591316 41.493998 115 115 115 0
0.712723 5.599964 41.558173 115 115 115 0
0.814941 5.602720 41.578629 114 114 114 0
0.917280 5.605597 41.599978 116 116 116 0
1.020606 5.613332 41.657380 116 116 116 0
1.123515 5.617576 41.688874 118 118 118 0
1.224964 5.614419 41.665450 120 120 120 0
1.327718 5.617268 41.686590 117 117 117 0
1.430976 5.621692 41.719423 121 121 121 0
1.529898 5.609626 41.629876 122 122 122 0
1.633152 5.613959 41.662035 121 121 121 0
1.735171 5.613787 41.660759 123 123 123 0
1.833415 5.602100 41.574026 122 122 122 0
1.932942 5.595359 41.524003 118 118 118 0
2.035905 5.598738 41.549079 112 112 112 0
2.139786 5.604201 41.589621 108 108 108 0
2.240703 5.601757 41.571482 105 105 105 0
2.351380 5.622866 41.728136 105 105 105 0
2.145918 4.917729 36.495207 98 98 98 0
2.262562 4.977636 36.939785 94 94 94 0
2.707636 5.727692 42.506060 122 122 122 0
2.818971 5.742347 42.614824 128 128 128 0
2.918726 5.733211 42.547021 131 131 131 0
3.032223 5.750768 42.677315 129 129 129 0
3.139056 5.754936 42.708241 130 130 130 0
3.248666 5.763762 42.773746 124 124 124 0
3.347406 5.753354 42.696505 125 125 125 0
3.463140 5.771900 42.834134 133 133 133 0
3.570362 5.775586 42.861491 134 134 134 0
3.681227 5.784786 42.929764 127 127 127 0
3.794837 5.797668 43.025365 122 122 122 0
3.871263 5.754580 42.705604 115 115 115 0
3.979874 5.760345 42.748382 126 126 126 0
4.142224 5.841599 43.351381 146 146 146 0
4.250334 5.844209 43.370756 152 152 152 0
4.358759 5.847115 43.392320 148 148 148 0
4.466088 5.848448 43.402212 144 144 144 0
4.561291 5.834209 43.296541 142 142 142 0
4.647741 5.809676 43.114479 135 135 135 0
4.740938 5.794480 43.001704 139 139 139 0
4.835830 5.781971 42.908872 136 136 136 0
4.936156 5.776352 42.867179 140 140 140 0
5.025748 5.758669 42.735948 143 143 143 0
5.136124 5.765037 42.783203 143 143 143 0
5.240466 5.764513 42.779317 143 143 143 0
5.333876 5.752219 42.688082 143 143 143 0
5.437888 5.751612 42.683576 142 142 142 0
5.541520 5.750634 42.676318 141 141 141 0
5.645778 5.750330 42.674063 137 137 137 0
5.741614 5.741614 42.609380 137 137 137 0
5.861918 5.757241 42.725352 134 134 134 0
5.963751 5.754496 42.704983 132 132 132 0
6.066119 5.752355 42.689088 132 132 132 0
6.180562 5.761540 42.757258 128 128 128 0
6.289803 5.765652 42.787773 115 115 115 0
6.396163 5.767033 42.798016 108 108 108 0
6.525340 5.788608 42.958128 109 109 109 0
6.634814 5.792298 42.985514 108 108 108 0
6.763086 5.812027 43.131925 124 124 124 0
6.880273 5.821770 43.204227 124 124 124 0
6.991196 5.825997 43.235597 112 112 112 0
6.194969 5.085422 37.739681 108 108 108 0
7.225735 5.844344 43.371756 112 112 112 0
7.349903 5.858618 43.477687 118 118 118 0
7.463165 5.863915 43.516996 123 123 123 0
7.578894 5.870975 43.569384 125 125 125 0
7.697972 5.880395 43.639294 126 126 126 0
7.808790 5.883335 43.661113 121 121 121 0
7.326541 5.445402 40.411149 116 116 116 0
8.052507 5.905172 43.823166 102 102 102 0
8.852366 6.163040 45.736843 93 93 93 0
-7.192431 5.034702 36.696078 92 92 92 0
-7.098853 5.032098 36.677102 92 92 92 0
-7.000414 5.025938 36.632205 94 94 94 0
-7.249444 5.272323 38.428010 108 108 108 0
-7.165865 5.280111 38.484776 137 137 137 0
-7.092034 5.295385 38.596102 139 139 139 0
-6.993402 5.292304 38.573647 130 130 130 0
-6.895806 5.289933 38.556363 130 130 130 0
-6.809903 5.296591 38.604893 131 131 131 0
-6.726386 5.305318 38.668502 133 133 133 0
-6.635664 5.308531 38.691918 134 134 134 0
-6.545805 5.312537 38.721117 123 123 123 0
-6.460718 5.320591 38.779821 135 135 135 0
-6.376220 5.329378 38.843863 141 141 141 0
-6.280514 5.328921 38.840533 142 142 142 0
-6.186312 5.329746 38.846545 149 149 149 0
-6.098159 5.335889 38.891320 152 152 152 0
-6.007548 5.340042 38.921591 149 149 149 0
-5.923669 5.350411 38.997162 159 159 159 0
-5.832117 5.354074 39.023865 153 153 153 0
-5.725813 5.344093 38.951112 150 150 150 0
-5.611663 5.326324 38.821603 144 144 144 0
-5.505279 5.315442 38.742289 132 132 132 0
-5.409493 5.314589 38.736075 124 124 124 0
-5.317169 5.317169 38.754874 115 115 115 0
-5.223980 5.318961 38.767939 114 114 114 0
-5.138638 5.328957 38.840798 106 106 106 0
-4.625349 4.887161 35.620705 96 96 96 0
-4.485551 4.830593 35.208403 100 100 100 0
-4.885541 5.364515 39.099965 83 83 83 0
-4.793489 5.478273 39.929106 109 109 109 0
-4.709517 5.494436 40.046913 148 148 148 0
-4.609362 5.492006 40.029198 146 146 146 0
-4.511815 5.492644 40.033851 141 141 141 0
-4.415240 5.494521 40.047532 144 144 144 0
-4.318157 5.495836 40.057113 147 147 147 0
-4.224558 5.501750 40.100218 149 149 149 0
-4.124251 5.499001 40.080182 152 152 152 0
-4.031640 5.506630 40.135786 152 152 152 0
-3.932835 5.505969 40.130970 153 153 153 0
-3.833235 5.504132 40.117579 158 158 158 0
-3.732658 5.500759 40.092997 157 157 157 0
-3.635236 5.501979 40.101891 147 147 147 0
-3.535976 5.500408 40.090435 140 140 140 0
-3.437341 5.499745 40.085605 139 139 139 0
-3.336043 5.494660 40.048539 138 138 138 0
-3.250899 5.516677 40.209015 153 153 153 0
-3.153066 5.517865 40.217674 155 155 155 0
-3.051006 5.511494 40.171241 156 156 156 0
-2.954703 5.515446 40.200047 157 157 157 0
-2.853353 5.509922 40.159784 154 154 154 0
-2.752367 5.504735 40.121973 150 150 150 0
-2.655439 5.507577 40.142692 148 148 148 0
-2.553885 5.500674 40.092379 141 141 141 0
-2.455210 5.499671 40.085062 138 138 138 0
-2.359631 5.505805 40.129777 126 126 126 0
-2.268803 5.524041 40.262691 120 120 120 0
-2.168502 5.519823 40.231946 103 103 103 0
-2.077955 5.541215 40.387861 100 100 100 0
-1.975665 5.531861 40.319687 103 103 103 0
-1.883148 5.550332 40.454316 109 109 109 0
-1.798093 5.594067 40.773084 132 132 132 0
-1.706655 5.621921 40.976102 150 150 150 0
-1.607537 5.626379 41.008597 155 155 155 0
-1.504933 5.618415 40.950549 153 153 153 0
-1.405026 5.620104 40.962857 143 143 143 0
-1.303376 5.614545 40.922337 126 126 126 0
-1.199939 5.599716 40.814253 126 126 126 0
-1.104988 5.625393 41.001407 140 140 140 0
-1.010447 5.658502 41.242728 159 159 159 0
-0.907779 5.648403 41.169120 153 153 153 0
-0.806745 5.647216 41.160469 151 151 151 0
-0.706307 5.650453 41.184063 141 141 141 0
-0.605025 5.646898 41.158150 137 137 137 0
-0.504307 5.648235 41.167895 137 137 137 0
-0.403387 5.647423 41.161972 129 129 129 0
-0.302802 5.652312 41.197612 125 125 125 0
-0.202097 5.658705 41.244209 115 115 115 0
-0.100911 5.651043 41.188361 79 79 79 0
0.000000 5.721653 41.703011 106 106 106 0
0.102347 5.731447 41.774392 121 121 121 0
0.204125 5.715511 41.658244 117 117 117 0
0.306138 5.714575 41.651420 121 121 121 0
0.408153 5.714149 41.648315 125 125 125 0
0.510114 5.713275 41.641945 124 124 124 0
0.611397 5.706375 41.591658 120 120 120 0
0.714682 5.717455 41.672409 119 119 119 0
0.816889 5.718224 41.678017 118 118 118 0
0.919308 5.720137 41.691964 119 119 119 0
1.022542 5.726235 41.736409 119 119 119 0
1.127812 5.741590 41.848321 122 122 122 0
1.227961 5.730484 41.767375 121 121 121 0
1.332980 5.742069 41.851814 121 121 121 0
1.434902 5.739607 41.833868 124 124 124 0
1.536283 5.735458 41.803628 126 126 126 0
1.637871 5.732550 41.782433 125 125 125 0
1.738842 5.727949 41.748902 124 124 124 0
1.841184 5.728129 41.750213 125 125 125 0
1.938764 5.714252 41.649068 122 122 122 0
2.043481 5.721746 41.703690 118 118 118 0
2.145401 5.721068 41.698747 113 113 113 0
2.249192 5.725216 41.728976 110 110 110 0
2.357932 5.741051 41.844395 101 101 101 0
2.484091 5.796213 42.246453 99 99 99 0
2.600103 5.824232 42.450669 126 126 126 0
2.708554 5.833808 42.520464 130 130 130 0
2.816407 5.841437 42.576070 128 128 128 0
2.918915 5.837830 42.549784 125 125 125 0
3.027704 5.846601 42.613710 127 127 127 0
3.137464 5.856599 42.686582 127 127 127 0
3.246884 5.865339 42.750281 126 126 126 0
3.350366 5.863141 42.734266 123 123 123 0
3.463644 5.877700 42.840376 130 130 130 0
3.573101 5.885108 42.894371 133 133 133 0
3.679462 5.887139 42.909177 124 124 124 0
3.794121 5.901966 43.017243 117 117 117 0
3.872678 5.861351 42.721214 114 114 114 0
3.983470 5.870378 42.787008 124 124 124 0
4.144139 5.950559 43.371423 147 147 147 0
4.246742 5.945439 43.334105 152 152 152 0
4.356423 5.950236 43.369067 151 151 151 0
4.465681 5.954241 43.398257 146 146 146 0
4.565670 5.945989 43.338114 143 143 143 0
4.648554 5.916342 43.122023 139 139 139 0
4.748522 5.909272 43.070492 135 135 135 0
4.846332 5.899883 43.002060 135 135 135 0
4.940025 5.885987 42.900777 139 139 139 0
5.032514 5.871266 42.793487 144 144 144 0
5.131469 5.864536 42.744433 147 147 147 0
5.239060 5.867747 42.767836 144 144 144 0
5.333238 5.856104 42.682974 145 145 145 0
5.436339 5.854519 42.671419 144 144 144 0
5.539785 5.853358 42.662956 144 144 144 0
5.644697 5.853760 42.665892 140 140 140 0
5.743389 5.847814 42.622553 139 139 139 0
5.859936 5.859936 42.710900 137 137 137 0
5.962029 5.857432 42.692650 134 134 134 0
6.066334 5.857150 42.690598 132 132 132 0
6.179567 5.865352 42.750376 127 127 127 0
6.301105 5.881032 42.864662 116 116 116 0
6.401863 5.877120 42.836152 105 105 105 0
6.523474 5.892170 42.945848 105 105 105 0
6.632504 5.895559 42.970548 102 102 102 0
6.765612 5.919910 43.148033 121 121 121 0
6.885681 5.932279 43.238186 124 124 124 0
7.001048 5.940283 43.296523 115 115 115 0
7.093362 5.928781 43.212686 111 111 111 0
7.232080 5.955831 43.409844 115 115 115 0
7.342948 5.959494 43.436547 116 116 116 0
7.453256 5.962605 43.459218 123 123 123 0
7.583381 5.981258 43.595178 123 123 123 0
7.693742 5.984021 43.615316 121 121 121 0
7.805185 5.987539 43.640954 116 116 116 0
7.944058 6.011720 43.817200 105 105 105 0
7.590679 5.667707 41.309818 87 87 87 0
-7.546315 5.376750 38.501610 123 123 123 0
-7.436227 5.365379 38.420187 127 127 127 0
-7.359660 5.378213 38.512086 135 135 135 0
-7.257325 5.372306 38.469787 139 139 139 0
-7.167839 5.375880 38.495379 145 145 145 0
-7.078954 5.380005 38.524920 142 142 142 0
-6.977438 5.374513 38.485594 139 139 139 0
-6.886196 5.376893 38.502636 137 137 137 0
-6.806549 5.388518 38.585876 135 135 135 0
-6.725082 5.399010 38.661009 132 132 132 0
-6.627637 5.396790 38.645116 126 126 126 0
-6.538345 5.401241 38.676987 127 127 127 0
-6.446801 5.403936 38.696282 135 135 135 0
-6.371243 5.420311 38.813542 140 140 140 0
-6.275376 5.419643 38.808758 139 139 139 0
-6.182886 5.421915 38.825028 145 145 145 0
-6.094238 5.427681 38.866313 153 153 153 0
-6.006884 5.434800 38.917290 149 149 149 0
-5.909020 5.432486 38.900726 153 153 153 0
-5.826743 5.444662 38.987912 155 155 155 0
-5.731904 5.445309 38.992546 153 153 153 0
-5.622703 5.432103 38.897983 144 144 144 0
-5.525072 5.429812 38.881575 132 132 132 0
-5.429713 5.429713 38.880863 123 123 123 0
-5.332118 5.427334 38.863833 117 117 117 0
-5.238713 5.429212 38.877276 112 112 112 0
-5.165165 5.452118 39.041305 106 106 106 0
-4.627755 4.977019 35.639234 102 102 102 0
-4.544937 4.981950 35.674543 91 91 91 0
-4.806273 5.590970 40.035591 136 136 136 0
-4.709569 5.592613 40.047353 150 150 150 0
-4.612683 5.594105 40.058038 147 147 147 0
-4.513224 5.592473 40.046353 146 146 146 0
-4.415320 5.592739 40.048253 150 150 150 0
-4.322841 5.600045 40.100570 157 157 157 0
-4.224529 5.599957 40.099939 148 148 148 0
-4.122295 5.594543 40.061172 147 147 147 0
-4.032053 5.605537 40.139901 154 154 154 0
-3.932932 5.604428 40.131962 155 155 155 0
-3.831747 5.600246 40.102009 156 156 156 0
-3.731972 5.597957 40.085623 155 155 155 0
-3.633290 5.597230 40.080416 153 153 153 0
-3.535437 5.597776 40.084325 140 140 140 0
-3.435356 5.594723 40.062461 137 137 137 0
-3.333960 5.589285 40.023524 137 137 137 0
-3.248799 5.611563 40.183047 153 153 153 0
-3.150006 5.610948 40.178644 155 155 155 0
-3.051339 5.610527 40.175629 156 156 156 0
-2.956029 5.616456 40.218085 156 156 156 0
-2.851541 5.604753 40.134283 151 151 151 0
-2.751619 5.601510 40.111066 152 152 152 0
-2.650511 5.595523 40.068192 148 148 148 0
-2.549863 5.590085 40.029249 144 144 144 0
-2.453677 5.594384 40.060034 130 130 130 0
-2.358262 5.600873 40.106500 125 125 125 0
-2.265798 5.615238 40.209364 117 117 117 0
-2.172847 5.629650 40.312566 114 114 114 0
-1.870235 5.076351 36.350527 102 102 102 0
-1.978073 5.637508 40.368837 104 104 104 0
-1.874892 5.624676 40.276948 104 104 104 0
-1.795328 5.685204 40.710379 128 128 128 0
-1.705377 5.718030 40.945438 149 149 149 0
-1.606600 5.723511 40.984682 155 155 155 0
-1.506082 5.723110 40.981813 155 155 155 0
-1.403701 5.715068 40.924221 145 145 145 0
-1.301895 5.708308 40.875816 127 127 127 0
-1.201805 5.708572 40.877708 124 124 124 0
-1.102041 5.710577 40.892069 128 128 128 0
-1.009148 5.752141 41.189699 154 154 154 0
-0.907368 5.746665 41.150485 151 151 151 0
-0.806722 5.747896 41.159299 146 146 146 0
-0.706886 5.756075 41.217865 140 140 140 0
-0.605715 5.754292 41.205096 138 138 138 0
-0.504489 5.751175 41.182780 138 138 138 0
-0.403933 5.756051 41.217697 132 132 132 0
-0.303503 5.766554 41.292902 123 123 123 0
-0.201845 5.752585 41.192874 105 105 105 0
0.000000 5.837365 41.799967 110 110 110 0
0.102655 5.851357 41.900159 134 134 134 0
0.205084 5.844885 41.853815 128 128 128 0
0.307107 5.835035 41.783281 132 132 132 0
0.409323 5.832851 41.767643 132 132 132 0
0.511255 5.828306 41.735091 129 129 129 0
0.612895 5.822498 41.693508 121 121 121 0
0.716602 5.835184 41.784345 122 122 122 0
0.818981 5.835240 41.784744 122 122 122 0
0.922280 5.841105 41.826742 124 124 124 0
1.025543 5.845595 41.858900 124 124 124 0
1.129391 5.852299 41.906904 126 126 126 0
1.230369 5.844254 41.849291 127 127 127 0
1.334801 5.852590 41.908984 130 130 130 0
1.437377 5.852179 41.906046 132 132 132 0
1.538981 5.848127 41.877025 132 132 132 0
1.640850 5.845529 41.858424 131 131 131 0
1.742043 5.840968 41.825764 130 130 130 0
1.844773 5.841780 41.831582 130 130 130 0
1.944095 5.832285 41.763588 125 125 125 0
2.049011 5.839682 41.816552 120 120 120 0
2.151044 5.838548 41.808438 109 109 109 0
2.257448 5.848843 41.882156 103 103 103 0
2.382877 5.905390 42.287072 112 112 112 0
2.491578 5.917498 42.373776 124 124 124 0
2.597643 5.922625 42.410494 132 132 132 0
2.709942 5.941027 42.542266 129 129 129 0
2.815102 5.942993 42.556338 125 125 125 0
2.919086 5.942425 42.552275 125 125 125 0
3.030383 5.956270 42.651416 124 124 124 0
3.138788 5.963697 42.704598 126 126 126 0
3.243769 5.964349 42.709268 124 124 124 0
3.352048 5.970836 42.755716 124 124 124 0
3.463591 5.982566 42.839715 131 131 131 0
3.569523 5.984200 42.851413 132 132 132 0
3.681146 5.995009 42.928817 124 124 124 0
3.784230 5.991697 42.905101 117 117 117 0
3.874266 5.968464 42.738731 120 120 120 0
3.988949 5.983423 42.845851 124 124 124 0
4.146787 6.060689 43.399136 150 150 150 0
4.246660 6.051491 43.333270 151 151 151 0
4.358381 6.059213 43.388566 148 148 148 0
4.461928 6.055474 43.361792 148 148 148 0
4.560175 6.044883 43.285949 144 144 144 0
4.657390 6.033436 43.203985 140 140 140 0
4.761404 6.031111 43.187335 135 135 135 0
4.855648 6.016782 43.084725 136 136 136 0
4.946901 5.999434 42.960499 136 136 136 0
5.038225 5.982892 42.842046 141 141 141 0
5.139825 5.978980 42.814032 141 141 141 0
5.245912 5.980340 42.823774 144 144 144 0
5.337729 5.965698 42.718923 146 146 146 0
5.442610 5.965938 42.720646 145 145 145 0
5.546433 5.965032 42.714155 144 144 144 0
5.648767 5.962588 42.696653 140 140 140 0
5.747203 5.956193 42.650860 137 137 137 0
5.857458 5.962055 42.692841 136 136 136 0
5.965543 5.965543 42.717817 135 135 135 0
6.066274 5.961683 42.690175 131 131 131 0
6.181422 5.971882 42.763210 132 132 132 0
6.290100 5.975595 42.789798 114 114 114 0
6.408464 5.988237 42.880323 103 103 103 0
6.531241 6.004528 42.996977 103 103 103 0
6.650628 6.017235 43.087971 103 103 103 0
6.773641 6.032774 43.199244 116 116 116 0
6.898305 6.049283 43.317457 125 125 125 0
7.002646 6.047739 43.306404 119 119 119 0
7.114287 6.052453 43.340157 116 116 116 0
7.241811 6.070342 43.468255 116 116 116 0
7.340498 6.063889 43.422050 118 118 118 0
7.472688 6.084903 43.572527 118 118 118 0
7.581151 6.086276 43.582358 120 120 120 0
7.700422 6.096167 43.653185 118 118 118 0
7.824230 6.109330 43.747439 108 108 108 0
7.969778 6.138883 43.959061 93 93 93 0
-7.531403 5.460267 38.425524 153 153 153 0
-7.442493 5.464109 38.452559 152 152 152 0
-7.345063 5.461714 38.435705 141 141 141 0
-7.244715 5.457058 38.402943 140 140 140 0
-7.157858 5.462576 38.441774 142 142 142 0
-7.067258 5.465346 38.461267 141 141 141 0
-6.972961 5.465294 38.460901 138 138 138 0
-6.882671 5.468424 38.482926 135 135 135 0
-6.799551 5.477416 38.546208 134 134 134 0
-6.717434 5.487481 38.617041 132 132 132 0
-6.622984 5.487615 38.617983 131 131 131 0
-6.526521 5.486061 38.607043 122 122 122 0
-6.443454 5.495887 38.676192 129 129 129 0
-6.368046 5.512636 38.794064 135 135 135 0
-6.270361 5.510317 38.777743 138 138 138 0
-6.178098 5.512764 38.794964 142 142 142 0
-6.093318 5.522069 38.860445 150 150 150 0
-6.004310 5.527777 38.900615 151 151 151 0
-5.906287 5.525237 38.882734 149 149 149 0
-5.821699 5.535386 38.954156 154 154 154 0
-5.727623 5.536702 38.963419 150 150 150 0
-5.633928 5.538437 38.975631 144 144 144 0
-5.536767 5.536767 38.963880 130 130 130 0
-5.442416 5.537897 38.971830 125 125 125 0
-5.347152 5.538122 38.973410 117 117 117 0
-5.260090 5.547004 39.035915 112 112 112 0
-5.174240 5.557518 39.109906 106 106 106 0
-5.088871 5.568953 39.190378 102 102 102 0
-4.554134 5.079611 35.746735 96 96 96 0
-4.893884 5.676905 39.950073 87 87 87 0
-4.809879 5.693326 40.065629 142 142 142 0
-4.716122 5.698648 40.103081 150 150 150 0
-4.613928 5.693784 40.068854 147 147 147 0
-4.512943 5.690233 40.043863 147 147 147 0
-4.418066 5.694396 40.073162 149 149 149 0
-4.322264 5.697529 40.095211 149 149 149 0
-4.222453 5.695402 40.080237 147 147 147 0
-4.124835 5.696201 40.085862 150 150 150 0
-4.032831 5.704980 40.147641 160 160 160 0
-3.934802 5.705463 40.151044 157 157 157 0
-3.831450 5.698055 40.098906 156 156 156 0
-3.729568 5.692498 40.059805 160 160 160 0
-3.632420 5.694063 40.070819 151 151 151 0
-3.535120 5.695471 40.080723 141 141 141 0
-3.436046 5.694019 40.070505 141 141 141 0
-3.335311 5.689648 40.039748 138 138 138 0
-3.251979 5.715600 40.222379 155 155 155 0
-3.149182 5.707892 40.168136 155 155 155 0
-3.048330 5.703328 40.136014 154 154 154 0
-2.952470 5.708108 40.169657 152 152 152 0
-2.848538 5.697077 40.092024 152 152 152 0
-2.747852 5.691979 40.056147 152 152 152 0
-2.647461 5.687138 40.022080 148 148 148 0
-2.549267 5.686826 40.019888 142 142 142 0
-2.451465 5.687398 40.023913 130 130 130 0
-2.357655 5.697667 40.096176 128 128 128 0
-2.263811 5.708741 40.174108 120 120 120 0
-2.165906 5.710115 40.183779 112 112 112 0
-2.070322 5.718033 40.239501 115 115 115 0
-1.976360 5.731445 40.333884 106 106 106 0
-1.881886 5.744705 40.427197 101 101 101 0
-1.787807 5.760710 40.539831 112 112 112 0
-1.702448 5.808354 40.875113 148 148 148 0
-1.604512 5.816356 40.931430 157 157 157 0
-1.505776 5.822332 40.973483 152 152 152 0
-1.403480 5.814416 40.917776 150 150 150 0
-1.301465 5.806534 40.862309 129 129 129 0
-1.201083 5.805232 40.853148 123 123 123 0
-1.099664 5.798227 40.803850 121 121 121 0
-1.006904 5.840042 41.098113 146 146 146 0
-0.907532 5.848542 41.157929 148 148 148 0
-0.805987 5.843405 41.121782 137 137 137 0
-0.706781 5.856187 41.211731 141 141 141 0
-0.606209 5.860022 41.238721 136 136 136 0
-0.505143 5.859657 41.236153 134 134 134 0
-0.404290 5.862212 41.254128 129 129 129 0
-0.303756 5.872623 41.327394 120 120 120 0
-0.180448 5.232986 36.826080 95 95 95 0
0.000000 5.952180 41.887260 117 117 117 0
0.102690 5.955994 41.914105 141 141 141 0
0.205363 5.955513 41.910720 139 139 139 0
0.307547 5.945904 41.843096 143 143 143 0
0.409921 5.943853 41.828661 138 138 138 0
0.511833 5.937264 41.782291 132 132 132 0
0.613789 5.933294 41.754357 129 129 129 0
0.717332 5.943605 41.826919 128 128 128 0
0.820759 5.950502 41.875454 124 124 124 0
0.924141 5.955574 41.911150 127 127 127 0
1.026581 5.954167 41.901245 129 129 129 0
1.130511 5.960877 41.948463 132 132 132 0
1.232345 5.956333 41.916491 134 134 134 0
1.335112 5.956655 41.918756 137 137 137 0
1.439634 5.964198 41.971838 139 139 139 0
1.541063 5.958775 41.933673 139 139 139 0
1.643829 5.958880 41.934415 138 138 138 0
1.745246 5.954367 41.902656 134 134 134 0
1.846824 5.950878 41.878099 128 128 128 0
1.949982 5.952575 41.890044 120 120 120 0
2.056852 5.964872 41.976577 114 114 114 0
2.164027 5.976836 42.060774 108 108 108 0
2.280193 6.011418 42.304137 123 123 123 0
2.391019 6.029526 42.431573 134 134 134 0
2.494101 6.027410 42.416676 130 130 130 0
2.600541 6.033254 42.457806 131 131 131 0
2.710873 6.047332 42.556876 131 131 131 0
2.814766 6.046534 42.551258 130 130 130 0
2.915823 6.039920 42.504715 127 127 127 0
3.029103 6.058205 42.633395 124 124 124 0
3.138675 6.068105 42.703064 124 124 124 0
3.243805 6.069055 42.709745 123 123 123 0
3.351030 6.073741 42.742724 125 125 125 0
3.468242 6.095698 42.897241 129 129 129 0
3.572539 6.094332 42.887628 129 129 129 0
3.684710 6.106091 42.970378 126 126 126 0
3.792069 6.109445 42.993984 120 120 120 0
3.865278 6.059084 42.639581 117 117 117 0
3.997299 6.101141 42.935546 121 121 121 0
4.140770 6.158069 43.336162 145 145 145 0
4.245770 6.156367 43.324187 150 150 150 0
4.357432 6.164172 43.379114 149 149 149 0
4.466901 6.168577 43.410113 145 145 145 0
4.560014 6.150717 43.284426 147 147 147 0
4.655888 6.137307 43.190055 143 143 143 0
4.760219 6.135393 43.176586 136 136 136 0
4.866671 6.136238 43.182532 134 134 134 0
4.957211 6.117410 43.050035 124 124 124 0
5.043552 6.094292 42.887344 131 131 131 0
5.147515 6.092977 42.878093 139 139 139 0
5.244839 6.084013 42.815010 140 140 140 0
5.340039 6.072985 42.737406 141 141 141 0
5.446139 6.074539 42.748340 143 143 143 0
5.551016 6.074697 42.749452 144 144 144 0
5.651415 6.070038 42.716664 139 139 139 0
5.747510 6.061010 42.653132 140 140 140 0
5.863425 6.072833 42.736334 139 139 139 0
5.967272 6.071961 42.730195 134 134 134 0
6.070624 6.070624 42.720792 131 131 131 0
6.184166 6.079350 42.782196 133 133 133 0
6.288994 6.079361 42.782270 113 113 113 0
6.403237 6.088324 42.845345 104 104 104 0
6.536698 6.114975 43.032901 102 102 102 0
6.636663 6.109944 42.997493 104 104 104 0
6.776639 6.141329 43.218363 116 116 116 0
6.901923 6.158639 43.340174 123 123 123 0
7.007665 6.158251 43.337448 122 122 122 0
7.122017 6.165329 43.387252 122 122 122 0
7.246387 6.180742 43.495719 118 118 118 0
7.352187 6.180099 43.491199 118 118 118 0
7.473413 6.192257 43.576754 119 119 119 0
7.591218 6.201277 43.640230 118 118 118 0
7.710018 6.210848 43.707585 112 112 112 0
7.834189 6.224424 43.803123 100 100 100 0
-7.523681 5.548714 38.386126 155 155 155 0
-7.439147 5.555819 38.435272 154 154 154 0
-7.337099 5.549857 38.394032 152 152 152 0
-7.232730 5.541962 38.339410 150 150 150 0
-7.150200 5.550813 38.400643 146 146 146 0
-7.061811 5.555292 38.431626 140 140 140 0
-6.967018 5.554784 38.428117 139 139 139 0
-6.870853 5.553155 38.416847 134 134 134 0
-6.789177 5.563353 38.487398 136 136 136 0
-6.704077 5.570993 38.540251 135 135 135 0
-6.615668 5.576063 38.575326 129 129 129 0
-6.525030 5.579374 38.598226 125 125 125 0
-6.440534 5.588111 38.658668 123 123 123 0
-6.353105 5.594525 38.703043 129 129 129 0
-6.266822 5.602159 38.755854 135 135 135 0
-6.177276 5.607066 38.789800 138 138 138 0
-6.091669 5.615757 38.849927 144 144 144 0
-5.999890 5.618945 38.871980 149 149 149 0
-5.904699 5.618988 38.872277 149 149 149 0
-5.815954 5.625267 38.915716 147 147 147 0
-5.724921 5.629506 38.945042 149 149 149 0
-5.632115 5.632115 38.963091 143 143 143 0
-5.539952 5.635468 38.986289 132 132 132 0
-5.450917 5.642177 39.032700 127 127 127 0
-5.359967 5.647108 39.066812 119 119 119 0
-5.273483 5.657009 39.135308 113 113 113 0
-5.198179 5.679492 39.290849 108 108 108 0
-4.668340 5.196831 35.951790 105 105 105 0
-4.565592 5.180191 35.836672 96 96 96 0
-4.900339 5.782400 40.002765 97 97 97 0
-4.813155 5.795432 40.092922 144 144 144 0
-4.712420 5.792349 40.071595 152 152 152 0
-4.618305 5.797447 40.106860 157 157 157 0
-4.513957 5.789640 40.052856 150 150 150 0
-4.418206 5.792760 40.074435 149 149 149 0
-4.323157 5.796960 40.103496 150 150 150 0
-4.224835 5.796867 40.102848 152 152 152 0
-4.125434 5.795252 40.091679 158 158 158 0
-4.030030 5.799311 40.119759 162 162 162 0
-3.932285 5.800120 40.125354 156 156 156 0
-3.829513 5.793366 40.078632 157 157 157 0
-3.730284 5.791756 40.067494 155 155 155 0
-3.631534 5.790824 40.061046 147 147 147 0
-3.533210 5.790539 40.059071 145 145 145 0
-3.435424 5.791143 40.063254 139 139 139 0
-3.340941 5.797515 40.107335 140 140 140 0
-3.246239 5.803881 40.151374 151 151 151 0
-3.148815 5.805627 40.163453 155 155 155 0
-3.047293 5.799687 40.122357 152 152 152 0
-2.949548 5.800778 40.129904 154 154 154 0
-2.847092 5.792361 40.071675 152 152 152 0
-2.745576 5.785322 40.022980 152 152 152 0
-2.644603 5.778948 39.978883 148 148 148 0
-2.546383 5.778332 39.974623 142 142 142 0
-2.448112 5.777543 39.969168 133 133 133 0
-2.352114 5.782280 40.001936 126 126 126 0
-2.261265 5.800637 40.128930 122 122 122 0
-2.164355 5.804407 40.155009 116 116 116 0
-2.070271 5.816477 40.238510 110 110 110 0
-1.783264 5.260628 36.393139 109 109 109 0
-1.698177 5.273285 36.480701 102 102 102 0
-1.782466 5.842529 40.418741 105 105 105 0
-1.700129 5.900448 40.819424 134 134 134 0
-1.604214 5.915540 40.923832 153 153 153 0
-1.505838 5.922964 40.975192 153 153 153 0
-1.402946 5.912414 40.902210 151 151 151 0
-1.301423 5.906460 40.861017 136 136 136 0
-1.200656 5.903226 40.838646 126 126 126 0
-1.098791 5.893517 40.771479 117 117 117 0
-1.004714 5.927810 41.008719 132 132 132 0
-0.907999 5.952435 41.179075 138 138 138 0
-0.807047 5.951972 41.175871 134 134 134 0
-0.707441 5.962720 41.250223 138 138 138 0
-0.606472 5.963641 41.256600 135 135 135 0
-0.505422 5.963979 41.258937 133 133 133 0
-0.404688 5.969148 41.294693 128 128 128 0
-0.304366 5.985858 41.410295 112 112 112 0
-0.202277 5.967170 41.281007 91 91 91 0
0.000000 6.061195 41.931477 120 120 120 0
0.102899 6.071041 41.999589 137 137 137 0
0.205500 6.062261 41.938852 142 142 142 0
0.307646 6.050377 41.856637 147 147 147 0
0.410017 6.047750 41.838461 142 142 142 0
0.511985 6.041418 41.794657 132 132 132 0
0.614849 6.046017 41.826477 128 128 128 0
0.718206 6.053450 41.877899 129 129 129 0
0.821785 6.060663 41.927795 131 131 131 0
0.924396 6.059929 41.922717 132 132 132 0
1.028089 6.065724 41.962812 137 137 137 0
1.131653 6.069776 41.990838 139 139 139 0
1.234269 6.068489 41.981940 142 142 142 0
1.336852 6.067250 41.973367 142 142 142 0
1.439916 6.068219 41.980068 143 143 143 0
1.542908 6.068770 41.983882 139 139 139 0
1.645058 6.066153 41.965776 130 130 130 0
1.747207 6.063836 41.949748 127 127 127 0
1.850901 6.066841 41.970538 117 117 117 0
1.957592 6.078839 42.053538 112 112 112 0
2.066845 6.097192 42.180508 111 111 111 0
2.178061 6.119315 42.333555 126 126 126 0
2.286570 6.132164 42.422440 142 142 142 0
2.393803 6.140624 42.480971 137 137 137 0
2.494866 6.133213 42.429698 136 136 136 0
2.598338 6.132078 42.421848 135 135 135 0
2.708336 6.145840 42.517050 131 131 131 0
2.816993 6.155652 42.584934 128 128 128 0
2.918660 6.150034 42.546068 128 128 128 0
3.030669 6.165844 42.655440 123 123 123 0
3.136809 6.169058 42.677675 124 124 124 0
3.244362 6.174753 42.717077 125 125 125 0
3.351249 6.178865 42.745524 123 123 123 0
3.464250 6.193659 42.847864 132 132 132 0
3.570424 6.195736 42.862234 127 127 127 0
3.680648 6.204521 42.923008 123 123 123 0
3.796317 6.221742 43.042142 119 119 119 0
3.889146 6.201611 42.902879 112 112 112 0
4.003709 6.216285 43.004390 123 123 123 0
4.149477 6.277413 43.427279 149 149 149 0
4.246733 6.263931 43.334009 154 154 154 0
4.357783 6.270956 43.382611 151 151 151 0
4.460310 6.265674 43.346066 148 148 148 0
4.560899 6.257977 43.292819 144 144 144 0
4.659333 6.247742 43.222011 143 143 143 0
4.757748 6.237937 43.154179 142 142 142 0
4.870065 6.246387 43.212642 133 133 133 0
4.977441 6.248277 43.225715 132 132 132 0
