ply
format ascii 1.0
element vertex 1128
property float x
property float y
property float z
property uchar red
property uchar green
property uchar blue
property uchar alpha
end_header
-7.515986 1.268933 39.840904 139 139 139 0
-7.417461 1.268776 39.835988 140 140 140 0
-7.323087 1.269335 39.853534 136 136 136 0
-7.238511 1.271630 39.925599 137 137 137 0
-7.153615 1.273931 39.997847 139 139 139 0
-7.055087 1.273835 39.994822 139 139 139 0
-6.961952 1.274724 40.022720 139 139 139 0
-6.880447 1.277797 40.119222 139 139 139 0
-6.781308 1.277638 40.114215 140 140 140 0
-6.692045 1.279362 40.168340 143 143 143 0
-6.603540 1.281284 40.228695 142 142 142 0
-6.503704 1.281033 40.220803 147 147 147 0
-6.404953 1.280991 40.219485 145 145 145 0
-6.316743 1.283088 40.285351 148 148 148 0
-6.218369 1.283155 40.287456 149 149 149 0
-6.118962 1.283008 40.282831 150 150 150 0
-6.030777 1.285247 40.353139 151 151 151 0
-5.934034 1.285707 40.367579 149 149 149 0
-5.828825 1.284317 40.323938 150 150 150 0
-5.729959 1.284301 40.323428 146 146 146 0
-5.637898 1.285836 40.371630 146 146 146 0
-5.542166 1.286574 40.394794 148 148 148 0
-5.446525 1.287360 40.419481 149 149 149 0
-5.351836 1.288405 40.452275 151 151 151 0
-5.264620 1.291322 40.543860 155 155 155 0
-5.162958 1.290739 40.525569 148 148 148 0
-5.062813 1.290521 40.518714 138 138 138 0
-4.965108 1.290928 40.531495 132 132 132 0
-4.854344 1.287887 40.436017 134 134 134 0
-4.750735 1.286657 40.397407 129 129 129 0
-4.651450 1.286571 40.394702 125 125 125 0
-4.548577 1.285467 40.360047 124 124 124 0
-4.443325 1.283627 40.302268 124 124 124 0
-4.346947 1.284325 40.324183 120 120 120 0
-4.257376 1.287114 40.411733 118 118 118 0
-4.151020 1.284839 40.340328 117 117 117 0
-4.059679 1.287215 40.414919 116 116 116 0
-3.968815 1.289865 40.498117 112 112 112 0
-3.525367 1.175122 36.895523 114 114 114 0
-3.781684 1.293734 40.619592 112 112 112 0
-3.699225 1.299728 40.807781 110 110 110 0
-3.273876 1.182233 37.118775 111 111 111 0
-3.192226 1.185684 37.227131 115 115 115 0
-3.104693 1.187088 37.271222 109 109 109 0
-3.025255 1.191767 37.418117 121 121 121 0
-3.245094 1.318320 41.391510 135 135 135 0
-3.144054 1.318474 41.396370 138 138 138 0
-3.047711 1.320675 41.465456 138 138 138 0
-2.950463 1.322622 41.526578 143 143 143 0
-2.848269 1.322410 41.519949 139 139 139 0
-2.753228 1.325628 41.620986 141 141 141 0
-2.650884 1.325442 41.615141 140 140 140 0
-2.548748 1.325349 41.612218 143 143 143 0
-2.448246 1.326133 41.636835 145 145 145 0
-2.352190 1.329499 41.742499 146 146 146 0
-2.247593 1.328123 41.699316 146 146 146 0
-2.145532 1.328186 41.701298 146 146 146 0
-2.045573 1.329622 41.746380 147 147 147 0
-1.945348 1.331027 41.790500 146 146 146 0
-1.839749 1.328708 41.717664 149 149 149 0
-1.735547 1.327183 41.669793 151 151 151 0
-1.638557 1.331327 41.799916 152 152 152 0
-1.536121 1.331305 41.799219 145 145 145 0
-1.439261 1.336456 41.960950 156 156 156 0
-1.335123 1.335123 41.919085 149 149 149 0
-1.224878 1.326951 41.662509 148 148 148 0
-1.114634 1.317295 41.359347 147 147 147 0
-1.009088 1.311815 41.187270 143 143 143 0
-0.905164 1.307460 41.050537 147 147 147 0
-0.801273 1.302069 40.881281 143 143 143 0
-0.697510 1.295375 40.671118 143 143 143 0
-0.595629 1.290530 40.518991 139 139 139 0
-0.493701 1.283622 40.302101 145 145 145 0
-0.392823 1.276675 40.083982 141 141 141 0
-0.327359 1.418557 44.538667 141 141 141 0
-0.194579 1.264762 39.709937 140 140 140 0
-0.096793 1.258315 39.507538 140 140 140 0
0.000000 1.253712 39.363016 138 138 138 0
0.096303 1.251934 39.307183 139 139 139 0
0.192301 1.249957 39.245103 140 140 140 0
0.287751 1.246919 39.149741 138 138 138 0
0.383211 1.245436 39.103179 139 139 139 0
0.477766 1.242191 39.001293 140 140 140 0
0.573177 1.241883 38.991618 137 137 137 0
0.667192 1.239071 38.903335 137 137 137 0
0.762468 1.239011 38.901434 134 134 134 0
0.857383 1.238442 38.883591 134 134 134 0
0.952218 1.237884 38.866056 132 132 132 0
1.046113 1.236316 38.816823 131 131 131 0
1.142297 1.237488 38.853626 129 129 129 0
1.236986 1.236986 38.837876 130 130 130 0
1.330726 1.235674 38.796685 128 128 128 0
1.425686 1.235595 38.794185 124 124 124 0
1.524398 1.238574 38.887716 122 122 122 0
1.618767 1.237881 38.865960 125 125 125 0
1.715025 1.238629 38.889466 122 122 122 0
1.813311 1.240686 38.954046 116 116 116 0
1.910558 1.241863 38.990987 113 113 113 0
1.752923 1.085143 34.070424 105 105 105 0
1.847060 1.091445 34.268283 98 98 98 0
2.206630 1.247226 39.159367 94 94 94 0
2.306295 1.249243 39.222699 100 100 100 0
2.418439 1.257588 39.484715 104 104 104 0
2.537937 1.268969 39.842028 133 133 133 0
2.644434 1.273246 39.976323 154 154 154 0
2.740417 1.272336 39.947765 152 152 152 0
2.838707 1.272524 39.953650 152 152 152 0
2.936845 1.272633 39.957069 147 147 147 0
3.031061 1.271090 39.908640 141 141 141 0
3.129488 1.271354 39.916935 139 139 139 0
3.227898 1.271596 39.924527 135 135 135 0
3.322762 1.270468 39.889096 137 137 137 0
3.419458 1.270084 39.877062 137 137 137 0
3.521422 1.271625 39.925416 137 137 137 0
3.620208 1.271965 39.936104 139 139 139 0
3.717961 1.271934 39.935134 138 138 138 0
3.817039 1.272346 39.948080 136 136 136 0
3.912258 1.271484 39.921005 136 136 136 0
4.011833 1.272045 39.938604 134 134 134 0
4.107583 1.271395 39.918198 132 132 132 0
4.209820 1.272736 39.960325 131 131 131 0
4.310133 1.273448 39.982677 129 129 129 0
4.407570 1.273298 39.977956 128 128 128 0
4.512646 1.275313 40.041222 126 126 126 0
4.613425 1.276054 40.064485 125 125 125 0
4.711581 1.276053 40.064468 124 124 124 0
4.817128 1.278014 40.126013 123 123 123 0
4.916753 1.278356 40.136762 122 122 122 0
5.022525 1.280251 40.196279 120 120 120 0
5.130013 1.282503 40.266977 118 118 118 0
5.231613 1.283226 40.289662 112 112 112 0
5.339054 1.285328 40.355663 109 109 109 0
5.454762 1.289307 40.480605 105 105 105 0
4.676733 1.085670 34.086976 103 103 103 0
4.871294 1.110997 34.882166 103 103 103 0
4.851531 1.087412 34.141671 101 101 101 0
5.168169 1.138749 35.753504 100 100 100 0
5.133026 1.112156 34.918544 94 94 94 0
5.482080 1.168312 36.681699 90 90 90 0
5.257184 1.102313 34.609504 81 81 81 0
7.279768 1.412492 44.348267 98 98 98 0
7.396785 1.414091 44.398472 124 124 124 0
7.462358 1.405951 44.142903 128 128 128 0
7.561193 1.404221 44.088586 130 130 130 0
7.635897 1.398122 43.897077 132 132 132 0
7.737124 1.396981 43.861247 136 136 136 0
7.810604 1.390929 43.671255 133 133 133 0
7.913340 1.390181 43.647767 135 135 135 0
7.981102 1.383391 43.434568 136 136 136 0
8.059559 1.378609 43.284420 137 137 137 0
8.189074 1.382571 43.408818 133 133 133 0
8.564731 1.427455 44.818059 135 135 135 0
8.846761 1.455796 45.707885 136 136 136 0
-7.791090 1.363441 39.750460 138 138 138 0
-7.695180 1.363703 39.758098 137 137 137 0
-7.601268 1.364330 39.776389 139 139 139 0
-7.512055 1.365828 39.820065 137 137 137 0
-7.423056 1.367405 39.866037 140 140 140 0
-7.335019 1.369203 39.918468 137 137 137 0
-7.240426 1.369810 39.936161 140 140 140 0
-7.152413 1.371696 39.991129 139 139 139 0
-7.064455 1.373644 40.047930 137 137 137 0
-6.973146 1.374987 40.087071 139 139 139 0
-6.885040 1.377008 40.146007 137 137 137 0
-6.786015 1.376873 40.142057 142 142 142 0
-6.697951 1.378990 40.203788 146 146 146 0
-6.602175 1.379559 40.220378 144 144 144 0
-6.512564 1.381453 40.275596 149 149 149 0
-6.409231 1.380450 40.246352 145 145 145 0
-6.322317 1.383007 40.320901 145 145 145 0
-6.223191 1.382931 40.318695 148 148 148 0
-6.121790 1.382340 40.301451 147 147 147 0
-6.031671 1.384318 40.359122 150 150 150 0
-5.933105 1.384391 40.361262 147 147 147 0
-5.830978 1.383622 40.338828 151 151 151 0
-5.731967 1.383578 40.337560 151 151 151 0
-5.645928 1.386719 40.429132 153 153 153 0
-5.552197 1.388049 40.467908 158 158 158 0
-5.445468 1.386119 40.411633 155 155 155 0
-5.357996 1.389110 40.498838 147 147 147 0
-5.262130 1.389997 40.524685 145 145 145 0
-5.156500 1.388289 40.474884 140 140 140 0
-5.043446 1.384475 40.363714 130 130 130 0
-4.945105 1.384630 40.368208 130 130 130 0
-4.831817 1.380519 40.248370 129 129 129 0
-4.731926 1.380145 40.237466 128 128 128 0
-4.635339 1.380739 40.254790 127 127 127 0
-4.533112 1.379643 40.222826 124 124 124 0
-4.427077 1.377313 40.154895 122 122 122 0
-4.331714 1.378273 40.182880 122 122 122 0
-4.237033 1.379499 40.218630 119 119 119 0
-4.137078 1.379026 40.204840 122 122 122 0
-4.043149 1.380587 40.250360 115 115 115 0
-3.950625 1.382719 40.312504 118 118 118 0
-3.854935 1.383823 40.344685 114 114 114 0
-3.758075 1.384554 40.366007 109 109 109 0
-3.340513 1.263978 36.850662 113 113 113 0
-3.254205 1.265524 36.895752 109 109 109 0
-3.163201 1.265280 36.888637 109 109 109 0
-3.091055 1.272787 37.107505 110 110 110 0
-2.992436 1.269518 37.012199 112 112 112 0
-2.928378 1.281165 37.351754 117 117 117 0
-2.850305 1.287235 37.528704 126 126 126 0
-3.053563 1.424996 41.545075 141 141 141 0
-2.955893 1.426983 41.602997 144 144 144 0
-2.851930 1.425965 41.573328 139 139 139 0
-2.752725 1.427339 41.613375 137 137 137 0
-2.656933 1.430656 41.710099 145 145 145 0
-2.554525 1.430534 41.706535 145 145 145 0
-2.451350 1.429954 41.689621 142 142 142 0
-2.356068 1.434128 41.811315 141 141 141 0
-2.251464 1.432750 41.771124 143 143 143 0
-2.148780 1.432520 41.764431 145 145 145 0
-2.048124 1.433687 41.798441 144 144 144 0
-1.943851 1.432311 41.758341 146 146 146 0
-1.841323 1.432140 41.753358 144 144 144 0
-1.739294 1.432360 41.759768 150 150 150 0
-1.641669 1.436461 41.879319 147 147 147 0
-1.544218 1.441270 42.019533 152 152 152 0
-1.441712 1.441712 42.032416 150 150 150 0
-1.333185 1.435737 41.858233 152 152 152 0
-1.220775 1.424237 41.522951 147 147 147 0
-1.112575 1.416005 41.282944 144 144 144 0
-1.008694 1.412171 41.171171 145 145 145 0
-0.904039 1.406283 40.999493 144 144 144 0
-0.801112 1.401946 40.873048 142 142 142 0
-0.697797 1.395595 40.687901 142 142 142 0
-0.594732 1.387707 40.457926 145 145 145 0
-0.491697 1.376751 40.138507 143 143 143 0
-0.392052 1.372180 40.005258 144 144 144 0
-0.291912 1.362258 39.715976 141 141 141 0
-0.194510 1.361570 39.695926 140 140 140 0
-0.096616 1.352620 39.434981 142 142 142 0
0.000000 1.348597 39.317711 140 140 140 0
0.096236 1.347304 39.280005 140 140 140 0
0.191776 1.342431 39.137922 142 142 142 0
0.287362 1.341022 39.096858 140 140 140 0
0.382236 1.337825 39.003630 137 137 137 0
0.477279 1.336381 38.961536 139 139 139 0
0.572153 1.335024 38.921978 137 137 137 0
0.666227 1.332453 38.847036 137 137 137 0
0.761124 1.331967 38.832843 136 136 136 0
0.856021 1.331588 38.821814 134 134 134 0
0.950516 1.330722 38.796564 135 135 135 0
1.043746 1.328403 38.728963 134 134 134 0
1.139789 1.329754 38.768326 133 133 133 0
1.234997 1.329996 38.775404 129 129 129 0
1.328164 1.328164 38.721994 128 128 128 0
1.424748 1.329765 38.768652 127 127 127 0
1.521160 1.331015 38.805102 126 126 126 0
1.616127 1.330928 38.802559 125 125 125 0
1.713505 1.332726 38.854991 123 123 123 0
1.810666 1.334175 38.897221 119 119 119 0
1.908756 1.336129 38.954195 111 111 111 0
1.752403 1.168269 34.060307 102 102 102 0
1.837213 1.169135 34.085583 94 94 94 0
2.194579 1.335831 38.945510 97 97 97 0
2.319647 1.353128 39.449783 104 104 104 0
2.426943 1.359088 39.623559 112 112 112 0
2.541076 1.368272 39.891309 139 139 139 0
2.643920 1.370922 39.968557 153 153 153 0
2.741485 1.370743 39.963342 153 153 153 0
2.840414 1.371234 39.977680 152 152 152 0
2.935056 1.369693 39.932735 154 154 154 0
3.030666 1.368688 39.903439 148 148 148 0
3.125998 1.367624 39.872428 144 144 144 0
3.225075 1.368214 39.889608 141 141 141 0
3.321565 1.367703 39.874735 138 138 138 0
3.418514 1.367406 39.866053 140 140 140 0
3.517341 1.367855 39.879152 140 140 140 0
3.617078 1.368624 39.901578 138 138 138 0
3.711607 1.367434 39.866880 139 139 139 0
3.812692 1.368659 39.902590 136 136 136 0
3.909892 1.368462 39.896861 136 136 136 0
4.007985 1.368580 39.900294 135 135 135 0
4.105028 1.368343 39.893370 132 132 132 0
4.205803 1.369331 39.922190 131 131 131 0
4.306480 1.370244 39.948793 129 129 129 0
4.403441 1.369959 39.940505 129 129 129 0
4.510720 1.372828 40.024136 126 126 126 0
4.607344 1.372400 40.011668 126 126 126 0
4.706177 1.372635 40.018512 127 127 127 0
4.813886 1.375396 40.099011 125 125 125 0
4.915640 1.376379 40.127672 124 124 124 0
5.018872 1.377730 40.167041 122 122 122 0
5.118944 1.378177 40.180097 119 119 119 0
5.231699 1.381958 40.290328 114 114 114 0
5.334326 1.382974 40.319927 110 110 110 0
5.445846 1.386215 40.414439 109 109 109 0
4.664002 1.166000 33.994181 108 108 108 0
5.667186 1.391941 40.581356 103 103 103 0
5.782312 1.395730 40.691850 102 102 102 0
4.928189 1.169401 34.093316 101 101 101 0
5.132068 1.197483 34.912028 98 98 98 0
5.217531 1.197466 34.911546 91 91 91 0
5.307906 1.198560 34.943426 84 84 84 0
5.647524 1.255005 36.589079 71 71 71 0
7.234134 1.511610 44.070262 91 91 91 0
7.380760 1.519568 44.302281 125 125 125 0
7.465792 1.514798 44.163217 132 132 132 0
7.545096 1.509019 43.994727 133 133 133 0
7.638468 1.506177 43.911861 136 136 136 0
7.727878 1.502643 43.808834 137 137 137 0
7.783375 1.492702 43.519009 135 135 135 0
7.897222 1.494069 43.558866 135 135 135 0
7.993509 1.492122 43.502087 136 136 136 0
8.178879 1.506636 43.925236 137 137 137 0
8.286481 1.506633 43.925158 136 136 136 0
8.565056 1.537318 44.819760 135 135 135 0
8.497656 1.505914 43.904191 131 131 131 0
-7.791582 1.460922 39.752968 144 144 144 0
-7.702385 1.462478 39.795325 135 135 135 0
-7.609365 1.463339 39.818759 140 140 140 0
-7.523049 1.465529 39.878341 141 141 141 0
-7.436624 1.467755 39.938902 139 139 139 0
-7.338337 1.467667 39.936526 136 136 136 0
-7.250879 1.469773 39.993818 137 137 137 0
-7.156642 1.470543 40.014774 136 136 136 0
-7.066095 1.472103 40.057230 140 140 140 0
-6.973000 1.473169 40.086234 140 140 140 0
-6.888083 1.476018 40.163746 145 145 145 0
-6.791293 1.476368 40.173281 141 141 141 0
-6.700307 1.478009 40.217928 142 142 142 0
-6.607043 1.479189 40.250031 144 144 144 0
-6.513428 1.480324 40.280938 148 148 148 0
-6.412834 1.479885 40.268972 145 145 145 0
-6.319765 1.481195 40.304622 145 145 145 0
-6.230912 1.483551 40.368723 146 146 146 0
-6.120849 1.480851 40.295255 148 148 148 0
-6.027060 1.482064 40.328271 150 150 150 0
-5.937583 1.484396 40.391718 150 150 150 0
-5.836268 1.483797 40.375430 155 155 155 0
-5.742034 1.485009 40.408405 160 160 160 0
-5.650375 1.486941 40.460973 156 156 156 0
-5.557341 1.488574 40.505402 154 154 154 0
-5.454639 1.487629 40.479696 148 148 148 0
-5.355666 1.487685 40.481224 141 141 141 0
-5.240799 1.483245 40.360406 143 143 143 0
-5.133200 1.480731 40.291992 134 134 134 0
-5.028485 1.478966 40.243980 138 138 138 0
-4.916743 1.475023 40.136676 133 133 133 0
-4.815681 1.474188 40.113958 131 131 131 0
-4.709249 1.471640 40.044632 131 131 131 0
-4.609941 1.471258 40.034228 128 128 128 0
-4.512132 1.471347 40.036661 127 127 127 0
-4.410426 1.470142 40.003865 125 125 125 0
-4.319512 1.472561 40.069681 123 123 123 0
-4.216589 1.470903 40.024578 118 118 118 0
-4.125275 1.473313 40.090138 117 117 117 0
-4.026320 1.473044 40.082826 117 117 117 0
-3.935512 1.475817 40.158285 116 116 116 0
-3.843109 1.478119 40.220924 116 116 116 0
-3.741694 1.476985 40.190057 112 112 112 0
-3.334996 1.352025 36.789806 114 114 114 0
-3.236441 1.348517 36.694347 108 108 108 0
-3.163738 1.355888 36.894907 105 105 105 0
-3.075186 1.356700 36.917001 107 107 107 0
-2.989027 1.358649 36.970030 110 110 110 0
-2.924386 1.370806 37.300844 111 111 111 0
-2.825656 1.367253 37.204167 112 112 112 0
-2.759408 1.379704 37.542959 127 127 127 0
-2.956547 1.529249 41.612204 139 139 139 0
-2.853409 1.528612 41.594885 143 143 143 0
-2.757087 1.531715 41.679313 139 139 139 0
-2.659506 1.534330 41.750482 144 144 144 0
-2.554257 1.532554 41.702155 145 145 145 0
-2.456916 1.535573 41.784289 143 143 143 0
-2.357233 1.537326 41.831998 146 146 146 0
-2.253888 1.536742 41.816104 143 143 143 0
-2.152593 1.537566 41.838544 144 144 144 0
-2.049054 1.536790 41.817427 147 147 147 0
-1.948042 1.537928 41.848373 147 147 147 0
-1.843675 1.536396 41.806689 149 149 149 0
-1.741943 1.537009 41.823368 150 150 150 0
-1.646770 1.543847 42.009434 151 151 151 0
-1.544978 1.544978 42.040229 157 157 157 0
-1.437670 1.540361 41.914588 145 145 145 0
-1.329264 1.533766 41.735134 149 149 149 0
-1.218762 1.523453 41.454495 146 146 146 0
-1.113485 1.518388 41.316691 146 146 146 0
-1.008179 1.512269 41.150182 143 143 143 0
-0.903883 1.506471 40.992414 144 144 144 0
-0.800448 1.500841 40.839206 143 143 143 0
-0.696277 1.492021 40.599214 141 141 141 0
-0.593799 1.484498 40.394491 140 140 140 0
-0.491095 1.473286 40.089402 144 144 144 0
-0.436959 1.638596 44.587658 143 143 143 0
-0.291990 1.459949 39.726502 139 139 139 0
-0.193934 1.454508 39.578442 141 141 141 0
-0.096521 1.447814 39.396308 140 140 140 0
0.000000 1.443339 39.274526 144 144 144 0
0.096071 1.441058 39.212457 143 143 143 0
0.191673 1.437544 39.116842 139 139 139 0
0.286858 1.434288 39.028251 142 142 142 0
0.381601 1.431002 38.938833 142 142 142 0
0.476334 1.429003 38.884446 140 140 140 0
0.571324 1.428310 38.865585 142 142 142 0
0.665045 1.425097 38.778144 140 140 140 0
0.759848 1.424714 38.767735 140 140 140 0
0.855006 1.425010 38.775789 135 135 135 0
0.949037 1.423555 38.736186 140 140 140 0
1.042510 1.421605 38.683130 135 135 135 0
1.138792 1.423490 38.734416 134 134 134 0
1.233795 1.423610 38.737679 134 134 134 0
1.326077 1.420797 38.661136 131 131 131 0
1.421566 1.421566 38.682058 130 130 130 0
1.518922 1.423989 38.748005 129 129 129 0
1.614389 1.424461 38.760831 126 126 126 0
1.709695 1.424745 38.768583 122 122 122 0
1.809045 1.428194 38.862408 116 116 116 0
1.908291 1.431218 38.944713 106 106 106 0
1.748977 1.249269 33.993715 94 94 94 0
1.825089 1.244379 33.860655 91 91 91 0
2.216816 1.445750 39.340123 99 99 99 0
2.325440 1.453400 39.548304 107 107 107 0
2.434375 1.460625 39.744905 115 115 115 0
2.546032 1.468864 39.969100 143 143 143 0
2.647007 1.470559 40.015224 151 151 151 0
2.741403 1.468609 39.962144 153 153 153 0
2.841716 1.469853 39.996002 152 152 152 0
2.936372 1.468186 39.950639 152 152 152 0
3.030352 1.466299 39.899298 152 152 152 0
3.125004 1.464846 39.859750 149 149 149 0
3.222694 1.464861 39.860162 146 146 146 0
3.320184 1.464787 39.858146 141 141 141 0
3.415684 1.463864 39.833045 142 142 142 0
3.517997 1.465832 39.886592 139 139 139 0
3.615934 1.465919 39.888954 140 140 140 0
3.710338 1.464607 39.853259 140 140 140 0
3.810504 1.465579 39.879691 140 140 140 0
3.907991 1.465497 39.877458 138 138 138 0
4.004629 1.465108 39.866885 136 136 136 0
4.103480 1.465529 39.878333 135 135 135 0
4.203715 1.466412 39.902378 131 131 131 0
4.305297 1.467715 39.937817 132 132 132 0
4.398811 1.466270 39.898509 130 130 130 0
4.506624 1.469551 39.987792 128 128 128 0
4.605646 1.469887 39.996922 127 127 127 0
4.704978 1.470306 40.008318 126 126 126 0
4.811418 1.472883 40.078448 125 125 125 0
4.908032 1.472410 40.065571 124 124 124 0
5.013328 1.474508 40.122671 122 122 122 0
5.115431 1.475605 40.152516 122 122 122 0
5.224450 1.478618 40.234499 116 116 116 0
5.321346 1.478152 40.221814 114 114 114 0
5.440926 1.483889 40.377928 110 110 110 0
5.550291 1.486685 40.454015 106 106 106 0
5.661208 1.489792 40.538548 104 104 104 0
5.778818 1.494522 40.667265 102 102 102 0
4.934114 1.254436 34.134307 102 102 102 0
5.129128 1.282282 34.892024 99 99 99 0
5.218208 1.283166 34.916076 92 92 92 0
5.450719 1.318722 35.883598 89 89 89 0
5.637724 1.342315 36.525586 76 76 76 0
7.166205 1.604374 43.656439 87 87 87 0
7.372124 1.626204 44.250444 122 122 122 0
7.460641 1.621878 44.132745 128 128 128 0
7.545206 1.616830 43.995369 131 131 131 0
7.626831 1.611302 43.844959 137 137 137 0
7.714104 1.607105 43.730751 133 133 133 0
7.793536 1.601411 43.575823 136 136 136 0
7.902001 1.601757 43.585225 132 132 132 0
7.971356 1.594271 43.381531 138 138 138 0
8.066814 1.592134 43.323384 129 129 129 0
8.149921 1.587647 43.201280 135 135 135 0
8.564835 1.647084 44.818603 139 139 139 0
8.844030 1.679246 45.693773 136 136 136 0
-7.803592 1.560718 39.814246 140 140 140 0
-7.713891 1.562307 39.854773 135 135 135 0
-7.611885 1.561412 39.831948 136 136 136 0
-7.530902 1.564863 39.919970 139 139 139 0
-7.444501 1.567263 39.981208 140 140 140 0
-7.353662 1.568781 40.019927 137 137 137 0
-7.262905 1.570358 40.060151 138 138 138 0
-7.165756 1.570577 40.065731 139 139 139 0
-7.069497 1.570999 40.076516 141 141 141 0
-6.983424 1.573729 40.146154 144 144 144 0
-6.894499 1.575885 40.201160 140 140 140 0
-6.793260 1.575249 40.184918 145 145 145 0
-6.708108 1.578378 40.264756 144 144 144 0
-6.614732 1.579638 40.296875 145 145 145 0
-6.516340 1.579719 40.298952 149 149 149 0
-6.414423 1.578935 40.278954 148 148 148 0
-6.324511 1.581128 40.334895 148 148 148 0
-6.229832 1.582180 40.361724 150 150 150 0
-6.120668 1.579527 40.294060 148 148 148 0
-6.033573 1.582576 40.371849 150 150 150 0
-5.945627 1.585500 40.446440 155 155 155 0
-5.845434 1.585203 40.438840 164 164 164 0
-5.741895 1.583971 40.407428 162 162 162 0
-5.652048 1.586540 40.472952 154 154 154 0
-5.555159 1.587188 40.489497 144 144 144 0
-5.447854 1.584830 40.429341 143 143 143 0
-5.332420 1.579976 40.305515 140 140 140 0
-5.224837 1.577309 40.237485 141 141 141 0
-5.111528 1.572778 40.121884 136 136 136 0
-5.001405 1.569068 40.027250 134 134 134 0
-4.901044 1.568334 40.008523 131 131 131 0
-4.793590 1.565254 39.929946 129 129 129 0
-4.695820 1.565273 39.930443 133 133 133 0
-4.592597 1.563437 39.883607 128 128 128 0
-4.499522 1.565051 39.924775 125 125 125 0
-4.396012 1.563027 39.873126 125 125 125 0
-4.303341 1.564851 39.919674 124 124 124 0
-4.206835 1.565334 39.931985 120 120 120 0
-4.110520 1.565913 39.946748 117 117 117 0
-4.015419 1.566993 39.974307 116 116 116 0
-3.921406 1.568562 40.014347 116 116 116 0
-3.828980 1.570864 40.073054 114 114 114 0
-3.738020 1.573903 40.150594 114 114 114 0
-3.648706 1.577819 40.250480 110 110 110 0
-3.555489 1.580217 40.311664 113 113 113 0
-3.143975 1.437246 36.664432 111 111 111 0
-3.066897 1.443246 36.817493 109 109 109 0
-2.980207 1.444949 36.860941 105 105 105 0
-2.884242 1.442121 36.788795 109 109 109 0
-2.811472 1.451082 37.017405 109 109 109 0
-2.746949 1.465039 37.373454 110 110 110 0
-2.673643 1.475113 37.630446 114 114 114 0
-2.859139 1.633794 41.678407 135 135 135 0
-2.762367 1.636958 41.759132 146 146 146 0
-2.665293 1.640180 41.841328 145 145 145 0
-2.560511 1.638727 41.804263 142 142 142 0
-2.456175 1.637450 41.771685 144 144 144 0
-2.362991 1.643820 41.934178 146 146 146 0
-2.257763 1.642010 41.888000 144 144 144 0
-2.155222 1.642074 41.889636 154 154 154 0
-2.054341 1.643473 41.925327 146 146 146 0
-1.951338 1.643232 41.919179 148 148 148 0
-1.845517 1.640459 41.848448 151 151 151 0
-1.747086 1.644317 41.946850 146 146 146 0
-1.650977 1.650977 42.116762 152 152 152 0
-1.545915 1.648976 42.065713 151 151 151 0
-1.435104 1.640119 41.839776 149 149 149 0
-1.326243 1.632299 41.640293 148 148 148 0
-1.216938 1.622585 41.392465 145 145 145 0
-1.110533 1.615321 41.207160 145 145 145 0
-1.008679 1.613886 41.170570 144 144 144 0
-0.903575 1.606356 40.978477 145 145 145 0
-0.799412 1.598824 40.786334 140 140 140 0
-0.695385 1.589451 40.547208 143 143 143 0
-0.593621 1.582989 40.382366 140 140 140 0
-0.491371 1.572387 40.111906 140 140 140 0
-0.436194 1.744777 44.509620 142 142 142 0
-0.291441 1.554350 39.651784 140 140 140 0
-0.193785 1.550282 39.548009 142 142 142 0
-0.096422 1.542750 39.355877 141 141 141 0
0.000000 1.538201 39.239819 143 143 143 0
0.095889 1.534228 39.138470 141 141 141 0
0.191343 1.530742 39.049530 144 144 144 0
0.286208 1.526444 38.939895 143 143 143 0
0.381322 1.525289 38.910434 143 143 143 0
0.475844 1.522702 38.844429 144 144 144 0
0.570380 1.521014 38.801366 144 144 144 0
0.664542 1.518953 38.748789 144 144 144 0
0.758224 1.516449 38.684914 147 147 147 0
0.853842 1.517942 38.723000 143 143 143 0
0.947431 1.515889 38.670647 142 142 142 0
1.040920 1.514066 38.624135 141 141 141 0
1.137386 1.516515 38.686606 138 138 138 0
1.232754 1.517236 38.704989 138 138 138 0
1.324715 1.513960 38.621418 136 136 136 0
1.420699 1.515412 38.658481 136 136 136 0
1.518253 1.518253 38.730954 131 131 131 0
1.612841 1.517968 38.723662 126 126 126 0
1.708667 1.518815 38.745285 121 121 121 0
1.808669 1.523090 38.854332 111 111 111 0
1.905719 1.524575 38.892223 99 99 99 0
1.745039 1.329553 33.917172 88 88 88 0
2.099375 1.526818 38.949447 94 94 94 0
2.225432 1.548127 39.493030 103 103 103 0
2.329379 1.552920 39.615294 113 113 113 0
2.432051 1.556513 39.706954 116 116 116 0
2.546636 1.567161 39.978594 145 145 145 0
2.646670 1.568397 40.010128 152 152 152 0
2.744215 1.568123 40.003129 151 151 151 0
2.841799 1.567889 39.997171 150 150 150 0
2.936612 1.566193 39.953900 153 153 153 0
3.029514 1.563620 39.888269 151 151 151 0
3.123504 1.561752 39.840606 154 154 154 0
3.222885 1.562611 39.862527 149 149 149 0
3.320013 1.562359 39.856100 146 146 146 0
3.415501 1.561372 39.830913 144 144 144 0
3.513828 1.561701 39.839321 143 143 143 0
3.613403 1.562553 39.861042 139 139 139 0
3.705487 1.560205 39.801153 139 139 139 0
3.806774 1.561753 39.840644 141 141 141 0
3.905069 1.562028 39.847641 140 140 140 0
4.000540 1.561186 39.826182 138 138 138 0
4.100779 1.562202 39.852084 135 135 135 0
4.200705 1.563053 39.873806 134 134 134 0
4.301496 1.564180 39.902557 133 133 133 0
4.396666 1.563259 39.879061 130 130 130 0
4.497989 1.564518 39.911173 129 129 129 0
4.601397 1.566433 39.960030 128 128 128 0
4.698818 1.566273 39.955939 127 127 127 0
4.806633 1.569513 40.038588 127 127 127 0
4.904580 1.569465 40.037384 125 125 125 0
5.011159 1.572128 40.105315 123 123 123 0
5.111721 1.572837 40.123400 121 121 121 0
5.222770 1.576685 40.221562 117 117 117 0
5.320740 1.576516 40.217233 116 116 116 0
5.433238 1.580578 40.320878 113 113 113 0
5.541147 1.583185 40.387371 110 110 110 0
5.653829 1.587040 40.485706 105 105 105 0
5.772399 1.592386 40.622087 103 103 103 0
5.166334 1.401040 35.740812 101 101 101 0
5.129287 1.367810 34.893110 96 96 96 0
5.215777 1.368073 34.899814 94 94 94 0
5.440965 1.404120 35.819386 89 89 89 0
5.482749 1.392444 35.521537 84 84 84 0
7.171530 1.712604 43.688881 80 80 80 0
7.354272 1.730417 44.143289 128 128 128 0
7.437203 1.724569 43.994104 133 133 133 0
7.520997 1.719085 43.854212 136 136 136 0
7.624576 1.718214 43.831997 132 132 132 0
7.703480 1.711884 43.670520 138 138 138 0
7.794961 1.708485 43.583792 132 132 132 0
7.894821 1.706988 43.545621 135 135 135 0
7.977829 1.701937 43.416759 133 133 133 0
8.055266 1.695845 43.261363 136 136 136 0
8.286481 1.721866 43.925158 136 136 136 0
8.564092 1.756737 44.814716 134 134 134 0
8.319317 1.684925 42.982781 133 133 133 0
-7.798277 1.657134 39.787126 117 117 117 0
-7.731058 1.663645 39.943465 137 137 137 0
-7.631992 1.663383 39.937162 143 143 143 0
-7.542032 1.665124 39.978964 142 142 142 0
-7.447151 1.665810 39.995443 137 137 137 0
-7.360453 1.668369 40.056890 144 144 144 0
-7.269851 1.670101 40.098462 140 140 140 0
-7.174812 1.670847 40.116368 143 143 143 0
-7.079827 1.671626 40.135073 140 140 140 0
-6.995719 1.675031 40.216839 140 140 140 0
-6.909225 1.677955 40.287024 144 144 144 0
-6.806481 1.676959 40.263122 147 147 147 0
-6.709535 1.677384 40.273317 146 146 146 0
-6.616896 1.678914 40.310060 145 145 145 0
-6.518961 1.679126 40.315161 150 150 150 0
-6.417846 1.678514 40.300445 150 150 150 0
-6.326074 1.680363 40.344860 148 148 148 0
-6.228224 1.680632 40.351305 151 151 151 0
-6.128212 1.680316 40.343725 150 150 150 0
-6.037399 1.682554 40.397452 155 155 155 0
-5.952502 1.686542 40.493212 160 160 160 0
-5.847575 1.684895 40.453650 161 161 161 0
-5.745474 1.684018 40.432610 155 155 155 0
-5.651737 1.685606 40.470730 150 150 150 0
-5.543879 1.682963 40.407284 140 140 140 0
-5.425155 1.676866 40.260891 140 140 140 0
-5.300716 1.668744 40.065882 138 138 138 0
-5.200635 1.668128 40.051094 138 138 138 0
-5.090071 1.664062 39.953458 136 136 136 0
-4.982982 1.660994 39.879811 136 136 136 0
-4.880099 1.659234 39.837545 133 133 133 0
-4.777054 1.657345 39.792199 129 129 129 0
-4.678258 1.656883 39.781104 131 131 131 0
-4.577053 1.655530 39.748612 129 129 129 0
-4.481931 1.656366 39.768687 124 124 124 0
-4.383902 1.656141 39.763286 124 124 124 0
-4.286052 1.655975 39.759295 125 125 125 0
-4.193352 1.657837 39.804010 118 118 118 0
-4.094207 1.657179 39.788209 119 119 119 0
-4.000840 1.658885 39.829165 117 117 117 0
-3.908147 1.660962 39.879050 115 115 115 0
-3.472074 1.513468 36.337771 117 117 117 0
-3.384935 1.514313 36.358057 115 115 115 0
-3.634591 1.669947 40.094770 109 109 109 0
-3.208672 1.515206 36.379499 109 109 109 0
-3.135299 1.522860 36.563255 114 114 114 0
-3.060452 1.530226 36.740115 113 113 113 0
-2.957995 1.523815 36.586204 105 105 105 0
-2.882342 1.531244 36.764561 101 101 101 0
-2.805411 1.538451 36.937604 108 108 108 0
-2.724198 1.543712 37.063925 109 109 109 0
-2.651472 1.554311 37.318394 108 108 108 0
-2.586815 1.570566 37.708675 121 121 121 0
-2.765574 1.741287 41.807621 140 140 140 0
-2.666428 1.743434 41.859158 149 149 149 0
-2.566965 1.745536 41.909630 145 145 145 0
-2.461597 1.743631 41.863899 151 151 151 0
-2.364301 1.747527 41.957428 145 145 145 0
-2.262342 1.748173 41.972947 150 150 150 0
-2.158977 1.747743 41.962628 151 151 151 0
-2.052508 1.744631 41.887908 153 153 153 0
-1.948109 1.743045 41.849814 148 148 148 0
-1.850980 1.748147 41.972326 151 151 151 0
-1.753437 1.753437 42.099323 153 153 153 0
-1.653497 1.756841 42.181051 152 152 152 0
-1.545337 1.751382 42.049993 154 154 154 0
-1.435017 1.742520 41.837221 143 143 143 0
-1.326208 1.734272 41.639178 142 142 142 0
-1.217113 1.724244 41.398416 142 142 142 0
-1.111350 1.717542 41.237494 145 145 145 0
-1.008540 1.714518 41.164905 146 146 146 0
-0.902293 1.704330 40.920297 142 142 142 0
-0.799078 1.698042 40.769306 143 143 143 0
-0.693410 1.683997 40.432093 141 141 141 0
-0.592381 1.678413 40.298026 140 140 140 0
-0.490873 1.668967 40.071236 141 141 141 0
-0.390167 1.658211 39.812988 139 139 139 0
-0.291516 1.651923 39.662010 139 139 139 0
-0.193772 1.647064 39.545348 140 140 140 0
-0.096318 1.637410 39.313563 139 139 139 0
0.000000 1.632585 39.197708 143 143 143 0
0.095844 1.629341 39.119820 141 141 141 0
0.191254 1.625657 39.031382 143 143 143 0
0.286131 1.621408 38.929353 144 144 144 0
0.381188 1.620049 38.896737 146 146 146 0
0.475660 1.617244 38.829392 147 147 147 0
0.570764 1.617165 38.827500 147 147 147 0
0.663827 1.612150 38.707087 148 148 148 0
0.758309 1.611407 38.689237 152 152 152 0
0.853287 1.611764 38.697819 150 150 150 0
0.947202 1.610243 38.661287 150 150 150 0
1.040437 1.607948 38.606191 149 149 149 0
1.136596 1.610178 38.659731 147 147 147 0
1.231673 1.610649 38.671042 140 140 140 0
1.324120 1.607860 38.604071 140 140 140 0
1.420197 1.609557 38.644830 136 136 136 0
1.517092 1.611910 38.701314 132 132 132 0
1.613157 1.613157 38.731253 125 125 125 0
1.707848 1.612967 38.726705 117 117 117 0
1.811663 1.620961 38.918643 105 105 105 0
1.671352 1.420649 34.109222 98 98 98 0
2.001769 1.620479 38.907067 89 89 89 0
1.848100 1.428077 34.287570 96 96 96 0
2.225045 1.644599 39.486162 107 107 107 0
2.331496 1.651476 39.651287 113 113 113 0
2.432216 1.653907 39.709642 113 113 113 0
2.541592 1.661810 39.899406 137 137 137 0
2.649007 1.667893 40.045457 148 148 148 0
2.746203 1.667337 40.032108 152 152 152 0
2.843957 1.667147 40.027550 149 149 149 0
2.939389 1.665654 39.991681 150 150 150 0
3.034316 1.663980 39.951494 150 150 150 0
3.125521 1.660433 39.866345 152 152 152 0
3.224668 1.661193 39.884574 149 149 149 0
3.317777 1.658889 39.829262 149 149 149 0
3.413365 1.657920 39.806006 150 150 150 0
3.511357 1.658141 39.811307 146 146 146 0
3.611467 1.659323 39.839679 143 143 143 0
3.706894 1.658347 39.816265 143 143 143 0
3.807032 1.659476 39.843352 143 143 143 0
3.906680 1.660339 39.864081 142 142 142 0
4.001028 1.658963 39.831038 140 140 140 0
4.099395 1.659279 39.838627 138 138 138 0
4.199537 1.660282 39.862714 135 135 135 0
4.296726 1.660099 39.858313 132 132 132 0
4.396572 1.660927 39.878202 131 131 131 0
4.497708 1.662197 39.908680 128 128 128 0
4.596823 1.662681 39.920305 127 127 127 0
4.696038 1.663180 39.932294 128 128 128 0
4.801631 1.665872 39.996929 127 127 127 0
4.902507 1.666852 40.020467 125 125 125 0
5.002046 1.667349 40.032385 124 124 124 0
5.111475 1.671059 40.121467 122 122 122 0
5.214431 1.672553 40.157341 118 118 118 0
5.318638 1.674386 40.201344 117 117 117 0
5.424655 1.676712 40.257179 114 114 114 0
5.539521 1.681640 40.375515 109 109 109 0
5.653574 1.686154 40.483881 105 105 105 0
4.830079 1.415713 33.990704 104 104 104 0
5.166046 1.488522 35.738815 104 104 104 0
5.128458 1.453063 34.887470 98 98 98 0
5.213428 1.452923 34.884097 96 96 96 0
5.300723 1.453424 34.896136 86 86 86 0
5.704784 1.539386 36.960051 83 83 83 0
5.599895 1.487472 35.713617 71 71 71 0
6.458238 1.663485 39.939628 67 67 67 0
7.151025 1.814439 43.563966 75 75 75 0
7.334919 1.833730 44.027123 120 120 120 0
7.439836 1.833003 44.009676 131 131 131 0
7.520793 1.826478 43.853021 130 130 130 0
7.599631 1.819630 43.688594 134 134 134 0
7.726961 1.824421 43.803633 138 138 138 0
7.794955 1.815263 43.583755 136 136 136 0
7.884300 1.811258 43.487588 136 136 136 0
7.998010 1.812882 43.526587 133 133 133 0
8.177341 1.829142 43.916978 134 134 134 0
8.452489 1.866134 44.805136 134 134 134 0
8.561816 1.866037 44.802807 137 137 137 0
9.017312 1.940434 46.589058 133 133 133 0
-7.185870 1.616821 36.662600 103 103 103 0
-7.722118 1.759470 39.897275 128 128 128 0
-7.639271 1.762909 39.975253 146 146 146 0
-7.549263 1.764763 40.017299 142 142 142 0
-7.457083 1.766151 40.048779 143 143 143 0
-7.368850 1.768524 40.102583 137 137 137 0
-7.278355 1.770411 40.145368 140 140 140 0
-7.182837 1.771111 40.161238 136 136 136 0
-7.090090 1.772523 40.193254 142 142 142 0
-7.004100 1.775687 40.265019 143 143 143 0
-6.915374 1.778239 40.322878 140 140 140 0
-6.815348 1.777917 40.315577 145 145 145 0
-6.715788 1.777709 40.310854 147 147 147 0
-6.628200 1.780710 40.378922 147 147 147 0
-6.533158 1.781770 40.402954 150 150 150 0
-6.421133 1.778160 40.321088 153 153 153 0
-6.328533 1.779900 40.360544 151 151 151 0
-6.230757 1.780216 40.367715 154 154 154 0
-6.136285 1.781502 40.396873 153 153 153 0
-6.041585 1.782763 40.425462 167 167 167 0
-5.955618 1.786686 40.514411 156 156 156 0
-5.851704 1.785266 40.482216 154 154 154 0
-5.750705 1.784701 40.469421 154 154 154 0
-5.646616 1.783142 40.434056 143 143 143 0
-5.512891 1.772001 40.181422 140 140 140 0
-5.395653 1.765850 40.041951 136 136 136 0
-5.285328 1.761776 39.949567 139 139 139 0
-5.176891 1.758189 39.868238 136 136 136 0
-5.071480 1.755512 39.807535 137 137 137 0
-4.962291 1.751397 39.714216 136 136 136 0
-4.867388 1.752260 39.733776 132 132 132 0
-4.762960 1.749659 39.674799 135 135 135 0
-4.661638 1.748114 39.639776 130 130 130 0
-4.568439 1.749615 39.673811 130 130 130 0
-4.469382 1.748889 39.657338 126 126 126 0
-4.370213 1.748085 39.639116 125 125 125 0
-4.268825 1.746337 39.599488 123 123 123 0
-4.186429 1.752459 39.738289 121 121 121 0
-4.081947 1.749406 39.669066 122 122 122 0
-3.993239 1.753129 39.753503 119 119 119 0
-3.893087 1.751889 39.725378 113 113 113 0
-3.803386 1.755409 39.805193 111 111 111 0
-3.714274 1.759393 39.895536 112 112 112 0
-3.290679 1.600871 36.300921 114 114 114 0
-3.203793 1.601896 36.324183 110 110 110 0
-3.131815 1.610648 36.522625 110 110 110 0
-3.053803 1.616719 36.660300 114 114 114 0
-2.949449 1.608790 36.480509 107 107 107 0
-2.887733 1.624350 36.833327 106 106 106 0
-2.822000 1.638580 37.156017 103 103 103 0
-2.726908 1.636145 37.100786 111 111 111 0
-2.637791 1.637249 37.125837 110 110 110 0
-2.559398 1.645327 37.309005 105 105 105 0
-2.500980 1.667320 37.807708 105 105 105 0
-2.670369 1.848717 41.921014 140 140 140 0
-2.568573 1.849372 41.935879 147 147 147 0
-2.470056 1.852542 42.007762 144 144 144 0
-2.365682 1.851403 41.981932 145 145 145 0
-2.261071 1.849968 41.949378 148 148 148 0
-2.160642 1.851979 41.994984 146 146 146 0
-2.055322 1.849790 41.945346 147 147 147 0
-1.953590 1.850769 41.967562 151 151 151 0
-1.853397 1.853397 42.027141 148 148 148 0
-1.759474 1.862973 42.244285 154 154 154 0
-1.653598 1.860297 42.183616 154 154 154 0
-1.541662 1.849995 41.949994 151 151 151 0
-1.432166 1.841356 41.754103 149 149 149 0
-1.324766 1.834291 41.593899 148 148 148 0
-1.217378 1.826066 41.407403 140 140 140 0
-1.112591 1.820604 41.283536 146 146 146 0
-1.007987 1.814376 41.142321 143 143 143 0
-0.901691 1.803382 40.893014 139 139 139 0
-0.798296 1.796166 40.729378 138 138 138 0
-0.694603 1.786121 40.501615 144 144 144 0
-0.590976 1.772928 40.202446 142 142 142 0
-0.490033 1.764117 40.002663 137 137 137 0
-0.390086 1.755388 39.804721 141 141 141 0
-0.291441 1.748644 39.651784 139 139 139 0
-0.193782 1.744035 39.547277 139 139 139 0
-0.096261 1.732690 39.290023 140 140 140 0
0.000000 1.729202 39.210925 144 144 144 0
0.095770 1.723860 39.089797 146 146 146 0
0.191284 1.721558 39.037599 146 146 146 0
0.286019 1.716115 38.914163 146 146 146 0
0.380704 1.713169 38.847362 147 147 147 0
0.475671 1.712414 38.830260 147 147 147 0
0.570744 1.712232 38.826127 148 148 148 0
0.663850 1.707042 38.708438 148 148 148 0
0.758247 1.706055 38.686062 150 150 150 0
0.853333 1.706666 38.699919 154 154 154 0
0.946893 1.704408 38.648700 151 151 151 0
1.040014 1.701841 38.590503 150 150 150 0
1.136745 1.705117 38.664791 145 145 145 0
1.232234 1.706170 38.688671 140 140 140 0
1.324220 1.702569 38.607001 138 138 138 0
1.420324 1.704389 38.648270 135 135 135 0
1.517647 1.707352 38.715476 129 129 129 0
1.612609 1.707468 38.718102 120 120 120 0
1.708475 1.708475 38.740919 109 109 109 0
1.582700 1.499400 34.000000 96 96 96 0
1.669909 1.502918 34.079768 90 90 90 0
1.757653 1.506560 34.162361 102 102 102 0
2.124317 1.738078 39.412192 104 104 104 0
2.231469 1.746367 39.600163 106 106 106 0
2.329920 1.747440 39.624496 114 114 114 0
2.431153 1.750430 39.692295 118 118 118 0
2.535575 1.755398 39.804952 120 120 120 0
2.645092 1.763395 39.986280 151 151 151 0
2.746276 1.765463 40.033183 152 152 152 0
2.842635 1.764394 40.008931 147 147 147 0
2.942437 1.765462 40.033157 148 148 148 0
3.035780 1.762711 39.970774 147 147 147 0
3.128332 1.759687 39.902193 146 146 146 0
3.225963 1.759616 39.900599 147 147 147 0
3.318345 1.756771 39.836074 148 148 148 0
3.413238 1.755379 39.804522 147 147 147 0
3.513132 1.756566 39.831426 145 145 145 0
3.611763 1.757074 39.842947 143 143 143 0
3.704383 1.754708 39.789286 144 144 144 0
3.805208 1.756250 39.824256 143 143 143 0
3.906607 1.757973 39.863338 143 143 143 0
4.000104 1.756143 39.821841 143 143 143 0
4.094842 1.754932 39.794380 138 138 138 0
4.199158 1.757787 39.859113 138 138 138 0
4.298402 1.758437 39.873859 135 135 135 0
4.392069 1.756828 39.837364 131 131 131 0
4.495526 1.759119 39.889317 131 131 131 0
4.595499 1.759979 39.908810 128 128 128 0
4.696185 1.761069 39.933547 126 126 126 0
4.798705 1.762790 39.972554 126 126 126 0
4.900277 1.764100 40.002263 124 124 124 0
5.005091 1.766503 40.056751 124 124 124 0
5.104544 1.766958 40.067065 121 121 121 0
5.211775 1.770037 40.136888 120 120 120 0
5.309885 1.769962 40.135183 118 118 118 0
5.425099 1.775487 40.260471 116 116 116 0
5.528412 1.776990 40.294551 114 114 114 0
5.641876 1.781645 40.400114 105 105 105 0
5.748297 1.783954 40.452474 103 103 103 0
5.867323 1.790031 40.590269 103 103 103 0
5.127387 1.538216 34.880181 102 102 102 0
5.472166 1.614737 36.615360 99 99 99 0
5.304743 1.540087 34.922598 85 85 85 0
5.491200 1.568914 35.576288 85 85 85 0
5.736724 1.613454 36.586249 82 82 82 0
7.092274 1.905387 43.206058 75 75 75 0
7.325016 1.938975 43.967681 115 115 115 0
7.433280 1.939117 43.970899 132 132 132 0
7.536229 1.937887 43.943026 133 133 133 0
7.609523 1.929175 43.745462 136 136 136 0
7.706068 1.926517 43.685190 134 134 134 0
7.793723 1.921740 43.576869 138 138 138 0
7.898507 1.921258 43.565951 134 134 134 0
7.969148 1.912595 43.369512 134 134 134 0
8.176020 1.936426 43.909880 134 134 134 0
8.284528 1.936643 43.914805 131 131 131 0
8.561273 1.975678 44.799964 134 134 134 0
8.495092 1.935590 43.890941 133 133 133 0
-7.174482 1.703939 36.604499 96 96 96 0
-7.109151 1.709796 36.730307 107 107 107 0
-7.645164 1.862283 40.006090 127 127 127 0
-7.573220 1.868717 40.144291 136 136 136 0
-7.464418 1.866105 40.088175 143 143 143 0
-7.371797 1.867522 40.118625 143 143 143 0
-7.286846 1.870947 40.192202 137 137 137 0
-7.197292 1.873268 40.242059 139 139 139 0
-7.097676 1.872998 40.236259 142 142 142 0
-7.009015 1.875652 40.293272 145 145 145 0
-6.920506 1.878423 40.352804 143 143 143 0
-6.816682 1.877057 40.323465 144 144 144 0
-6.718594 1.877254 40.327693 143 143 143 0
-6.631692 1.880629 40.400196 145 145 145 0
-6.534930 1.881268 40.413916 154 154 154 0
-6.434206 1.880768 40.403179 153 153 153 0
-6.337009 1.881299 40.414595 156 156 156 0
-6.245156 1.883460 40.461001 158 158 158 0
-6.146000 1.883452 40.460831 161 161 161 0
-6.046840 1.883442 40.460621 158 158 158 0
-5.950571 1.884348 40.480078 155 155 155 0
-5.840544 1.880853 40.405011 150 150 150 0
-5.736868 1.879319 40.372045 148 148 148 0
-5.606275 1.868758 40.145182 143 143 143 0
-5.478849 1.858895 39.933304 142 142 142 0
-5.368356 1.854523 39.839378 138 138 138 0
-5.261232 1.851174 39.767438 137 137 137 0
-5.160408 1.849957 39.741298 136 136 136 0
-5.056430 1.847542 39.689403 135 135 135 0
-4.951910 1.844829 39.631133 134 134 134 0
-4.859526 1.846620 39.669602 135 135 135 0
-4.746717 1.840564 39.539504 130 130 130 0
-4.643400 1.838013 39.484696 128 128 128 0
-4.552110 1.840215 39.532001 130 130 130 0
-4.448349 1.837361 39.470707 131 131 131 0
-4.354711 1.838656 39.498515 125 125 125 0
-4.257380 1.838414 39.493325 124 124 124 0
-4.164890 1.840300 39.533841 118 118 118 0
-4.073933 1.842970 39.591183 122 122 122 0
-3.976633 1.842830 39.588181 117 117 117 0
-3.891470 1.848448 39.708875 113 113 113 0
-3.795644 1.849160 39.724165 111 111 111 0
-3.367337 1.683669 36.169035 113 113 113 0
-3.281283 1.684983 36.197273 113 113 113 0
-3.196494 1.687038 36.241426 111 111 111 0
-3.113418 1.690141 36.308078 109 109 109 0
-3.040717 1.699224 36.503200 109 109 109 0
-2.966735 1.708120 36.694316 109 109 109 0
-2.868883 1.703399 36.592898 105 105 105 0
-2.789952 1.709970 36.734057 107 107 107 0
-2.707701 1.714877 36.839464 110 110 110 0
-2.627288 1.721327 36.978013 112 112 112 0
-2.545342 1.727196 37.104110 113 113 113 0
-2.485171 1.748824 37.568715 104 104 104 0
-2.416934 1.766221 37.942449 114 114 114 0
-2.573434 1.955810 42.015248 144 144 144 0
-2.471091 1.956280 42.025354 146 146 146 0
-2.368589 1.956661 42.033525 146 146 146 0
-2.266335 1.957290 42.047038 145 145 145 0
-2.160230 1.954494 41.986984 150 150 150 0
-2.061526 1.958450 42.071968 154 154 154 0
-1.955169 1.955169 42.001490 148 148 148 0
-1.859019 1.962298 42.154620 157 157 157 0
-1.762833 1.970225 42.324914 153 153 153 0
-1.649749 1.959077 42.085436 150 150 150 0
-1.539557 1.950106 41.892708 148 148 148 0
-1.429897 1.940575 41.687967 146 146 146 0
-1.326176 1.938257 41.638182 143 143 143 0
-1.217317 1.927419 41.405347 147 147 147 0
-1.112009 1.920743 41.261926 141 141 141 0
-1.005784 1.910990 41.052424 143 143 143 0
-0.900748 1.901580 40.850261 143 143 143 0
-0.797831 1.894849 40.705676 140 140 140 0
-0.692338 1.879204 40.369585 139 139 139 0
-0.592420 1.875997 40.300677 140 140 140 0
-0.489779 1.861160 39.981948 139 139 139 0
-0.390381 1.854311 39.834833 140 140 140 0
-0.291244 1.844548 39.625102 143 143 143 0
-0.193517 1.838415 39.493346 139 139 139 0
-0.096347 1.830601 39.325484 141 141 141 0
0.000000 1.824038 39.184496 144 144 144 0
0.095807 1.820328 39.104801 142 142 142 0
0.191120 1.815638 39.004029 142 142 142 0
0.286161 1.812351 38.933426 141 141 141 0
0.380807 1.808832 38.857829 144 144 144 0
0.475707 1.807687 38.833232 148 148 148 0
0.570773 1.807448 38.828092 145 145 145 0
0.663943 1.802131 38.713876 145 145 145 0
0.758687 1.801881 38.708510 142 142 142 0
0.853438 1.801702 38.704661 144 144 144 0
0.947372 1.800008 38.668264 143 143 143 0
1.040814 1.797770 38.620183 142 142 142 0
1.137277 1.800688 38.682883 139 139 139 0
1.232523 1.801380 38.697739 138 138 138 0
1.324632 1.797715 38.619007 135 135 135 0
1.421186 1.800168 38.671715 130 130 130 0
1.518578 1.803311 38.739222 122 122 122 0
1.615294 1.805328 38.782563 113 113 113 0
1.714908 1.810181 38.886807 102 102 102 0
1.806833 1.806833 38.814879 93 93 93 0
1.917376 1.821507 39.130120 98 98 98 0
1.770970 1.602306 34.421177 105 105 105 0
2.130328 1.839829 39.523713 104 104 104 0
2.228662 1.841068 39.550338 111 111 111 0
2.324092 1.839906 39.525374 115 115 115 0
2.429262 1.846239 39.661421 116 116 116 0
2.528187 1.847521 39.688965 114 114 114 0
2.642329 1.859416 39.944498 132 132 132 0
2.747149 1.864137 40.045909 150 150 150 0
2.845685 1.864414 40.051864 144 144 144 0
2.945442 1.865446 40.074036 146 146 146 0
3.039676 1.863027 40.022061 144 144 144 0
3.132819 1.860111 39.959422 142 142 142 0
3.227145 1.858053 39.915217 144 144 144 0
3.320496 1.855571 39.861898 144 144 144 0
3.418389 1.855697 39.864595 144 144 144 0
3.514278 1.854758 39.844424 143 143 143 0
3.613413 1.855536 39.861142 144 144 144 0
3.705964 1.852982 39.806268 142 142 142 0
3.806520 1.854458 39.837987 145 145 145 0
3.905398 1.855064 39.850997 145 145 145 0
3.999421 1.853390 39.815044 144 144 144 0
4.096083 1.852990 39.806440 141 141 141 0
4.197730 1.854811 39.845559 137 137 137 0
4.298923 1.856353 39.878696 136 136 136 0
4.390900 1.853936 39.826758 134 134 134 0
4.491418 1.855151 39.852870 132 132 132 0
4.593206 1.856828 39.888893 129 129 129 0
4.693900 1.858002 39.914117 126 126 126 0
4.793467 1.858691 39.928920 125 125 125 0
4.896851 1.860804 39.974297 123 123 123 0
4.999843 1.862687 40.014754 123 123 123 0
5.104498 1.865105 40.066706 122 122 122 0
5.213325 1.868928 40.148827 121 121 121 0
5.310067 1.868357 40.136557 118 118 118 0
5.419717 1.872266 40.220531 117 117 117 0
5.525909 1.874862 40.276305 115 115 115 0
5.637634 1.879211 40.369742 109 109 109 0
5.746127 1.882352 40.437209 103 103 103 0
5.163822 1.662926 35.723433 105 105 105 0
4.997470 1.582532 33.996397 101 101 101 0
5.469493 1.703613 36.597480 97 97 97 0
5.431158 1.664387 35.754827 90 90 90 0
5.661203 1.707347 36.677700 85 85 85 0
5.594621 1.660903 35.679982 78 78 78 0
7.309162 2.042266 43.872519 114 114 114 0
7.418245 2.042705 43.881959 130 130 130 0
7.528802 2.043532 43.899721 136 136 136 0
7.597052 2.033014 43.673767 133 133 133 0
7.701990 2.032470 43.662077 133 133 133 0
7.786598 2.026649 43.537030 137 137 137 0
7.871564 2.021077 43.417340 138 138 138 0
7.972070 2.019591 43.385414 134 134 134 0
8.510611 2.127653 45.706827 128 128 128 0
8.284855 2.044315 43.916539 134 134 134 0
8.219289 2.002135 43.010409 134 134 134 0
8.493328 2.042699 43.881829 132 132 132 0
-7.143023 1.785756 36.443994 100 100 100 0
-7.059091 1.787112 36.471664 99 99 99 0
-7.017435 1.799342 36.721271 102 102 102 0
-7.573607 1.967171 40.146342 129 129 129 0
-7.489231 1.970850 40.221432 141 141 141 0
-7.388515 1.970271 40.209607 138 138 138 0
-7.295212 1.971679 40.238345 143 143 143 0
-7.214871 1.976677 40.340345 145 145 145 0
-7.107105 1.974196 40.289710 142 142 142 0
-7.011478 1.975064 40.307431 143 143 143 0
-6.929509 1.979860 40.405300 142 142 142 0
-6.824549 1.978130 40.370004 144 144 144 0
-6.725090 1.977968 40.366686 147 147 147 0
-6.639226 1.981859 40.446093 147 147 147 0
-6.541735 1.982344 40.456000 149 149 149 0
-6.437311 1.980711 40.422678 150 150 150 0
-6.347071 1.983460 40.478767 157 157 157 0
-6.254084 1.985423 40.518846 159 159 159 0
-6.155012 1.985488 40.520160 159 159 159 0
-6.050530 1.983780 40.485313 160 160 160 0
-5.954816 1.984939 40.508950 151 151 151 0
-5.827845 1.975541 40.317155 146 146 146 0
-5.696399 1.964276 40.087256 143 143 143 0
-5.578362 1.957320 39.945307 145 145 145 0
-5.463046 1.951088 39.818122 141 141 141 0
-5.355595 1.947489 39.744675 141 141 141 0
-5.251235 1.944902 39.691876 142 142 142 0
-5.144541 1.941336 39.619103 138 138 138 0
-5.042992 1.939612 39.583921 135 135 135 0
-4.939609 1.937102 39.532686 134 134 134 0
