ply
format ascii 1.0
element vertex 1098
property float x
property float y
property float z
property uchar red
property uchar green
property uchar blue
property uchar alpha
end_header
2.624931 -3.533561 41.207711 136 136 136 0
2.731579 -3.540936 41.293713 147 147 147 0
2.829868 -3.537334 41.251714 152 152 152 0
2.923900 -3.528845 41.152707 151 151 151 0
3.453560 -4.029153 46.987207 151 151 151 0
3.569166 -4.029703 46.993627 150 150 150 0
3.681001 -4.026094 46.951538 149 149 149 0
3.794086 -4.024031 46.927476 145 145 145 0
3.908477 -4.023432 46.920489 145 145 145 0
4.023640 -4.023640 46.922918 148 148 148 0
4.137024 -4.022107 46.905033 149 149 149 0
4.253845 -4.023907 46.926032 150 150 150 0
4.370258 -4.025237 46.941543 154 154 154 0
4.477239 -4.018035 46.857549 153 153 153 0
4.585770 -4.012549 46.793569 148 148 148 0
4.699289 -4.011588 46.782370 150 150 150 0
4.806673 -4.005561 46.712077 151 151 151 0
4.903592 -3.991296 46.545725 154 154 154 0
5.034042 -4.004351 46.697977 137 137 137 0
5.164639 -4.016942 46.844801 130 130 130 0
5.185523 -3.945506 46.011737 126 126 126 0
5.253245 -3.911991 45.620886 121 121 121 0
5.337444 -3.891886 45.386431 119 119 119 0
5.427621 -3.876872 45.211336 121 121 121 0
5.514342 -3.860039 45.015035 120 120 120 0
5.605741 -3.847077 44.863874 122 122 122 0
5.695460 -3.833483 44.705337 120 120 120 0
5.790039 -3.823611 44.590213 120 120 120 0
5.898794 -3.823292 44.586498 119 119 119 0
5.979511 -3.805143 44.374848 119 119 119 0
6.085120 -3.803200 44.352186 120 120 120 0
6.185074 -3.797852 44.289824 117 117 117 0
6.279489 -3.789347 44.190636 116 116 116 0
6.378022 -3.783572 44.123291 116 116 116 0
6.479085 -3.779466 44.075406 116 116 116 0
6.584023 -3.777718 44.055019 116 116 116 0
6.687345 -3.775114 44.024653 116 116 116 0
6.791575 -3.773097 44.001132 115 115 115 0
6.892545 -3.769360 43.957556 114 114 114 0
6.999768 -3.769106 43.954585 114 114 114 0
7.107217 -3.768979 43.953104 113 113 113 0
7.226996 -3.775296 44.026780 111 111 111 0
7.325141 -3.770293 43.968436 111 111 111 0
7.435165 -3.771461 43.982047 109 109 109 0
7.557597 -3.778798 44.067620 109 109 109 0
7.674173 -3.783043 44.117118 106 106 106 0
7.771058 -3.777598 44.053616 107 107 107 0
7.911952 -3.793402 44.237921 108 108 108 0
8.011399 -3.789175 44.188630 108 108 108 0
7.761234 -3.621909 42.238011 108 108 108 0
8.256812 -3.802479 44.343781 107 107 107 0
8.364664 -3.802120 44.339591 109 109 109 0
8.587858 -3.853526 44.939079 111 111 111 0
8.698983 -3.853980 44.944370 115 115 115 0
-10.194333 -4.332592 52.011904 115 115 115 0
-10.039769 -4.320913 51.871706 119 119 119 0
-9.891372 -4.311624 51.760190 122 122 122 0
-9.758898 -4.309124 51.730176 130 130 130 0
-9.615822 -4.301815 51.642441 138 138 138 0
-9.488850 -4.301612 51.639998 141 141 141 0
-9.374379 -4.307147 51.706446 140 140 140 0
-9.250561 -4.308480 51.722452 137 137 137 0
-9.113820 -4.303748 51.665644 129 129 129 0
-8.956965 -4.289251 51.491608 116 116 116 0
-8.735177 -4.242800 50.933976 111 111 111 0
-8.584218 -4.229904 50.779163 108 108 108 0
-8.424619 -4.212309 50.567938 103 103 103 0
-8.307062 -4.215524 50.606528 104 104 104 0
-8.175335 -4.211536 50.558660 105 105 105 0
-8.038173 -4.204583 50.475184 102 102 102 0
-7.918934 -4.206934 50.503406 105 105 105 0
-7.788059 -4.203079 50.457133 105 105 105 0
-7.666124 -4.204004 50.468230 107 107 107 0
-7.552706 -4.209705 50.536673 117 117 117 0
-7.444030 -4.218283 50.639656 126 126 126 0
-7.300150 -4.206866 50.502594 137 137 137 0
-7.160204 -4.197361 50.388490 132 132 132 0
-7.003112 -4.177295 50.147600 125 125 125 0
-6.846366 -4.156722 49.900626 125 125 125 0
-6.715927 -4.151664 49.839904 123 123 123 0
-6.591527 -4.150220 49.822574 120 120 120 0
-6.461601 -4.145178 49.762043 117 117 117 0
-6.338960 -4.144705 49.756361 117 117 117 0
-6.217569 -4.145046 49.760460 119 119 119 0
-6.087828 -4.139723 49.696555 123 123 123 0
-5.965862 -4.139578 49.694808 121 121 121 0
-5.840728 -4.137183 49.666057 121 121 121 0
-5.706504 -4.128109 49.557136 122 122 122 0
-5.585381 -4.128325 49.559723 120 120 120 0
-5.460429 -4.125658 49.527701 122 122 122 0
-5.329403 -4.118175 49.437873 120 120 120 0
-5.208265 -4.118163 49.437727 120 120 120 0
-5.081438 -4.113545 49.382292 122 122 122 0
-4.951990 -4.106528 49.298058 124 124 124 0
-4.831821 -4.107048 49.304296 125 125 125 0
-4.700517 -4.097887 49.194318 124 124 124 0
-4.573872 -4.092412 49.128598 125 125 125 0
-4.452449 -4.091439 49.116919 126 126 126 0
-4.325738 -4.085419 49.044643 128 128 128 0
-4.200071 -4.080069 48.980421 131 131 131 0
-4.076263 -4.076263 48.934726 136 136 136 0
-3.953719 -4.073529 48.901907 137 137 137 0
-3.827654 -4.066882 48.822114 140 140 140 0
-3.707548 -4.066343 48.815646 143 143 143 0
-3.586140 -4.064291 48.791014 145 145 145 0
-3.461180 -4.057935 48.714708 144 144 144 0
-3.342711 -4.059006 48.727568 145 145 145 0
-3.222059 -4.057408 48.708374 138 138 138 0
-3.097462 -4.050527 48.625771 140 140 140 0
-2.976702 -4.048315 48.599218 139 139 139 0
-2.858271 -4.049217 48.610052 140 140 140 0
-2.729697 -4.035204 48.441822 142 142 142 0
-2.611810 -4.036434 48.456585 139 139 139 0
-2.485573 -4.024261 48.310459 140 140 140 0
-2.361496 -4.014543 48.193797 136 136 136 0
-2.240484 -4.009287 48.130696 141 141 141 0
-2.120568 -4.005517 48.085434 141 141 141 0
-2.003069 -4.006138 48.092894 141 141 141 0
-1.886669 -4.009172 48.129313 135 135 135 0
-1.766472 -4.004003 48.067261 129 129 129 0
-1.648994 -4.004700 48.075635 129 129 129 0
-1.532259 -4.007446 48.108596 132 132 132 0
-1.413347 -4.004482 48.073017 136 136 136 0
-1.294418 -4.000928 48.030348 135 135 135 0
-1.175556 -3.996892 47.981896 138 138 138 0
-1.056742 -3.992135 47.924788 138 138 138 0
-0.939177 -3.991500 47.917169 136 136 136 0
-0.820991 -3.987669 47.871174 134 134 134 0
-0.703327 -3.985522 47.845397 137 137 137 0
-0.585623 -3.982235 47.805943 137 137 137 0
-0.467985 -3.977872 47.753565 137 137 137 0
-0.351088 -3.978995 47.767051 140 140 140 0
-0.233685 -3.972652 47.690895 141 141 141 0
-0.116656 -3.966298 47.614616 144 144 144 0
0.000000 -3.972095 47.684218 146 146 146 0
0.116581 -3.963746 47.583992 146 146 146 0
0.232785 -3.957338 47.507065 140 140 140 0
0.349718 -3.963468 47.580650 144 144 144 0
0.466436 -3.964710 47.595557 147 147 147 0
0.584059 -3.971601 47.678281 139 139 139 0
0.702040 -3.978228 47.757839 124 124 124 0
0.814875 -3.957966 47.514597 117 117 117 0
0.925116 -3.931745 47.199815 116 116 116 0
1.039772 -3.928026 47.155180 113 113 113 0
1.150926 -3.913148 46.976562 114 114 114 0
1.264255 -3.907697 46.911123 114 114 114 0
1.375547 -3.897384 46.787318 114 114 114 0
1.486640 -3.888135 46.676296 112 112 112 0
1.600240 -3.886297 46.654229 112 112 112 0
1.713902 -3.884844 46.636781 111 111 111 0
1.830146 -3.889059 46.687387 113 113 113 0
1.943821 -3.887641 46.670365 112 112 112 0
2.054346 -3.880431 46.583801 109 109 109 0
2.173860 -3.890065 46.699459 110 110 110 0
2.289992 -3.892986 46.734522 110 110 110 0
2.400879 -3.887138 46.664322 113 113 113 0
2.218051 -3.427898 41.151233 112 112 112 0
2.319737 -3.429177 41.166587 114 114 114 0
2.758660 -3.908102 46.915986 120 120 120 0
2.880098 -3.916934 47.022012 137 137 137 0
2.996981 -3.919129 47.048371 144 144 144 0
3.114264 -3.921665 47.078817 148 148 148 0
2.833799 -3.441042 41.309027 152 152 152 0
2.920694 -3.424262 41.107593 151 151 151 0
3.024048 -3.427254 41.143508 151 151 151 0
3.565909 -3.910997 46.950743 147 147 147 0
3.680978 -3.911039 46.951250 145 145 145 0
3.795041 -3.910042 46.939286 144 144 144 0
3.908360 -3.908360 46.919093 145 145 145 0
4.023385 -3.908431 46.919936 150 150 150 0
4.140585 -3.910552 46.945405 149 149 149 0
4.254655 -3.909683 46.934974 148 148 148 0
4.367444 -3.907713 46.911318 151 151 151 0
4.482448 -3.907775 46.912067 153 153 153 0
4.588667 -3.900367 46.823135 143 143 143 0
4.704177 -3.901025 46.831030 146 146 146 0
4.806355 -3.890859 46.708991 155 155 155 0
4.908836 -3.881405 46.595499 150 150 150 0
5.025677 -3.883478 46.620380 141 141 141 0
5.169689 -3.905987 46.890600 136 136 136 0
5.237287 -3.871038 46.471047 129 129 129 0
5.274189 -3.815371 45.802774 122 122 122 0
5.345560 -3.786438 45.455441 120 120 120 0
5.446820 -3.779426 45.371259 121 121 121 0
5.527593 -3.758763 45.123208 119 119 119 0
5.613170 -3.742114 44.923332 121 121 121 0
5.712395 -3.735028 44.838267 120 120 120 0
5.811383 -3.728057 44.754583 122 122 122 0
5.904213 -3.717468 44.627462 120 120 120 0
5.996201 -3.706743 44.498711 120 120 120 0
6.103610 -3.705763 44.486953 121 121 121 0
6.202693 -3.699852 44.415990 117 117 117 0
6.295165 -3.690269 44.300950 116 116 116 0
6.395800 -3.685715 44.246280 117 117 117 0
6.496973 -3.681618 44.197097 117 117 117 0
6.604669 -3.681291 44.193166 115 115 115 0
6.701801 -3.675181 44.119822 116 116 116 0
6.807309 -3.673786 44.103070 115 115 115 0
6.921573 -3.677086 44.142687 114 114 114 0
7.017507 -3.670696 44.065975 113 113 113 0
7.137085 -3.676680 44.137815 110 110 110 0
7.244103 -3.676112 44.130993 110 110 110 0
7.346796 -3.673398 44.098418 111 111 111 0
7.462989 -3.677415 44.146637 110 110 110 0
7.581912 -3.682643 44.209401 107 107 107 0
7.696811 -3.685797 44.247261 107 107 107 0
7.794285 -3.680635 44.185288 108 108 108 0
7.929625 -3.693250 44.336735 110 110 110 0
8.036692 -3.692534 44.328143 111 111 111 0
8.157707 -3.698160 44.395683 112 112 112 0
8.258306 -3.694505 44.351803 113 113 113 0
8.386471 -3.703117 44.455187 114 114 114 0
8.760476 -3.818669 45.842365 114 114 114 0
8.701166 -3.744806 44.955651 119 119 119 0
-10.251983 -4.228943 52.306036 111 111 111 0
-10.068422 -4.205797 52.019748 116 116 116 0
-9.916227 -4.195327 51.890253 121 121 121 0
-9.776222 -4.189809 51.822009 124 124 124 0
-9.633323 -4.182890 51.736428 129 129 129 0
-9.494256 -4.177473 51.669422 136 136 136 0
-9.378697 -4.182392 51.730263 139 139 139 0
-9.243713 -4.178665 51.684164 142 142 142 0
-9.116883 -4.178572 51.683013 141 141 141 0
-9.006264 -4.186010 51.775015 133 133 133 0
-8.880358 -4.186455 51.780514 132 132 132 0
-8.746695 -4.183202 51.740282 136 136 136 0
-8.598444 -4.172774 51.611306 124 124 124 0
-8.432388 -4.153266 51.370015 112 112 112 0
-8.272264 -4.136132 51.158096 111 111 111 0
-8.134693 -4.129921 51.081272 107 107 107 0
-7.991369 -4.120550 50.965363 101 101 101 0
-7.865432 -4.119988 50.958417 108 108 108 0
-7.746420 -4.123095 50.996841 113 113 113 0
-7.600477 -4.111733 50.856317 125 125 125 0
-7.461618 -4.103890 50.759304 130 130 130 0
-7.299068 -4.082529 50.495106 130 130 130 0
-7.151421 -4.068912 50.326677 132 132 132 0
-7.009718 -4.058258 50.194900 128 128 128 0
-6.864826 -4.045344 50.035174 122 122 122 0
-6.734198 -4.040519 49.975493 121 121 121 0
-6.607669 -4.038020 49.944589 118 118 118 0
-6.479334 -4.034302 49.898602 118 118 118 0
-6.357237 -4.034400 49.899817 119 119 119 0
-6.234396 -4.034021 49.895126 121 121 121 0
-6.105742 -4.029790 49.842793 121 121 121 0
-5.979091 -4.026735 49.805009 120 120 120 0
-5.855893 -4.025926 49.795008 121 121 121 0
-5.724984 -4.019670 49.717625 119 119 119 0
-5.600379 -4.017663 49.692805 121 121 121 0
-5.474905 -4.014931 49.659005 121 121 121 0
-5.340702 -4.005527 49.542693 120 120 120 0
-5.222077 -4.007640 49.568833 120 120 120 0
-5.093367 -4.001931 49.498224 121 121 121 0
-4.963167 -3.994744 49.409326 122 122 122 0
-4.841993 -3.994644 49.408092 122 122 122 0
-4.714736 -3.989392 49.343131 123 123 123 0
-4.585077 -3.981778 49.248949 125 125 125 0
-4.462184 -3.979786 49.224317 125 125 125 0
-4.332830 -3.971761 49.125058 127 127 127 0
-4.208302 -3.967828 49.076412 126 126 126 0
-4.082210 -3.962145 49.006117 128 128 128 0
-3.957153 -3.957153 48.944374 132 132 132 0
-3.829821 -3.949503 48.849754 134 134 134 0
-3.708106 -3.947338 48.822984 139 139 139 0
-3.587025 -3.945727 48.803058 140 140 140 0
-3.461695 -3.939170 48.721959 142 142 142 0
-3.338853 -3.935077 48.671328 143 143 143 0
-3.220646 -3.936345 48.687017 143 143 143 0
-3.093288 -3.926096 48.560251 141 141 141 0
-2.976423 -3.928878 48.594658 140 140 140 0
-2.852594 -3.922317 48.513507 141 141 141 0
-2.726997 -3.912648 48.393917 141 141 141 0
-2.609850 -3.914776 48.420231 140 140 140 0
-2.487120 -3.908331 48.340523 136 136 136 0
-2.362449 -3.898041 48.213245 136 136 136 0
-2.241978 -3.893962 48.162799 136 136 136 0
-2.122624 -3.891478 48.132070 136 136 136 0
-2.005157 -3.892363 48.143019 136 136 136 0
-1.886340 -3.890575 48.120907 129 129 129 0
-1.767546 -3.888602 48.096502 129 129 129 0
-1.650621 -3.890749 48.123059 129 129 129 0
-1.534974 -3.896473 48.193856 134 134 134 0
-1.414771 -3.890620 48.121456 134 134 134 0
-1.295683 -3.887049 48.077294 133 133 133 0
-1.177484 -3.885699 48.060590 132 132 132 0
-1.057787 -3.878551 47.972179 134 134 134 0
-0.940445 -3.879334 47.981864 132 132 132 0
-0.821788 -3.874143 47.917668 134 134 134 0
-0.703895 -3.871420 47.883986 134 134 134 0
-0.586482 -3.870782 47.876088 134 134 134 0
-0.468395 -3.864257 47.795389 136 136 136 0
-0.351317 -3.864487 47.798230 136 136 136 0
-0.233922 -3.859718 47.739246 137 137 137 0
-0.116764 -3.853199 47.658611 139 139 139 0
0.000000 -3.856691 47.701811 145 145 145 0
0.116684 -3.850568 47.626077 145 145 145 0
0.232953 -3.843716 47.541329 145 145 145 0
0.349769 -3.847461 47.587640 145 145 145 0
0.465628 -3.841435 47.513108 140 140 140 0
0.582873 -3.846959 47.581441 143 143 143 0
0.701164 -3.856399 47.698199 140 140 140 0
0.818940 -3.860719 47.751631 125 125 125 0
0.933857 -3.852162 47.645789 123 123 123 0
1.046702 -3.837906 47.469462 116 116 116 0
1.156524 -3.816528 47.205046 116 116 116 0
1.268516 -3.805548 47.069239 114 114 114 0
1.381446 -3.798977 46.987968 114 114 114 0
1.495245 -3.795622 46.946469 112 112 112 0
1.608222 -3.790809 46.886945 112 112 112 0
1.720657 -3.785445 46.820592 110 110 110 0
1.834741 -3.784154 46.804624 111 111 111 0
1.949344 -3.784021 46.802986 109 109 109 0
2.062172 -3.780649 46.761276 111 111 111 0
1.923850 -3.341423 41.328675 111 111 111 0
2.290463 -3.779264 46.744138 112 112 112 0
2.410390 -3.787756 46.849176 112 112 112 0
2.226114 -3.339172 41.300825 115 115 115 0
2.648796 -3.800446 47.006133 130 130 130 0
2.434969 -3.348082 41.411031 146 146 146 0
2.888149 -3.812357 47.153459 151 151 151 0
2.999919 -3.807590 47.094496 146 146 146 0
2.731703 -3.338748 41.295585 145 145 145 0
2.826512 -3.331246 41.202795 149 149 149 0
3.341807 -3.802746 47.034587 149 149 149 0
3.455548 -3.801102 47.014252 147 147 147 0
3.566297 -3.796380 46.955847 145 145 145 0
3.680892 -3.795920 46.950151 142 142 142 0
3.795106 -3.795106 46.940091 143 143 143 0
3.910386 -3.795375 46.943413 146 146 146 0
4.026602 -3.796511 46.957460 147 147 147 0
4.140272 -3.795249 46.941855 149 149 149 0
4.256149 -3.796025 46.951454 148 148 148 0
4.371282 -3.796113 46.952544 149 149 149 0
4.481784 -3.792279 46.905118 148 148 148 0
4.592466 -3.788785 46.861900 144 144 144 0
4.704596 -3.786626 46.835199 144 144 144 0
4.805037 -3.775387 46.696184 150 150 150 0
4.913639 -3.770932 46.641088 152 152 152 0
5.023095 -3.767321 46.596426 138 138 138 0
5.158347 -3.782788 46.787730 138 138 138 0
5.257620 -3.771771 46.651464 128 128 128 0
5.285033 -3.710768 45.896940 124 124 124 0
5.359199 -3.684450 45.571424 123 123 123 0
5.456276 -3.674635 45.450029 122 122 122 0
5.536371 -3.654005 45.194869 119 119 119 0
5.633301 -3.645077 45.084444 118 118 118 0
5.726924 -3.634394 44.952311 119 119 119 0
5.826857 -3.628043 44.873753 121 121 121 0
5.926036 -3.621467 44.792413 120 120 120 0
6.013463 -3.608078 44.626813 121 121 121 0
6.114828 -3.603381 44.568714 120 120 120 0
6.219281 -3.600636 44.534770 118 118 118 0
6.313387 -3.592099 44.429184 118 118 118 0
6.410721 -3.585657 44.349503 119 119 119 0
6.517232 -3.584478 44.334913 117 117 117 0
6.620287 -3.581467 44.297670 118 118 118 0
6.725352 -3.579623 44.274866 117 117 117 0
6.836867 -3.581216 44.294570 116 116 116 0
6.935698 -3.576219 44.232765 113 113 113 0
7.038849 -3.573569 44.199994 113 113 113 0
7.153599 -3.576799 44.239944 113 113 113 0
7.254929 -3.573323 44.196950 112 112 112 0
7.373337 -3.578237 44.257723 111 111 111 0
7.476421 -3.575680 44.226092 110 110 110 0
7.598671 -3.582231 44.307122 110 110 110 0
7.713826 -3.585299 44.345074 109 109 109 0
7.818331 -3.583402 44.321607 111 111 111 0
7.938547 -3.588658 44.386619 113 113 113 0
8.051003 -3.590312 44.407075 114 114 114 0
8.169460 -3.594562 44.459647 115 115 115 0
8.284805 -3.597349 44.494118 115 115 115 0
8.404303 -3.601844 44.549713 116 116 116 0
8.590926 -3.634623 44.955135 118 118 118 0
8.701386 -3.634756 44.956784 118 118 118 0
-10.372359 -4.148944 52.920200 113 113 113 0
-10.121131 -4.099698 52.292072 111 111 111 0
-9.946643 -4.080674 52.049415 115 115 115 0
-9.796957 -4.071463 51.931922 120 120 120 0
-9.652698 -4.064294 51.840484 124 124 124 0
-9.506378 -4.056055 51.735391 129 129 129 0
-9.383223 -4.057610 51.755231 136 136 136 0
-9.241311 -4.050985 51.670733 139 139 139 0
-9.119620 -4.053164 51.698524 143 143 143 0
-9.001865 -4.057179 51.749729 135 135 135 0
-8.871153 -4.055384 51.726838 138 138 138 0
-8.745534 -4.055900 51.733417 134 134 134 0
-8.626053 -4.059319 51.777029 143 143 143 0
-8.486568 -4.053286 51.700078 144 144 144 0
-8.360113 -4.053388 51.701380 144 144 144 0
-8.237680 -4.055473 51.727975 142 142 142 0
-8.099679 -4.049840 51.656117 140 140 140 0
-7.964281 -4.045349 51.598839 135 135 135 0
-7.810918 -4.031442 51.421449 137 137 137 0
-7.626358 -4.000713 51.029498 127 127 127 0
-7.455668 -3.976356 50.718832 130 130 130 0
-7.292967 -3.955507 50.452901 129 129 129 0
-7.154195 -3.947142 50.346203 130 130 130 0
-7.017605 -3.939708 50.251377 127 127 127 0
-6.876181 -3.929246 50.117934 122 122 122 0
-6.747918 -3.926062 50.077316 120 120 120 0
-6.620455 -3.923232 50.041228 119 119 119 0
-6.495990 -3.922107 50.026875 119 119 119 0
-6.372209 -3.921359 50.017339 123 123 123 0
-6.250995 -3.922193 50.027969 121 121 121 0
-6.117302 -3.915073 49.937156 121 121 121 0
-5.994234 -3.914602 49.931145 122 122 122 0
-5.869738 -3.913159 49.912742 119 119 119 0
-5.740447 -3.908389 49.851904 120 120 120 0
-5.614732 -3.905900 49.820157 118 118 118 0
-5.485718 -3.900955 49.757080 120 120 120 0
-5.357685 -3.896498 49.700229 120 120 120 0
-5.236378 -3.896839 49.704581 120 120 120 0
-5.105723 -3.890075 49.618303 120 120 120 0
-4.977375 -3.884781 49.550773 121 121 121 0
-4.853294 -3.882636 49.523413 121 121 121 0
-4.723128 -3.875387 49.430958 123 123 123 0
-4.595864 -3.870201 49.364810 121 121 121 0
-4.472627 -3.868218 49.339515 124 124 124 0
-4.346190 -3.863280 49.276531 124 124 124 0
-4.216816 -3.855375 49.175702 124 124 124 0
-4.089619 -3.849053 49.095061 124 124 124 0
-3.963981 -3.843860 49.028828 127 127 127 0
-3.836401 -3.836401 48.933687 129 129 129 0
-3.712596 -3.832357 48.882107 132 132 132 0
-3.590358 -3.829715 48.848407 135 135 135 0
-3.461545 -3.819636 48.719849 136 136 136 0
-3.343065 -3.820646 48.732726 137 137 137 0
-3.221301 -3.817839 48.696920 139 139 139 0
-3.093854 -3.807821 48.569144 139 139 139 0
-2.976697 -3.810172 48.599134 140 140 140 0
-2.854179 -3.805572 48.540462 139 139 139 0
-2.730388 -3.798801 48.454088 138 138 138 0
-2.610273 -3.796761 48.428073 137 137 137 0
-2.487098 -3.789864 48.340099 134 134 134 0
-2.362980 -3.780768 48.224078 131 131 131 0
-2.245159 -3.781321 48.231134 130 130 130 0
-2.125176 -3.778091 48.189936 132 132 132 0
-2.006300 -3.776564 48.170457 130 130 130 0
-1.889258 -3.778515 48.195348 125 125 125 0
-1.769482 -3.774894 48.149163 127 127 127 0
-1.652031 -3.776072 48.164181 131 131 131 0
-1.537587 -3.784828 48.275871 134 134 134 0
-1.417045 -3.778788 48.198823 131 131 131 0
-1.296928 -3.772881 48.123481 130 130 130 0
-1.178746 -3.771986 48.112069 129 129 129 0
-1.059732 -3.767937 48.060417 127 127 127 0
-0.941069 -3.764277 48.013738 127 127 127 0
-0.823143 -3.762940 47.996689 130 130 130 0
-0.704994 -3.759970 47.958801 132 132 132 0
-0.587016 -3.756901 47.919655 132 132 132 0
-0.469083 -3.752662 47.865584 131 131 131 0
-0.351767 -3.752176 47.859390 134 134 134 0
-0.234202 -3.747226 47.796244 135 135 135 0
-0.116989 -3.743643 47.750543 133 133 133 0
0.000000 -3.742066 47.730434 136 136 136 0
0.116787 -3.737176 47.668058 140 140 140 0
0.233162 -3.730599 47.584172 146 146 146 0
0.350141 -3.734842 47.638293 148 148 148 0
0.465968 -3.727741 47.547720 142 142 142 0
0.582329 -3.726908 47.537089 139 139 139 0
0.700364 -3.735273 47.643793 135 135 135 0
0.818033 -3.739579 47.698715 137 137 137 0
0.936879 -3.747515 47.799938 139 139 139 0
1.052307 -3.741537 47.723684 127 127 127 0
1.165594 -3.729901 47.575262 119 119 119 0
1.277174 -3.715416 47.390513 117 117 117 0
1.388968 -3.703916 47.243823 114 114 114 0
1.499139 -3.690188 47.068723 112 112 112 0
1.614653 -3.690635 47.074431 112 112 112 0
1.733009 -3.697085 47.156695 112 112 112 0
1.841190 -3.682379 46.969121 111 111 111 0
1.955822 -3.681547 46.958503 110 110 110 0
2.067700 -3.675911 46.886615 110 110 110 0
2.189692 -3.687903 47.039577 115 115 115 0
2.305333 -3.688533 47.047616 119 119 119 0
2.421907 -3.690526 47.073031 124 124 124 0
2.540111 -3.694706 47.126356 139 139 139 0
2.656362 -3.695808 47.140403 145 145 145 0
2.773092 -3.697455 47.161421 149 149 149 0
2.532857 -3.242057 41.352768 151 151 151 0
2.631260 -3.238474 41.307071 149 149 149 0
2.730219 -3.235815 41.273157 147 147 147 0
3.226988 -3.687986 47.040639 147 147 147 0
2.923347 -3.225762 41.144929 148 148 148 0
3.452529 -3.682698 46.973184 142 142 142 0
3.566431 -3.681478 46.957622 141 141 141 0
3.679847 -3.679847 46.936821 141 141 141 0
3.795814 -3.680789 46.948843 140 140 140 0
3.913103 -3.682921 46.976028 145 145 145 0
4.025531 -3.680486 46.944970 146 146 146 0
4.138304 -3.678493 46.919549 145 145 145 0
4.255799 -3.680691 46.947593 147 147 147 0
4.372973 -3.682504 46.970713 146 146 146 0
4.479738 -3.675682 46.883701 146 146 146 0
4.594900 -3.675920 46.886732 148 148 148 0
4.703916 -3.671349 46.828434 143 143 143 0
4.813585 -3.667493 46.779249 147 147 147 0
4.914405 -3.657232 46.648363 149 149 149 0
5.028966 -3.657430 46.650888 143 143 143 0
5.149573 -3.661918 46.708143 141 141 141 0
5.282495 -3.674779 46.872186 131 131 131 0
5.315303 -3.618930 46.159821 123 123 123 0
5.382686 -3.588457 45.771138 123 123 123 0
5.467075 -3.570334 45.539981 119 119 119 0
5.545258 -3.548965 45.267415 119 119 119 0
5.640685 -3.539253 45.143536 122 122 122 0
5.746374 -3.536230 45.104978 119 119 119 0
5.836119 -3.523694 44.945079 121 121 121 0
5.932261 -3.515414 44.839462 120 120 120 0
6.030284 -3.508529 44.751647 121 121 121 0
6.140475 -3.508843 44.755646 121 121 121 0
6.229979 -3.497532 44.611379 119 119 119 0
6.328995 -3.491859 44.539019 118 118 118 0
6.426430 -3.485521 44.458178 118 118 118 0
6.541817 -3.488969 44.502155 117 117 117 0
6.633122 -3.479670 44.383552 119 119 119 0
6.733709 -3.475463 44.329883 118 118 118 0
6.850594 -3.479667 44.383504 115 115 115 0
6.952016 -3.476008 44.336835 115 115 115 0
7.060618 -3.475996 44.336690 114 114 114 0
7.168481 -3.475627 44.331981 114 114 114 0
7.280155 -3.477089 44.350622 114 114 114 0
7.397253 -3.481060 44.401280 111 111 111 0
7.503328 -3.479804 44.385256 111 111 111 0
7.615206 -3.481237 44.403531 110 110 110 0
7.717219 -3.478183 44.364583 110 110 110 0
7.841247 -3.484999 44.451513 110 110 110 0
7.965359 -3.491664 44.536532 113 113 113 0
8.066501 -3.488217 44.492559 113 113 113 0
8.195012 -3.496538 44.598704 113 113 113 0
8.304044 -3.496440 44.597443 114 114 114 0
8.421866 -3.499996 44.642809 113 113 113 0
8.592245 -3.525024 44.962036 116 116 116 0
8.704154 -3.525733 44.971088 118 118 118 0
-10.480049 -4.061019 53.469640 110 110 110 0
-10.250402 -4.022310 52.959971 109 109 109 0
-9.996817 -3.973094 52.311968 109 109 109 0
-9.829481 -3.957323 52.104323 114 114 114 0
-9.679403 -3.948177 51.983902 117 117 117 0
-9.530933 -3.939452 51.869023 120 120 120 0
-9.397628 -3.936844 51.834681 127 127 127 0
-9.259525 -3.932127 51.772575 131 131 131 0
-9.117864 -3.925747 51.688573 137 137 137 0
-8.997414 -3.928448 51.724139 137 137 137 0
-8.858903 -3.923228 51.655411 139 139 139 0
-8.731969 -3.923059 51.653175 138 138 138 0
-8.611136 -3.925665 51.687489 130 130 130 0
-8.468907 -3.918450 51.592491 134 134 134 0
-8.345578 -3.919893 51.611491 129 129 129 0
-8.222028 -3.921275 51.629688 136 136 136 0
-8.100813 -3.923831 51.663349 138 138 138 0
-7.963720 -3.918656 51.595207 135 135 135 0
-7.799799 -3.899900 51.348249 134 134 134 0
-7.606762 -3.865732 50.898375 132 132 132 0
-7.451603 -3.849995 50.691179 126 126 126 0
-7.295957 -3.833469 50.473585 128 128 128 0
-7.164974 -3.829555 50.422055 128 128 128 0
-7.029725 -3.823184 50.338165 125 125 125 0
-6.893215 -3.815887 50.242090 121 121 121 0
-6.766460 -3.813823 50.214916 120 120 120 0
-6.639734 -3.811699 50.186951 119 119 119 0
-6.514345 -3.810277 50.168234 120 120 120 0
-6.388757 -3.808682 50.147232 119 119 119 0
-6.262004 -3.806316 50.116076 121 121 121 0
-6.136734 -3.804775 50.095789 119 119 119 0
-6.010350 -3.802467 50.065393 119 119 119 0
-5.881631 -3.798553 50.013869 118 118 118 0
-5.756551 -3.796874 49.991758 118 118 118 0
-5.630651 -3.794569 49.961407 118 118 118 0
-5.505150 -3.792437 49.933333 120 120 120 0
-5.371488 -3.784457 49.828273 121 121 121 0
-5.247302 -3.782938 49.808273 120 120 120 0
-5.119420 -3.778620 49.751409 121 121 121 0
-4.987741 -3.771219 49.653968 120 120 120 0
-4.864926 -3.770318 49.642103 119 119 119 0
-4.735988 -3.764503 49.565549 122 122 122 0
-4.603804 -3.755735 49.450097 122 122 122 0
-4.482299 -3.755440 49.446216 123 123 123 0
-4.352691 -3.748150 49.350234 123 123 123 0
-4.224000 -3.741257 49.259479 122 122 122 0
-4.101398 -3.739510 49.236467 124 124 124 0
-3.970750 -3.730099 49.112560 123 123 123 0
-3.844496 -3.724356 49.036940 122 122 122 0
-3.718782 -3.718782 48.963561 126 126 126 0
-3.592608 -3.712362 48.879022 129 129 129 0
-3.468241 -3.707430 48.814082 131 131 131 0
-3.344556 -3.702901 48.754457 133 133 133 0
-3.223785 -3.701383 48.734475 135 135 135 0
-3.096810 -3.692350 48.615534 136 136 136 0
-2.978521 -3.693365 48.628907 136 136 136 0
-2.854915 -3.687598 48.552969 138 138 138 0
-2.731441 -3.681507 48.472769 134 134 134 0
-2.613115 -3.682117 48.480804 133 133 133 0
-2.489671 -3.675229 48.390113 129 129 129 0
-2.365908 -3.667157 48.283837 130 130 130 0
-2.249289 -3.669893 48.319859 129 129 129 0
-2.128422 -3.665616 48.263539 130 130 130 0
-2.008797 -3.663100 48.230413 128 128 128 0
-1.893371 -3.668406 48.300281 125 125 125 0
-1.773563 -3.665363 48.260217 126 126 126 0
-1.655653 -3.666088 48.269758 127 127 127 0
-1.539072 -3.670095 48.322520 129 129 129 0
-1.419070 -3.665930 48.267671 128 128 128 0
-1.298975 -3.660749 48.199460 128 128 128 0
-1.180258 -3.658800 48.173794 125 125 125 0
-1.061245 -3.655400 48.129033 124 124 124 0
-0.942822 -3.653436 48.103169 123 123 123 0
-0.824986 -3.653511 48.104164 124 124 124 0
-0.706133 -3.648353 48.036241 127 127 127 0
-0.587968 -3.645400 47.997366 130 130 130 0
-0.469868 -3.641477 47.945712 130 130 130 0
-0.352099 -3.638355 47.904607 130 130 130 0
-0.234547 -3.635482 47.866783 131 131 131 0
-0.117105 -3.630265 47.798088 131 131 131 0
0.000000 -3.633582 47.841760 128 128 128 0
0.116827 -3.621647 47.684617 133 133 133 0
0.233273 -3.615732 47.606735 139 139 139 0
0.350578 -3.622635 47.697629 142 142 142 0
0.466611 -3.616233 47.613339 141 141 141 0
0.582866 -3.613769 47.580892 138 138 138 0
0.699212 -3.612596 47.565446 137 137 137 0
0.816762 -3.617089 47.624604 139 139 139 0
0.934382 -3.620731 47.672566 146 146 146 0
1.054254 -3.631318 47.811955 142 142 142 0
1.169597 -3.625750 47.738648 136 136 136 0
1.284360 -3.619561 47.657151 125 125 125 0
1.399947 -3.616530 47.617254 120 120 120 0
1.511985 -3.605503 47.472064 118 118 118 0
1.624051 -3.596113 47.348430 115 115 115 0
1.738181 -3.592242 47.297453 115 115 115 0
1.853677 -3.591500 47.287688 114 114 114 0
1.964439 -3.582212 47.165400 116 116 116 0
2.081304 -3.584467 47.195095 118 118 118 0
2.196894 -3.584407 47.194295 126 126 126 0
2.310457 -3.581208 47.152185 141 141 141 0
2.430633 -3.588077 47.242620 146 146 146 0
2.543959 -3.584670 47.197760 145 145 145 0
2.656283 -3.580207 47.139004 146 146 146 0
2.769846 -3.577718 47.106227 147 147 147 0
2.883274 -3.575260 47.073868 147 147 147 0
2.995534 -3.571598 47.025647 150 150 150 0
3.110489 -3.571302 47.021753 147 147 147 0
2.826055 -3.128846 41.196133 145 145 145 0
3.339327 -3.569626 46.999683 142 142 142 0
3.452725 -3.567816 46.975854 141 141 141 0
3.570646 -3.570646 47.013109 138 138 138 0
3.684800 -3.569650 47.000000 140 140 140 0
3.801470 -3.571077 47.018795 140 140 140 0
3.912719 -3.567479 46.971412 144 144 144 0
4.026592 -3.566410 46.957344 144 144 144 0
4.145655 -3.569869 47.002886 145 145 145 0
4.259528 -3.568793 46.988721 147 147 147 0
4.371259 -3.566027 46.952303 147 147 147 0
4.485830 -3.565659 46.947458 147 147 147 0
4.598269 -3.563659 46.921116 147 147 147 0
4.710204 -3.561374 46.891033 143 143 143 0
4.813243 -3.552632 46.775931 144 144 144 0
4.917539 -3.545202 46.678107 148 148 148 0
5.021377 -3.537788 46.580489 142 142 142 0
5.148177 -3.546522 46.695482 135 135 135 0
5.282481 -3.559933 46.872055 138 138 138 0
5.357724 -3.533818 46.528212 126 126 126 0
5.398039 -3.486233 45.901691 120 120 120 0
5.483513 -3.469161 45.676910 119 119 119 0
5.573043 -3.455287 45.494231 118 118 118 0
5.660161 -3.440490 45.299411 119 119 119 0
5.757356 -3.432270 45.191179 121 121 121 0
5.858659 -3.426763 45.118667 119 119 119 0
5.948295 -3.414762 44.960658 120 120 120 0
6.041258 -3.405073 44.833084 120 120 120 0
6.148454 -3.403609 44.813806 119 119 119 0
6.244334 -3.396041 44.714173 119 119 119 0
6.349345 -3.393615 44.682231 118 118 118 0
6.445083 -3.386399 44.587220 118 118 118 0
6.552993 -3.385713 44.578182 118 118 118 0
6.654119 -3.381601 44.524049 117 117 117 0
6.754325 -3.377163 44.465604 115 115 115 0
6.867604 -3.379297 44.493709 117 117 117 0
6.973135 -3.377612 44.471523 114 114 114 0
7.072049 -3.372823 44.408469 115 115 115 0
7.188254 -3.376301 44.454260 115 115 115 0
7.296154 -3.375833 44.448092 112 112 112 0
7.404542 -3.375600 44.445031 110 110 110 0
7.517525 -3.377439 44.469242 109 109 109 0
7.649329 -3.387560 44.602502 110 110 110 0
7.749862 -3.383742 44.552238 109 109 109 0
7.872109 -3.389380 44.626470 110 110 110 0
7.989523 -3.392811 44.671643 111 111 111 0
8.092222 -3.389985 44.634427 112 112 112 0
8.205840 -3.391747 44.657634 113 113 113 0
8.323817 -3.395241 44.703636 113 113 113 0
8.482699 -3.415113 44.965274 114 114 114 0
8.594541 -3.415779 44.974048 115 115 115 0
9.054547 -3.553050 46.781438 117 117 117 0
-10.574895 -3.965586 53.953545 108 108 108 0
-10.366025 -3.936465 53.557348 110 110 110 0
-10.129011 -3.895773 53.003718 111 111 111 0
-9.879663 -3.849219 52.370331 111 111 111 0
-9.707363 -3.831854 52.134065 114 114 114 0
-9.561337 -3.824535 52.034488 116 116 116 0
-9.415320 -3.817022 51.932266 120 120 120 0
-9.273751 -3.811131 51.852117 122 122 122 0
-9.132146 -3.805061 51.769535 127 127 127 0
-9.002997 -3.804083 51.756235 130 130 130 0
-8.858267 -3.796400 51.651700 135 135 135 0
-8.728361 -3.794939 51.631829 141 141 141 0
-8.597472 -3.793002 51.605474 140 140 140 0
-8.460317 -3.788202 51.540161 135 135 135 0
-8.333173 -3.787806 51.534771 129 129 129 0
-8.197402 -3.783416 51.475053 129 129 129 0
-8.042279 -3.769818 51.290047 131 131 131 0
-7.905614 -3.764578 51.218747 131 131 131 0
-7.761069 -3.755356 51.093280 130 130 130 0
-7.602434 -3.738902 50.869418 129 129 129 0
-7.457908 -3.728954 50.734069 128 128 128 0
-7.310938 -3.717426 50.577224 125 125 125 0
-7.173998 -3.710688 50.485557 125 125 125 0
-7.046182 -3.708517 50.456008 123 123 123 0
-6.908900 -3.701196 50.356413 121 121 121 0
-6.786059 -3.701487 50.360361 120 120 120 0
-6.658640 -3.699245 50.329860 119 119 119 0
-6.525909 -3.693911 50.257286 119 119 119 0
-6.406398 -3.695999 50.285698 121 121 121 0
-6.276660 -3.692153 50.233373 119 119 119 0
-6.151894 -3.691137 50.219545 118 118 118 0
-6.027448 -3.690274 50.207813 118 118 118 0
-5.899015 -3.686884 50.161692 120 120 120 0
-5.774082 -3.685585 50.144007 116 116 116 0
-5.645345 -3.681747 50.091791 118 118 118 0
-5.515620 -3.677080 50.028299 117 117 117 0
-5.388055 -3.673674 49.981958 118 118 118 0
-5.259789 -3.669620 49.926803 118 118 118 0
-5.133415 -3.666725 49.887414 118 118 118 0
-5.003527 -3.661117 49.811121 119 119 119 0
-4.876530 -3.657397 49.760507 121 121 121 0
-4.751199 -3.654769 49.724742 120 120 120 0
-4.617714 -3.645564 49.599507 121 121 121 0
-4.493671 -3.643517 49.571662 120 120 120 0
-4.363013 -3.635844 49.467268 122 122 122 0
-4.232547 -3.627898 49.359152 124 124 124 0
-4.109231 -3.625792 49.330501 121 121 121 0
-3.981374 -3.619431 49.243964 123 123 123 0
-3.854763 -3.613840 49.167897 122 122 122 0
-3.727958 -3.607701 49.084366 122 122 122 0
-3.599816 -3.599816 48.977093 122 122 122 0
-3.473959 -3.593751 48.894566 127 127 127 0
-3.348724 -3.587919 48.815219 129 129 129 0
-3.228386 -3.587096 48.804025 129 129 129 0
-3.100671 -3.577698 48.676158 129 129 129 0
-2.981229 -3.577475 48.673132 130 130 130 0
-2.859726 -3.574657 48.634792 132 132 132 0
-2.734209 -3.566360 48.521900 131 131 131 0
-2.615926 -3.567172 48.532952 129 129 129 0
-2.493774 -3.562534 48.469851 128 128 128 0
-2.370421 -3.555632 48.375945 127 127 127 0
-2.253311 -3.557859 48.406243 128 128 128 0
-2.131886 -3.553144 48.342093 123 123 123 0
-2.011884 -3.550383 48.304536 125 125 125 0
-1.895531 -3.554120 48.355376 125 125 125 0
-1.776258 -3.552516 48.333551 124 124 124 0
-1.658167 -3.553214 48.343051 127 127 127 0
-1.540629 -3.555298 48.371405 127 127 127 0
-1.421557 -3.553892 48.352267 127 127 127 0
-1.302154 -3.551328 48.317385 124 124 124 0
-1.184795 -3.554385 48.358976 123 123 123 0
-1.063511 -3.545038 48.231810 125 125 125 0
-0.945074 -3.544027 48.218053 127 127 127 0
-0.827083 -3.544640 48.226401 128 128 128 0
-0.707114 -3.535572 48.103015 127 127 127 0
-0.588685 -3.532107 48.055880 127 127 127 0
-0.470873 -3.531551 48.048314 128 128 128 0
-0.352520 -3.525201 47.961917 129 129 129 0
-0.234916 -3.523747 47.942142 129 129 129 0
-0.117300 -3.519005 47.877619 130 130 130 0
0.000000 -3.520665 47.900208 129 129 129 0
0.117092 -3.512754 47.792575 125 125 125 0
0.233579 -3.503690 47.669258 133 133 133 0
0.350662 -3.506620 47.709110 137 137 137 0
0.466801 -3.501009 47.632780 139 139 139 0
0.582963 -3.497777 47.588802 142 142 142 0
0.700379 -3.501896 47.644842 142 142 142 0
0.816431 -3.498992 47.605330 141 141 141 0
0.933534 -3.500754 47.629311 146 146 146 0
1.051128 -3.503760 47.670211 149 149 149 0
1.169347 -3.508042 47.728468 148 148 148 0
1.285275 -3.505294 47.691078 143 143 143 0
1.402450 -3.506124 47.702369 138 138 138 0
1.517423 -3.501746 47.642797 140 140 140 0
1.629710 -3.492236 47.513416 134 134 134 0
1.748489 -3.496978 47.577931 135 135 135 0
1.862203 -3.491630 47.505174 133 133 133 0
1.972737 -3.481301 47.364639 134 134 134 0
2.089247 -3.482078 47.375209 137 137 137 0
2.203591 -3.479355 47.338163 146 146 146 0
2.315157 -3.472735 47.248094 144 144 144 0
2.430859 -3.472656 47.247016 143 143 143 0
2.540329 -3.464085 47.130410 146 146 146 0
2.655155 -3.463246 47.118993 145 145 145 0
2.771077 -3.463846 47.127152 148 148 148 0
2.882658 -3.459189 47.063799 151 151 151 0
2.631229 -3.036034 41.306579 148 148 148 0
3.112665 -3.458516 47.054646 144 144 144 0
3.225692 -3.456098 47.021747 140 140 140 0
2.920600 -3.021310 41.106257 136 136 136 0
3.459950 -3.459950 47.074147 137 137 137 0
3.572781 -3.457530 47.041228 135 135 135 0
3.685830 -3.455466 47.013143 138 138 138 0
3.799950 -3.454500 47.000000 144 144 144 0
3.914891 -3.454316 46.997494 144 144 144 0
4.031044 -3.455181 47.009264 144 144 144 0
4.142556 -3.452130 46.967750 144 144 144 0
4.256453 -3.451178 46.954804 147 147 147 0
4.372514 -3.451985 46.965777 148 148 148 0
4.489465 -3.453435 46.985503 148 148 148 0
4.601938 -3.451454 46.958553 145 145 145 0
4.711327 -3.447313 46.902213 143 143 143 0
4.821458 -3.443898 46.855760 144 144 144 0
4.922658 -3.434413 46.726702 145 145 145 0
5.028640 -3.428618 46.647862 141 141 141 0
5.137179 -3.424786 46.595725 135 135 135 0
5.278927 -3.442779 46.840526 135 135 135 0
5.384908 -3.437175 46.764292 129 129 129 0
5.422498 -3.389061 46.109674 120 120 120 0
5.498987 -3.366727 45.805804 119 119 119 0
5.575636 -3.345382 45.515398 121 121 121 0
5.670589 -3.335641 45.382867 119 119 119 0
5.777353 -3.333089 45.348143 121 121 121 0
5.867023 -3.320957 45.183082 118 118 118 0
5.961597 -3.311998 45.061200 119 119 119 0
6.063750 -3.307500 45.000000 119 119 119 0
6.164940 -3.302646 44.933963 118 118 118 0
6.262630 -3.296121 44.845182 120 120 120 0
6.357393 -3.288307 44.738866 119 119 119 0
6.464224 -3.286894 44.719643 117 117 117 0
6.573513 -3.286757 44.717779 117 117 117 0
6.678806 -3.284659 44.689235 117 117 117 0
6.776044 -3.278731 44.608585 115 115 115 0
6.882191 -3.277234 44.588218 117 117 117 0
6.990048 -3.276585 44.579391 114 114 114 0
7.101079 -3.277421 44.590766 114 114 114 0
7.222506 -3.282957 44.666084 113 113 113 0
7.320333 -3.277761 44.595389 112 112 112 0
7.434992 -3.280144 44.627805 109 109 109 0
7.539080 -3.277861 44.596745 108 108 108 0
7.656737 -3.281459 44.645698 110 110 110 0
7.762572 -3.279960 44.625305 109 109 109 0
7.894496 -3.289373 44.753377 110 110 110 0
8.011871 -3.292550 44.796597 111 111 111 0
8.113189 -3.289131 44.750078 111 111 111 0
8.233635 -3.293454 44.808896 112 112 112 0
8.338661 -3.291577 44.783356 113 113 113 0
8.450241 -3.292302 44.793219 114 114 114 0
8.595652 -3.306020 44.979866 115 115 115 0
8.881229 -3.372619 45.885970 115 115 115 0
-10.700043 -3.878765 54.592055 109 109 109 0
-10.511425 -3.858624 54.308578 110 110 110 0
-10.261765 -3.815271 53.698402 111 111 111 0
-10.007838 -3.769186 53.049766 113 113 113 0
-9.762663 -3.725227 52.431057 112 112 112 0
-9.596153 -3.710513 52.223962 114 114 114 0
-9.447824 -3.702526 52.111549 113 113 113 0
-9.297536 -3.693542 51.985107 118 118 118 0
-9.158293 -3.688757 51.917760 120 120 120 0
-9.020549 -3.684450 51.857137 123 123 123 0
-8.870989 -3.675124 51.725883 127 127 127 0
-8.736611 -3.671909 51.680635 131 131 131 0
-8.601724 -3.668382 51.630996 134 134 134 0
-8.452807 -3.658678 51.494406 135 135 135 0
-8.326314 -3.658532 51.492359 133 133 133 0
-8.181023 -3.649995 51.372201 133 133 133 0
-8.041971 -3.644018 51.288080 132 132 132 0
-7.896329 -3.634818 51.158596 133 133 133 0
-7.755308 -3.627483 51.055355 129 129 129 0
-7.607254 -3.616563 50.901667 127 127 127 0
-7.470847 -3.610910 50.822091 125 125 125 0
-7.325277 -3.600560 50.676420 121 121 121 0
-7.188734 -3.594367 50.589262 122 122 122 0
-7.060907 -3.592391 50.561455 121 121 121 0
-6.925550 -3.586445 50.477769 120 120 120 0
-6.802796 -3.586929 50.484574 120 120 120 0
-6.676216 -3.585375 50.462703 118 118 118 0
-6.542779 -3.580011 50.387207 117 117 117 0
-6.422372 -3.581708 50.411085 119 119 119 0
-6.296154 -3.580166 50.389391 119 119 119 0
-6.165245 -3.575842 50.328530 118 118 118 0
-6.045736 -3.578089 50.360153 119 119 119 0
-5.916453 -3.574524 50.309974 118 118 118 0
-5.786713 -3.570525 50.253696 118 118 118 0
-5.661276 -3.569065 50.233152 117 117 117 0
-5.533407 -3.565973 50.189629 118 118 118 0
-5.398405 -3.558040 50.077973 118 118 118 0
-5.277287 -3.559101 50.092902 116 116 116 0
-5.144845 -3.552393 49.998490 120 120 120 0
-5.018617 -3.549754 49.961345 117 117 117 0
-4.891723 -3.546499 49.915538 120 120 120 0
-4.760388 -3.539776 49.820909 120 120 120 0
-4.630186 -3.533563 49.733466 120 120 120 0
-4.504902 -3.530869 49.695549 120 120 120 0
-4.374399 -3.523821 49.596359 118 118 118 0
-4.244710 -3.517045 49.500986 120 120 120 0
-4.120512 -3.514554 49.465932 123 123 123 0
-3.990562 -3.506857 49.357598 124 124 124 0
-3.864234 -3.501962 49.288693 122 122 122 0
-3.739726 -3.498453 49.239310 121 121 121 0
-3.608952 -3.488653 49.101384 122 122 122 0
-3.479599 -3.479599 48.973944 121 121 121 0
-3.357787 -3.477708 48.947328 122 122 122 0
-3.232301 -3.471730 48.863200 122 122 122 0
-3.106055 -3.464446 48.760680 126 126 126 0
-2.985970 -3.463725 48.750524 125 125 125 0
-2.862962 -3.459412 48.689830 125 125 125 0
-2.739487 -3.454136 48.615571 126 126 126 0
-2.619862 -3.453455 48.605976 127 127 127 0
-2.498558 -3.450390 48.562842 128 128 128 0
-2.374811 -3.443475 48.465524 125 125 125 0
-2.257643 -3.445876 48.499310 124 124 124 0
-2.136104 -3.441501 48.437731 123 123 123 0
-2.015418 -3.438066 48.389386 125 125 125 0
-1.899064 -3.442054 48.445512 124 124 124 0
-1.779119 -3.439630 48.411402 124 124 124 0
-1.661174 -3.441002 48.430716 125 125 125 0
-1.544068 -3.444459 48.479373 127 127 127 0
-1.424594 -3.442769 48.455585 125 125 125 0
-1.303234 -3.435798 48.357465 126 126 126 0
-1.186933 -3.442106 48.446255 127 127 127 0
-1.066102 -3.435219 48.349315 126 126 126 0
-0.946703 -3.431800 48.301198 127 127 127 0
-0.828671 -3.433067 48.319033 127 127 127 0
-0.708220 -3.423063 48.178233 125 125 125 0
-0.589622 -3.419805 48.132369 124 124 124 0
-0.471741 -3.420122 48.136829 128 128 128 0
-0.353078 -3.413085 48.037794 128 128 128 0
-0.235304 -3.411902 48.021142 127 127 127 0
-0.117557 -3.409155 47.982479 129 129 129 0
0.000000 -3.405457 47.930432 131 131 131 0
0.117315 -3.402145 47.883819 130 130 130 0
0.234198 -3.395867 47.795452 128 128 128 0
0.351066 -3.393634 47.764021 129 129 129 0
0.467534 -3.389618 47.707508 134 134 134 0
0.583364 -3.383514 47.621589 138 138 138 0
0.700886 -3.387617 47.679337 145 145 145 0
0.817030 -3.384838 47.640228 143 143 143 0
0.932318 -3.379653 47.567252 143 143 143 0
1.049513 -3.381765 47.596971 141 141 141 0
1.166353 -3.382425 47.606262 148 148 148 0
1.283575 -3.383970 47.628003 145 145 145 0
1.401335 -3.386559 47.664443 147 147 147 0
1.517409 -3.384989 47.642350 148 148 148 0
1.631040 -3.378583 47.552191 145 145 145 0
1.748684 -3.380789 47.583231 144 144 144 0
1.863006 -3.376699 47.525668 143 143 143 0
1.975977 -3.370784 47.442424 143 143 143 0
2.091965 -3.370387 47.436840 141 141 141 0
2.203693 -3.363531 47.340341 142 142 142 0
2.314789 -3.356443 47.240583 142 142 142 0
2.429564 -3.355112 47.221848 143 143 143 0
2.540185 -3.348425 47.127730 147 147 147 0
2.652606 -3.344591 47.073760 148 148 148 0
2.769985 -3.347065 47.108592 146 146 146 0
2.882037 -3.343163 47.053663 141 141 141 0
2.996949 -3.342751 47.047861 138 138 138 0
3.112557 -3.343117 47.053014 137 137 137 0
2.828681 -2.929705 41.234414 133 133 133 0
2.924201 -2.924201 41.156941 131 131 131 0
3.460375 -3.345029 47.079935 134 134 134 0
3.575691 -3.345001 47.079536 135 135 135 0
3.690823 -3.344809 47.076828 134 134 134 0
3.803320 -3.342312 47.041686 139 139 139 0
3.918792 -3.342499 47.044321 140 140 140 0
4.032140 -3.340916 47.022039 142 142 142 0
4.148459 -3.341814 47.034678 142 142 142 0
4.259624 -3.338624 46.989782 143 143 143 0
4.377296 -3.340568 47.017140 146 146 146 0
4.488668 -3.337728 46.977168 142 142 142 0
4.599785 -3.334844 46.936586 143 143 143 0
4.712564 -3.333277 46.914526 142 142 142 0
4.822393 -3.329747 46.864847 139 139 139 0
4.928022 -3.323550 46.777617 140 140 140 0
5.031479 -3.316202 46.674199 140 140 140 0
5.145563 -3.316030 46.671777 135 135 135 0
5.262197 -3.317472 46.692074 139 139 139 0
5.419505 -3.343950 47.064743 136 136 136 0
5.458687 -3.297957 46.417411 122 122 122 0
5.511942 -3.262170 45.913720 119 119 119 0
5.598011 -3.246847 45.698051 121 121 121 0
5.696552 -3.239216 45.590654 120 120 120 0
5.796555 -3.232694 45.498866 117 117 117 0
5.881816 -3.218352 45.297006 117 117 117 0
5.984490 -3.213893 45.234240 119 119 119 0
6.077752 -3.204633 45.103907 118 118 118 0
6.179147 -3.199916 45.037518 118 118 118 0
6.284113 -3.197180 44.999019 119 119 119 0
6.376940 -3.188470 44.876428 118 118 118 0
6.479160 -3.184672 44.822966 119 119 119 0
6.587943 -3.184172 44.815939 117 117 117 0
6.690246 -3.180609 44.765778 114 114 114 0
6.796009 -3.178778 44.740020 117 117 117 0
6.909532 -3.180578 44.765353 116 116 116 0
7.012805 -3.177677 44.724524 113 113 113 0
7.112570 -3.173301 44.662921 113 113 113 0
7.236208 -3.179546 44.750824 111 111 111 0
7.336018 -3.175291 44.690940 111 111 111 0
7.449039 -3.176796 44.712116 110 110 110 0
7.565850 -3.179850 44.755099 111 111 111 0
7.679612 -3.181554 44.779079 111 111 111 0
7.789991 -3.181827 44.782933 110 110 110 0
7.906891 -3.184720 44.823643 109 109 109 0
7.248608 -2.879584 40.528980 110 110 110 0
8.138757 -3.189513 44.891103 113 113 113 0
8.252014 -3.190779 44.908922 112 112 112 0
8.361762 -3.190672 44.907423 113 113 113 0
8.474637 -3.191746 44.922539 111 111 111 0
8.598043 -3.196708 44.992375 112 112 112 0
8.534310 -3.132848 44.093566 113 113 113 0
-10.016329 -3.505715 51.103721 108 108 108 0
-10.620910 -3.764373 54.874243 113 113 113 0
-10.421266 -3.740967 54.533053 111 111 111 0
-10.172546 -3.699108 53.922853 113 113 113 0
-9.886351 -3.642340 53.095332 111 111 111 0
-9.648558 -3.602128 52.509157 112 112 112 0
-9.495621 -3.592938 52.375182 109 109 109 0
-9.330509 -3.578825 52.169468 113 113 113 0
-9.183642 -3.571416 52.061460 116 116 116 0
-9.039544 -3.564890 51.966333 118 118 118 0
-8.890497 -3.556199 51.839633 119 119 119 0
-8.748894 -3.550276 51.753292 125 125 125 0
-8.612882 -3.546481 51.697974 126 126 126 0
-8.465384 -3.537772 51.571024 128 128 128 0
-8.329833 -3.533869 51.514121 131 131 131 0
-8.185477 -3.526052 51.400169 130 130 130 0
-8.045750 -3.520015 51.312179 129 129 129 0
-7.906237 -3.513883 51.222787 126 126 126 0
-7.761069 -3.504999 51.093280 126 126 126 0
-7.620746 -3.498047 50.991941 123 123 123 0
-7.481517 -3.491375 50.894674 122 122 122 0
-7.342777 -3.484708 50.797486 122 122 122 0
-7.208697 -3.480061 50.729749 121 121 121 0
-7.079909 -3.477850 50.697520 119 119 119 0
-6.943733 -3.471866 50.610297 119 119 119 0
-6.814928 -3.469418 50.574608 122 122 122 0
-6.693972 -3.470948 50.596917 119 119 119 0
-6.560842 -3.466105 50.526317 117 117 117 0
-6.439605 -3.467480 50.546353 117 117 117 0
-6.317876 -3.468638 50.563236 119 119 119 0
-6.183733 -3.462890 50.479452 117 117 117 0
-6.063047 -3.464599 50.504352 118 118 118 0
-5.932685 -3.460733 50.448005 117 117 117 0
-5.798534 -3.454446 50.356350 118 118 118 0
-5.681539 -3.458328 50.412945 118 118 118 0
-5.549518 -3.453033 50.335763 118 118 118 0
-5.416663 -3.446967 50.247339 117 117 117 0
-5.291681 -3.445746 50.229527 117 117 117 0
-5.161160 -3.440773 50.157041 119 119 119 0
-5.032059 -3.436528 50.095166 120 120 120 0
-4.904833 -3.433383 50.049314 118 118 118 0
-4.774647 -3.427952 49.970141 118 118 118 0
-4.645059 -3.422675 49.893225 118 118 118 0
-4.516970 -3.418248 49.828687 119 119 119 0
-4.387648 -3.412615 49.746576 119 119 119 0
-4.256155 -3.404924 49.634460 119 119 119 0
-4.130234 -3.401369 49.582636 122 122 122 0
-3.999889 -3.393845 49.472957 121 121 121 0
-3.872523 -3.388457 49.394424 121 121 121 0
-3.748568 -3.385804 49.355738 122 122 122 0
-3.617380 -3.376221 49.216054 121 121 121 0
-3.490471 -3.370110 49.126962 122 122 122 0
-3.366052 -3.366052 49.067809 121 121 121 0
-3.239987 -3.359987 48.979401 119 119 119 0
-3.115674 -3.355342 48.911686 122 122 122 0
-2.992591 -3.351702 48.858630 121 121 121 0
-2.868456 -3.346532 48.783268 122 122 122 0
-2.744857 -3.341566 48.710868 123 123 123 0
-2.624771 -3.340617 48.697043 124 124 124 0
-2.503127 -3.337502 48.651635 122 122 122 0
-2.380626 -3.332876 48.584197 123 123 123 0
-2.260860 -3.331794 48.568423 122 122 122 0
-2.139528 -3.328155 48.515377 122 122 122 0
-2.019440 -3.326136 48.485949 124 124 124 0
-1.902995 -3.330240 48.545778 122 122 122 0
-1.783360 -3.328939 48.526806 125 125 125 0
-1.664561 -3.329121 48.529463 125 125 125 0
-1.546494 -3.330910 48.555543 125 125 125 0
-1.426717 -3.329006 48.527787 125 125 125 0
-1.306311 -3.325155 48.471649 126 126 126 0
-1.188213 -3.326998 48.498507 127 127 127 0
-1.068212 -3.323325 48.444968 126 126 126 0
-0.948528 -3.319849 48.394299 125 125 125 0
-0.830202 -3.320808 48.408276 126 126 126 0
-0.710119 -3.313891 48.307442 125 125 125 0
-0.590822 -3.308601 48.230340 124 124 124 0
-0.472630 -3.308410 48.227545 124 124 124 0
-0.353880 -3.302882 48.146962 124 124 124 0
-0.235698 -3.299775 48.101672 125 125 125 0
-0.117684 -3.295151 48.034269 127 127 127 0
0.000000 -3.292962 48.002367 128 128 128 0
0.117479 -3.289415 47.950652 129 129 129 0
0.234670 -3.285378 47.891813 128 128 128 0
0.351706 -3.282586 47.851112 127 127 127 0
