ply
format ascii 1.0
element vertex 1128
property float x
property float y
property float z
property uchar red
property uchar green
property uchar blue
property uchar alpha
end_header
1.289342 0.859561 43.855160 144 144 144 0
1.398904 0.860864 43.921641 151 151 151 0
1.501319 0.857896 43.770221 143 143 143 0
1.609075 0.858173 43.784345 145 145 145 0
1.717358 0.858679 43.810154 144 144 144 0
1.822948 0.857858 43.768260 143 143 143 0
1.929637 0.857617 43.755950 141 141 141 0
2.040299 0.859073 43.830267 138 138 138 0
2.145883 0.858353 43.793538 135 135 135 0
2.257292 0.859921 43.873502 135 135 135 0
2.366518 0.860552 43.905716 132 132 132 0
2.476524 0.861400 43.948968 131 131 131 0
2.585226 0.861742 43.966421 133 133 133 0
2.696583 0.862907 44.025845 132 132 132 0
2.454876 0.755347 38.538090 119 119 119 0
2.551102 0.755882 38.565417 104 104 104 0
2.653182 0.758052 38.676117 100 100 100 0
2.741083 0.756161 38.579641 107 107 107 0
2.878808 0.767682 39.167452 112 112 112 0
2.949663 0.761203 38.836907 114 114 114 0
3.538843 0.884711 45.138300 138 138 138 0
3.665551 0.888618 45.337673 143 143 143 0
3.770999 0.887294 45.270100 154 154 154 0
3.886748 0.888400 45.326510 149 149 149 0
3.999847 0.888855 45.349741 147 147 147 0
4.100299 0.886551 45.232201 152 152 152 0
4.206707 0.885623 45.184826 145 145 145 0
4.306385 0.883361 45.069445 145 145 145 0
4.412455 0.882491 45.025055 147 147 147 0
4.519459 0.881846 44.992124 148 148 148 0
4.624659 0.880887 44.943233 144 144 144 0
4.732125 0.880395 44.918127 145 145 145 0
4.835472 0.879177 44.855952 145 145 145 0
4.943627 0.878867 44.840154 142 142 142 0
5.049614 0.878194 44.805802 143 143 143 0
5.161338 0.878526 44.822736 141 141 141 0
5.268431 0.878072 44.799583 143 143 143 0
5.368641 0.876513 44.720044 142 142 142 0
5.477852 0.876456 44.717155 142 142 142 0
5.588210 0.876582 44.723573 140 140 140 0
5.692958 0.875840 44.685698 127 127 127 0
5.814698 0.877690 44.780113 99 99 99 0
5.930166 0.878543 44.823628 98 98 98 0
6.071456 0.883121 45.057190 113 113 113 0
6.197009 0.885287 45.167707 121 121 121 0
6.324394 0.887634 45.287464 109 109 109 0
6.385995 0.880827 44.940148 89 89 89 0
6.551093 0.888284 45.320602 98 98 98 0
6.727353 0.896980 45.764306 101 101 101 0
6.886369 0.903130 46.078082 110 110 110 0
7.020448 0.905864 46.217564 124 124 124 0
7.141170 0.906815 46.266085 118 118 118 0
7.293875 0.911734 46.517060 84 84 84 0
9.903207 1.056342 53.895007 83 83 83 0
10.084312 1.061507 54.158499 81 81 81 0
10.269325 1.066943 54.435862 80 80 80 0
10.472946 1.074148 54.803484 82 82 82 0
10.645357 1.078011 55.000554 85 85 85 0
-8.182694 0.920553 41.748439 144 144 144 0
-8.082569 0.920799 41.759590 143 143 143 0
-7.986440 0.921512 41.791940 147 147 147 0
-7.880263 0.921070 41.771871 148 148 148 0
-7.781026 0.921437 41.788537 145 145 145 0
-7.686580 0.922390 41.831725 144 144 144 0
-7.584999 0.922500 41.836730 139 139 139 0
-7.483147 0.922580 41.840354 136 136 136 0
-7.386976 0.923372 41.876280 140 140 140 0
-7.287090 0.923716 41.891865 140 140 140 0
-7.187909 0.924160 41.912007 135 135 135 0
-7.094116 0.925319 41.964600 140 140 140 0
-7.008967 0.927657 42.070633 141 141 141 0
-6.922998 0.929955 42.174827 162 162 162 0
-6.820879 0.930120 42.182309 150 150 150 0
-6.704949 0.928377 42.103288 146 146 146 0
-6.588023 0.926441 42.015456 141 141 141 0
-6.483457 0.926208 42.004905 142 142 142 0
-6.378042 0.925845 41.988424 137 137 137 0
-6.273722 0.925631 41.978735 137 137 137 0
-6.172316 0.925847 41.988541 137 137 137 0
-6.070783 0.926052 41.997809 136 136 136 0
-5.975857 0.927288 42.053887 135 135 135 0
-5.875679 0.927739 42.074318 137 137 137 0
-5.772262 0.927685 42.071878 133 133 133 0
-5.678988 0.929289 42.144626 135 135 135 0
-5.579997 0.929999 42.176846 134 134 134 0
-5.483098 0.931092 42.226399 137 137 137 0
-5.384381 0.931912 42.263591 141 141 141 0
-5.281490 0.932028 42.268829 138 138 138 0
-5.184482 0.933207 42.322299 135 135 135 0
-5.091498 0.935173 42.411477 132 132 132 0
-4.988666 0.935375 42.420627 129 129 129 0
-4.874838 0.933480 42.334680 130 130 130 0
-4.773150 0.933877 42.352705 131 131 131 0
-4.695196 0.939039 42.586810 139 139 139 0
-4.609473 0.942847 42.759491 149 149 149 0
-4.504921 0.942890 42.761467 152 152 152 0
-4.399281 0.942703 42.752971 153 153 153 0
-4.271694 0.937689 42.525576 150 150 150 0
-4.157372 0.935409 42.422164 150 150 150 0
-4.052406 0.935171 42.411371 151 151 151 0
-3.935370 0.932061 42.270355 150 150 150 0
-3.824742 0.930343 42.192407 145 145 145 0
-3.713714 0.928428 42.105598 146 146 146 0
-3.605065 0.927017 42.041569 146 146 146 0
-3.491931 0.924335 41.919944 147 147 147 0
-3.380090 0.921843 41.806924 145 145 145 0
-3.275879 0.921341 41.784169 145 145 145 0
-3.164258 0.918656 41.662389 144 144 144 0
-3.062278 0.918683 41.663640 142 142 142 0
-2.961337 0.919036 41.679617 140 140 140 0
-2.855961 0.917988 41.632087 135 135 135 0
-2.756372 0.918791 41.668514 128 128 128 0
-2.658544 0.920265 41.735387 122 122 122 0
-2.558323 0.920996 41.768541 116 116 116 0
-2.458436 0.921914 41.810143 116 116 116 0
-2.364248 0.925141 41.956487 116 116 116 0
-2.264229 0.926276 42.007965 114 114 114 0
-2.163981 0.927420 42.059882 118 118 118 0
-2.067265 0.930269 42.189088 132 132 132 0
-1.963191 0.929933 42.173823 141 141 141 0
-1.861617 0.930808 42.213534 139 139 139 0
-1.761143 0.932370 42.284346 135 135 135 0
-1.657773 0.932498 42.290137 130 130 130 0
-1.552459 0.931475 42.243785 126 126 126 0
-1.452369 0.933666 42.343131 124 124 124 0
-1.350122 0.934700 42.390018 125 125 125 0
-1.246180 0.934635 42.387061 130 130 130 0
-1.143455 0.935554 42.428770 128 128 128 0
-1.041191 0.937072 42.497575 127 127 127 0
-0.937407 0.937407 42.512771 129 129 129 0
-0.833396 0.937571 42.520209 127 127 127 0
-0.730289 0.938943 42.582456 128 128 128 0
-0.627072 0.940608 42.657943 121 121 121 0
-0.523127 0.941629 42.704280 111 111 111 0
-0.420159 0.945357 42.873354 92 92 92 0
-0.312901 0.938702 42.571521 77 77 77 0
-0.107080 0.963721 43.706158 101 101 101 0
0.000000 0.963032 43.674911 134 134 134 0
0.106621 0.959588 43.518710 142 142 142 0
0.213289 0.959800 43.528338 148 148 148 0
0.319986 0.959957 43.535447 147 147 147 0
0.425742 0.957920 43.443063 145 145 145 0
0.532375 0.958275 43.459185 147 147 147 0
0.639786 0.959678 43.522833 141 141 141 0
0.745309 0.958254 43.458253 131 131 131 0
0.851990 0.958488 43.468858 120 120 120 0
0.960383 0.960383 43.554777 117 117 117 0
1.066051 0.959446 43.512278 123 123 123 0
1.173189 0.959882 43.532061 122 122 122 0
1.288779 0.966584 43.836010 144 144 144 0
1.397055 0.967192 43.863580 142 142 142 0
1.501449 0.965217 43.774028 142 142 142 0
1.608105 0.964863 43.757965 141 141 141 0
1.716840 0.965723 43.796945 141 141 141 0
1.822332 0.964764 43.753474 137 137 137 0
1.929940 0.964970 43.762806 137 137 137 0
2.039269 0.965969 43.808136 136 136 136 0
2.147823 0.966520 43.833120 133 133 133 0
2.255811 0.966776 43.844722 132 132 132 0
2.365330 0.967635 43.883668 130 130 130 0
2.475331 0.968608 43.927786 132 132 132 0
2.581046 0.967892 43.895336 133 133 133 0
2.690616 0.968622 43.928432 126 126 126 0
2.450765 0.848342 38.473551 116 116 116 0
2.554072 0.851357 38.610313 107 107 107 0
2.662064 0.855664 38.805601 102 102 102 0
2.739106 0.850067 38.551805 104 104 104 0
2.847130 0.854139 38.736458 110 110 110 0
3.364479 0.976784 44.298602 110 110 110 0
3.529862 0.992774 45.023754 140 140 140 0
3.665845 0.999776 45.341317 147 147 147 0
3.768354 0.997506 45.238348 147 147 147 0
3.887784 0.999716 45.338584 152 152 152 0
3.998224 0.999556 45.331332 150 150 150 0
4.099086 0.997075 45.218821 148 148 148 0
4.206607 0.996302 45.183751 147 147 147 0
4.301829 0.992730 45.021758 144 144 144 0
4.413885 0.993124 45.039645 149 149 149 0
4.516085 0.991336 44.958537 150 150 150 0
4.627732 0.991657 44.973098 147 147 147 0
4.728296 0.989643 44.881781 144 144 144 0
4.836946 0.989375 44.869629 144 144 144 0
4.941812 0.988362 44.823692 142 142 142 0
5.043848 0.986840 44.754638 143 143 143 0
5.159984 0.988082 44.810981 140 140 140 0
5.256045 0.985508 44.694260 138 138 138 0
5.370199 0.986363 44.733022 142 142 142 0
5.475707 0.985627 44.699649 139 139 139 0
5.588120 0.986139 44.722849 137 137 137 0
5.697483 0.986103 44.721215 120 120 120 0
5.821525 0.988561 44.832695 95 95 95 0
5.934690 0.989115 44.857820 104 104 104 0
6.077752 0.994541 45.103909 118 118 118 0
6.191764 0.995105 45.129477 121 121 121 0
6.311333 0.996526 45.193936 112 112 112 0
6.432731 0.998182 45.269040 87 87 87 0
6.548217 0.998881 45.300706 87 87 87 0
6.697288 1.004593 45.559782 95 95 95 0
6.880354 1.015134 46.037832 107 107 107 0
7.010566 1.017663 46.152505 117 117 117 0
7.144679 1.020668 46.288821 113 113 113 0
7.299636 1.026511 46.553802 79 79 79 0
10.208886 1.208947 54.827528 82 82 82 0
8.550933 0.999460 45.326971 83 83 83 0
10.511239 1.212835 55.003868 84 84 84 0
10.646131 1.212850 55.004554 89 89 89 0
-8.176791 1.022099 41.718319 145 145 145 0
-8.075695 1.022240 41.724079 143 143 143 0
-7.981918 1.023323 41.768279 145 145 145 0
-7.876397 1.022909 41.751375 148 148 148 0
-7.777897 1.023407 41.771732 142 142 142 0
-7.683481 1.024464 41.814865 140 140 140 0
-7.585832 1.025112 41.841325 137 137 137 0
-7.484480 1.025271 41.847807 140 140 140 0
-7.390132 1.026407 41.894171 139 139 139 0
-7.288490 1.026548 41.899912 135 135 135 0
-7.187853 1.026836 41.911678 133 133 133 0
-7.113405 1.030928 42.078704 143 143 143 0
-7.019498 1.032279 42.133840 157 157 157 0
-6.922133 1.033154 42.169559 148 148 148 0
-6.807856 1.031493 42.101766 145 145 145 0
-6.680119 1.027711 41.947369 140 140 140 0
-6.573069 1.027042 41.920083 141 141 141 0
-6.465904 1.026334 41.891181 136 136 136 0
-6.370644 1.027523 41.939721 138 138 138 0
-6.262844 1.026696 41.905949 138 138 138 0
-6.163065 1.027178 41.925614 136 136 136 0
-6.060230 1.027158 41.924799 134 134 134 0
-5.965939 1.028610 41.984085 132 132 132 0
-5.864530 1.028865 41.994487 135 135 135 0
-5.765424 1.029540 42.022040 132 132 132 0
-5.669472 1.030813 42.074002 134 134 134 0
-5.570251 1.031528 42.103181 133 133 133 0
-5.480482 1.034053 42.206251 139 139 139 0
-5.380768 1.034763 42.235228 138 138 138 0
-5.274119 1.034141 42.209836 139 139 139 0
-5.179565 1.035913 42.282163 134 134 134 0
-5.076900 1.036102 42.289880 133 133 133 0
-4.983114 1.038149 42.373417 134 134 134 0
-4.856306 1.033257 42.173742 128 128 128 0
-4.771366 1.037253 42.336876 134 134 134 0
-4.700902 1.044645 42.638571 143 143 143 0
-4.600506 1.045570 42.676310 150 150 150 0
-4.496745 1.045755 42.683859 149 149 149 0
-4.388431 1.044865 42.647532 148 148 148 0
-4.261669 1.039431 42.425772 149 149 149 0
-4.155796 1.038949 42.406085 150 150 150 0
-4.044939 1.037164 42.333217 154 154 154 0
-3.940791 1.037050 42.328586 151 151 151 0
-3.831469 1.035532 42.266620 147 147 147 0
-3.720057 1.033349 42.177518 150 150 150 0
-3.604174 1.029764 42.031179 148 148 148 0
-3.488856 1.026134 41.883026 146 146 146 0
-3.381728 1.024766 41.827191 145 145 145 0
-3.272712 1.022722 41.743769 147 147 147 0
-3.163169 1.020377 41.648051 145 145 145 0
-3.059929 1.019976 41.631691 143 143 143 0
-2.957844 1.019946 41.630457 139 139 139 0
-2.851706 1.018467 41.570062 137 137 137 0
-2.753957 1.019984 41.631998 128 128 128 0
-2.656337 1.021668 41.700735 120 120 120 0
-2.555006 1.022002 41.714384 116 116 116 0
-2.458653 1.024439 41.813820 114 114 114 0
-2.363590 1.027648 41.944814 117 117 117 0
-2.261719 1.028054 41.961384 115 115 115 0
-2.161739 1.029400 42.016311 116 116 116 0
-2.065623 1.032811 42.155566 126 126 126 0
-1.962422 1.032854 42.157301 137 137 137 0
-1.860867 1.033815 42.196538 138 138 138 0
-1.758661 1.034506 42.224753 138 138 138 0
-1.656012 1.035008 42.245206 133 133 133 0
-1.550873 1.033915 42.200624 131 131 131 0
-1.450468 1.036049 42.287705 131 131 131 0
-1.347508 1.036545 42.307950 128 128 128 0
-1.243623 1.036353 42.300103 130 130 130 0
-1.142292 1.038447 42.385605 129 129 129 0
-1.038216 1.038216 42.376154 128 128 128 0
-0.936288 1.040320 42.462049 126 126 126 0
-0.832710 1.040888 42.485224 122 122 122 0
-0.730482 1.043546 42.593708 119 119 119 0
-0.627367 1.045611 42.678000 115 115 115 0
-0.469325 0.938649 38.312212 104 104 104 0
-0.370093 0.925233 37.764618 87 87 87 0
-0.107215 1.072151 43.761280 95 95 95 0
0.000000 1.069960 43.671848 128 128 128 0
0.106580 1.065799 43.502010 141 141 141 0
0.213221 1.066103 43.514393 145 145 145 0
0.319892 1.066307 43.522741 147 147 147 0
0.425673 1.064181 43.435971 148 148 148 0
0.532425 1.064851 43.463298 146 146 146 0
0.639327 1.065545 43.491628 143 143 143 0
0.744644 1.063777 43.419478 134 134 134 0
0.851462 1.064327 43.441931 121 121 121 0
0.959342 1.065936 43.507582 120 120 120 0
1.067139 1.067139 43.556682 122 122 122 0
1.172341 1.065765 43.500603 124 124 124 0
1.286576 1.072146 43.761081 142 142 142 0
1.393973 1.072287 43.766799 143 143 143 0
1.500318 1.071655 43.741039 140 140 140 0
1.608262 1.072175 43.762228 141 141 141 0
1.717631 1.073519 43.817106 139 139 139 0
1.820399 1.070823 43.707066 137 137 137 0
1.927356 1.070753 43.704208 136 136 136 0
2.038141 1.072706 43.783915 134 134 134 0
2.143716 1.071858 43.749310 134 134 134 0
2.252261 1.072505 43.775721 131 131 131 0
2.361532 1.073423 43.813201 127 127 127 0
2.470008 1.073917 43.833332 131 131 131 0
2.578337 1.074307 43.849264 128 128 128 0
2.687285 1.074914 43.874048 123 123 123 0
2.799122 1.076585 43.942259 117 117 117 0
2.547470 0.943507 38.510504 107 107 107 0
2.661599 0.950571 38.798818 103 103 103 0
2.738111 0.944176 38.537807 105 105 105 0
2.860051 0.953350 38.912259 109 109 109 0
2.922946 0.942886 38.485140 109 109 109 0
3.062091 0.956903 39.057280 130 130 130 0
3.664547 1.110469 45.325251 150 150 150 0
3.767686 1.108143 45.230321 146 146 146 0
3.887737 1.110782 45.338039 146 146 146 0
3.994739 1.109650 45.291822 148 148 148 0
4.096830 1.107251 45.193931 144 144 144 0
4.198623 1.104901 45.097989 147 147 147 0
4.304191 1.103639 45.046481 146 146 146 0
4.410087 1.102522 45.000888 148 148 148 0
4.519482 1.102313 44.992359 149 149 149 0
4.624032 1.100960 44.937145 146 146 146 0
4.721527 1.098030 44.817536 144 144 144 0
4.835473 1.098971 44.855964 143 143 143 0
4.933821 1.096405 44.751214 140 140 140 0
5.038522 1.095331 44.707385 140 140 140 0
5.151718 1.096110 44.739189 140 140 140 0
5.251229 1.094006 44.653311 141 141 141 0
5.354165 1.092687 44.599462 140 140 140 0
5.471799 1.094360 44.667748 140 140 140 0
5.580353 1.094187 44.660691 134 134 134 0
5.686759 1.093608 44.637042 117 117 117 0
4.941021 0.932268 38.051761 96 96 96 0
5.942319 1.100430 44.915491 109 109 109 0
6.069850 1.103609 45.045267 122 122 122 0
6.193892 1.106052 45.144989 119 119 119 0
6.307633 1.106602 45.167442 111 111 111 0
6.435322 1.109538 45.287276 89 89 89 0
6.538808 1.108273 45.235616 85 85 85 0
6.707455 1.117909 45.628943 95 95 95 0
6.862084 1.124932 45.915581 103 103 103 0
6.993341 1.127958 46.039109 112 112 112 0
7.141925 1.133639 46.270974 108 108 108 0
10.239852 1.347349 54.993835 81 81 81 0
10.374043 1.347278 54.990952 87 87 87 0
10.511482 1.347626 55.005139 93 93 93 0
10.646555 1.347665 55.006743 91 91 91 0
-8.170174 1.123399 41.684564 144 144 144 0
-8.070473 1.123737 41.697096 143 143 143 0
-7.981463 1.125591 41.765899 144 144 144 0
-7.873200 1.124743 41.734430 142 142 142 0
-7.778151 1.125785 41.773098 139 139 139 0
-7.680609 1.126489 41.799234 142 142 142 0
-7.582851 1.127181 41.824884 137 137 137 0
-7.487235 1.128214 41.863210 140 140 140 0
-7.387212 1.128602 41.877618 134 134 134 0
-7.285686 1.128768 41.883795 134 134 134 0
-7.200773 1.131550 41.987014 137 137 137 0
-7.119925 1.135060 42.117272 148 148 148 0
-7.012183 1.134324 42.089932 146 146 146 0
-6.894036 1.131857 41.998394 144 144 144 0
-6.774590 1.129098 41.896044 140 140 140 0
-6.668870 1.128578 41.876735 141 141 141 0
-6.561662 1.127786 41.847334 140 140 140 0
-6.451057 1.126375 41.794991 139 139 139 0
-6.353176 1.127176 41.824726 136 136 136 0
-6.250453 1.127131 41.823041 137 137 137 0
-6.152647 1.127985 41.854743 134 134 134 0
-6.054131 1.128736 41.882610 136 136 136 0
-5.955393 1.129471 41.909874 131 131 131 0
-5.848761 1.128708 41.881567 128 128 128 0
-5.752022 1.129862 41.924361 130 130 130 0
-5.653195 1.130639 41.953209 131 131 131 0
-5.566838 1.133986 42.077385 131 131 131 0
-5.474456 1.136208 42.159846 134 134 134 0
-5.374957 1.137010 42.189616 142 142 142 0
-5.263081 1.135174 42.121496 138 138 138 0
-5.175602 1.138632 42.249814 137 137 137 0
-5.078500 1.140071 42.303206 132 132 132 0
-4.972085 1.139436 42.279634 126 126 126 0
-4.860985 1.137677 42.214371 126 126 126 0
-4.764990 1.139454 42.280304 134 134 134 0
-4.698815 1.148599 42.619633 146 146 146 0
-4.597180 1.149295 42.645456 152 152 152 0
-4.487165 1.147879 42.592925 151 151 151 0
-4.377475 1.146481 42.541055 147 147 147 0
-4.258604 1.142552 42.395261 149 149 149 0
-4.151190 1.141577 42.359085 148 148 148 0
-4.044520 1.140762 42.328834 154 154 154 0
-3.936166 1.139417 42.278908 149 149 149 0
-3.833496 1.139688 42.288981 150 150 150 0
-3.718140 1.136098 42.155785 145 145 145 0
-3.605986 1.133310 42.052309 146 146 146 0
-3.488017 1.128476 41.872955 147 147 147 0
-3.376892 1.125631 41.767375 145 145 145 0
-3.270501 1.124235 41.715577 145 145 145 0
-3.157151 1.120279 41.568807 148 148 148 0
-3.056775 1.120817 41.588770 145 145 145 0
-2.956101 1.121280 41.605932 139 139 139 0
-2.849243 1.119346 41.534158 135 135 135 0
-2.751090 1.120815 41.588669 129 129 129 0
-2.654257 1.122955 41.668086 120 120 120 0
-2.554839 1.124129 41.711652 117 117 117 0
-2.453253 1.124408 41.721988 116 116 116 0
-2.357786 1.127637 41.841818 118 118 118 0
-2.258783 1.129392 41.906921 114 114 114 0
-2.159240 1.131030 41.967729 117 117 117 0
-2.062714 1.134493 42.096202 126 126 126 0
-1.959976 1.134723 42.104753 131 131 131 0
-1.859511 1.136368 42.165778 136 136 136 0
-1.757321 1.137090 42.192573 136 136 136 0
-1.654044 1.137155 42.195004 136 136 136 0
-1.551017 1.137413 42.204549 135 135 135 0
-1.448997 1.138498 42.244818 132 132 132 0
-1.346817 1.139615 42.286257 131 131 131 0
-1.242637 1.139084 42.266568 129 129 129 0
-1.141137 1.141137 42.342743 127 127 127 0
-1.039202 1.143122 42.416416 125 125 125 0
-0.935722 1.143661 42.436384 123 123 123 0
-0.832159 1.144219 42.457091 116 116 116 0
-0.730362 1.147712 42.586703 112 112 112 0
-0.628405 1.152077 42.748667 108 108 108 0
-0.469281 1.032418 38.308636 97 97 97 0
-0.369742 1.016790 37.728746 79 79 79 0
-0.107387 1.181255 43.831357 84 84 84 0
0.000000 1.177587 43.695237 123 123 123 0
0.106630 1.172929 43.522401 138 138 138 0
0.213245 1.172849 43.519426 146 146 146 0
0.319934 1.173090 43.528403 148 148 148 0
0.425470 1.170042 43.415304 148 148 148 0
0.531995 1.170390 43.428189 145 145 145 0
0.639005 1.171509 43.469712 146 146 146 0
0.743966 1.169089 43.379929 138 138 138 0
0.851470 1.170771 43.442344 124 124 124 0
0.958292 1.171246 43.459947 119 119 119 0
1.065311 1.171842 43.482078 120 120 120 0
1.172853 1.172853 43.519583 121 121 121 0
1.286066 1.178894 43.743754 138 138 138 0
1.394129 1.179648 43.771722 139 139 139 0
1.499170 1.177919 43.707585 140 140 140 0
1.606853 1.178359 43.723884 138 138 138 0
1.715008 1.179068 43.750212 139 139 139 0
1.819177 1.177115 43.677726 137 137 137 0
1.925135 1.176471 43.653856 133 133 133 0
2.035982 1.178726 43.737526 130 130 130 0
2.138767 1.176322 43.648304 128 128 128 0
2.246856 1.176924 43.670665 130 130 130 0
2.357334 1.178667 43.735315 132 132 132 0
2.467395 1.180059 43.786964 129 129 129 0
2.572297 1.178970 43.746550 126 126 126 0
2.681958 1.180062 43.787069 122 122 122 0
2.796569 1.183164 43.902177 115 115 115 0
2.546753 1.037566 38.499660 109 109 109 0
2.641073 1.037564 38.499606 104 104 104 0
2.752427 1.044024 38.739299 101 101 101 0
2.869385 1.052108 39.039248 110 110 110 0
2.910380 1.032715 38.319678 111 111 111 0
3.057552 1.051033 38.999383 116 116 116 0
3.655861 1.218620 45.217820 147 147 147 0
3.765821 1.218354 45.207935 146 146 146 0
3.879600 1.219303 45.243150 148 148 148 0
3.991205 1.219535 45.251762 144 144 144 0
4.096211 1.217792 45.187101 151 151 151 0
4.188569 1.212480 44.989998 148 148 148 0
4.296611 1.211865 44.967148 146 146 146 0
4.404888 1.211344 44.947836 145 145 145 0
4.513446 1.210924 44.932260 149 149 149 0
4.624004 1.211049 44.936873 145 145 145 0
4.728362 1.209581 44.882410 141 141 141 0
4.826768 1.206692 44.775217 144 144 144 0
4.930780 1.205302 44.723628 145 145 145 0
5.037513 1.204623 44.698428 143 143 143 0
5.150440 1.205422 44.728093 143 143 143 0
5.250165 1.203163 44.644258 140 140 140 0
5.349576 1.200925 44.561232 141 141 141 0
5.463646 1.202002 44.601194 139 139 139 0
5.577326 1.202953 44.636462 132 132 132 0
5.684626 1.202517 44.620299 116 116 116 0
5.807806 1.205394 44.727043 96 96 96 0
5.936420 1.209271 44.870901 104 104 104 0
6.061362 1.212272 44.982277 118 118 118 0
6.184990 1.214909 45.080101 119 119 119 0
6.302634 1.216298 45.131642 110 110 110 0
6.427088 1.218931 45.229332 87 87 87 0
6.537889 1.218928 45.229256 84 84 84 0
6.705524 1.229346 45.615812 92 92 92 0
6.849019 1.235069 45.828165 106 106 106 0
6.975485 1.237586 45.921558 108 108 108 0
7.134208 1.245655 46.220978 101 101 101 0
10.372344 1.481763 54.981944 94 94 94 0
10.511875 1.482444 55.007197 92 92 92 0
-8.165247 1.224787 41.659424 150 150 150 0
-8.073292 1.226323 41.711664 145 145 145 0
-7.977949 1.227377 41.747509 142 142 142 0
-7.873266 1.227003 41.734779 141 141 141 0
-7.775524 1.227714 41.758992 140 140 140 0
-7.679849 1.228776 41.795097 140 140 140 0
-7.583959 1.229831 41.830990 141 141 141 0
-7.480398 1.229654 41.824981 141 141 141 0
-7.383490 1.230582 41.856517 134 134 134 0
-7.291815 1.232419 41.919030 136 136 136 0
-7.207040 1.235493 42.023559 147 147 147 0
-7.108927 1.236335 42.052214 143 143 143 0
-6.988481 1.233261 41.947667 147 147 147 0
-6.876096 1.231540 41.889103 143 143 143 0
-6.754477 1.228087 41.771659 139 139 139 0
-6.650281 1.227744 41.760004 141 141 141 0
-6.535362 1.225380 41.679605 139 139 139 0
-6.439919 1.226651 41.722828 133 133 133 0
-6.345878 1.228234 41.776682 137 137 137 0
-6.238436 1.227233 41.742629 135 135 135 0
-6.147834 1.229567 41.822003 133 133 133 0
-6.043178 1.229121 41.806833 135 135 135 0
-5.944396 1.229875 41.832488 134 134 134 0
-5.848796 1.231326 41.881820 134 134 134 0
-5.748240 1.231766 41.896791 130 130 130 0
-5.652904 1.233361 41.951049 131 131 131 0
-5.553717 1.234159 41.978209 127 127 127 0
-5.467377 1.237897 42.105330 134 134 134 0
-5.360680 1.237080 42.077553 139 139 139 0
-5.261544 1.238010 42.109192 139 139 139 0
-5.165683 1.239764 42.168840 134 134 134 0
-5.065032 1.240416 42.191016 133 133 133 0
-4.959675 1.239919 42.174107 128 128 128 0
-4.850293 1.238373 42.121524 123 123 123 0
-4.768724 1.244015 42.313438 132 132 132 0
-4.697761 1.252736 42.610074 149 149 149 0
-4.588335 1.251364 42.563402 148 148 148 0
-4.483231 1.251134 42.555590 146 146 146 0
-4.368892 1.248255 42.457649 145 145 145 0
-4.249221 1.243674 42.301851 147 147 147 0
-4.147126 1.244138 42.317617 150 150 150 0
-4.041689 1.243597 42.299204 152 152 152 0
-3.930314 1.241152 42.216048 152 152 152 0
-3.836168 1.244163 42.318460 151 151 151 0
-3.723177 1.241059 42.212896 148 148 148 0
-3.606495 1.236513 42.058255 147 147 147 0
-3.492275 1.232568 41.924068 146 146 146 0
-3.377252 1.228092 41.771822 144 144 144 0
-3.271685 1.226882 41.730672 144 144 144 0
-3.155252 1.221388 41.543805 145 145 145 0
-3.055406 1.222162 41.570145 147 147 147 0
-2.953187 1.222008 41.564909 144 144 144 0
-2.846939 1.220117 41.500565 137 137 137 0
-2.748901 1.221734 41.555569 129 129 129 0
-2.652077 1.224036 41.633864 121 121 121 0
-2.550067 1.224032 41.633751 118 118 118 0
-2.450972 1.225486 41.683190 116 116 116 0
-2.357057 1.229769 41.828875 116 116 116 0
-2.257831 1.231544 41.889249 113 113 113 0
-2.157736 1.232992 41.938500 116 116 116 0
-2.059663 1.235798 42.033929 121 121 121 0
-1.958577 1.236996 42.074694 128 128 128 0
-1.857744 1.238496 42.125719 133 133 133 0
-1.757841 1.240829 42.205060 137 137 137 0
-1.653263 1.239947 42.175079 137 137 137 0
-1.548866 1.239093 42.146006 137 137 137 0
-1.447765 1.240942 42.208900 136 136 136 0
-1.345616 1.242107 42.248548 132 132 132 0
-1.241368 1.241368 42.223400 128 128 128 0
-1.139362 1.242940 42.276879 128 128 128 0
-1.038270 1.245924 42.378368 125 125 125 0
-0.935393 1.247191 42.421463 119 119 119 0
-0.832363 1.248545 42.467507 112 112 112 0
-0.730258 1.251870 42.580623 107 107 107 0
-0.627894 1.255787 42.713855 99 99 99 0
-0.471343 1.131224 38.477014 88 88 88 0
0.000000 1.286872 43.771165 117 117 117 0
0.106667 1.280000 43.537400 133 133 133 0
0.213205 1.279232 43.511285 144 144 144 0
0.319669 1.278677 43.492419 147 147 147 0
0.425269 1.275808 43.394822 149 149 149 0
0.531585 1.275804 43.394711 146 146 146 0
0.638354 1.276709 43.425474 145 145 145 0
0.743606 1.274753 43.358940 143 143 143 0
0.850343 1.275514 43.384834 133 133 133 0
0.958406 1.277875 43.465119 119 119 119 0
1.063825 1.276590 43.421428 113 113 113 0
1.170870 1.277313 43.446030 123 123 123 0
1.283978 1.283978 43.672724 132 132 132 0
1.392522 1.285405 43.721251 138 138 138 0
1.497638 1.283689 43.662905 137 137 137 0
1.605224 1.284179 43.679565 138 138 138 0
1.714465 1.285848 43.736340 139 139 139 0
1.816180 1.282009 43.605752 135 135 135 0
1.923894 1.282596 43.625717 134 134 134 0
2.032571 1.283729 43.664262 132 132 132 0
2.135566 1.281340 43.582978 135 135 135 0
2.242938 1.281679 43.594520 128 128 128 0
2.353672 1.283821 43.667388 130 130 130 0
2.458695 1.282798 43.632573 126 126 126 0
2.565441 1.282720 43.629943 123 123 123 0
2.345084 1.125640 38.287082 121 121 121 0
2.440494 1.126382 38.312300 112 112 112 0
2.545604 1.131379 38.482293 105 105 105 0
2.641385 1.132022 38.504159 99 99 99 0
2.743573 1.135272 38.614687 100 100 100 0
2.852263 1.140905 38.806304 113 113 113 0
2.906262 1.125005 38.265465 114 114 114 0
3.479116 1.304669 44.376484 112 112 112 0
3.641824 1.324300 45.044208 137 137 137 0
3.766670 1.329413 45.218125 145 145 145 0
3.874551 1.328417 45.184263 137 137 137 0
3.988149 1.329383 45.217105 142 142 142 0
4.086634 1.325395 45.081461 144 144 144 0
4.189379 1.322962 44.998697 142 142 142 0
4.296357 1.321956 44.964492 145 145 145 0
4.403934 1.321180 44.938099 146 146 146 0
4.512491 1.320729 44.922760 144 144 144 0
4.616697 1.319056 44.865861 143 143 143 0
4.722480 1.317901 44.826577 142 142 142 0
4.829897 1.317245 44.804238 144 144 144 0
4.930753 1.314867 44.723382 145 145 145 0
5.035025 1.313485 44.676350 144 144 144 0
5.144672 1.313533 44.678005 144 144 144 0
5.241896 1.310474 44.573947 143 143 143 0
5.352036 1.310703 44.581723 143 143 143 0
5.463985 1.311356 44.603961 139 139 139 0
5.574978 1.311760 44.617673 134 134 134 0
5.683599 1.311600 44.612240 116 116 116 0
5.813532 1.316272 44.771140 101 101 101 0
5.920248 1.315611 44.748665 103 103 103 0
6.055863 1.321279 44.941471 114 114 114 0
6.174313 1.323067 45.002278 118 118 118 0
6.294493 1.325156 45.073347 111 111 111 0
6.406306 1.325443 45.083084 85 85 85 0
6.559725 1.334181 45.380316 82 82 82 0
6.714551 1.342910 45.677219 95 95 95 0
6.859501 1.349410 45.898298 106 106 106 0
6.982753 1.351501 45.969410 107 107 107 0
7.127122 1.357547 46.175069 94 94 94 0
10.372133 1.616436 54.980829 88 88 88 0
-8.164589 1.326746 41.656068 152 152 152 0
-8.069215 1.327846 41.690599 147 147 147 0
-7.977734 1.329622 41.746384 140 140 140 0
-7.867158 1.328221 41.702400 140 140 140 0
-7.777897 1.330430 41.771732 139 139 139 0
-7.680629 1.331309 41.799343 140 140 140 0
-7.585588 1.332603 41.839978 142 142 142 0
-7.480140 1.332080 41.823540 145 145 145 0
-7.380831 1.332650 41.841448 134 134 134 0
-7.291929 1.335142 41.919682 135 135 135 0
-7.194441 1.336110 41.950093 142 142 142 0
-7.081670 1.334228 41.890981 144 144 144 0
-6.968873 1.332285 41.829972 143 143 143 0
-6.852610 1.329611 41.746025 142 142 142 0
-6.745731 1.328705 41.717572 142 142 142 0
-6.641745 1.328349 41.706402 137 137 137 0
-6.524705 1.325331 41.611636 137 137 137 0
-6.427006 1.326208 41.639171 135 135 135 0
-6.334444 1.328190 41.701410 133 133 133 0
-6.228125 1.327305 41.673635 134 134 134 0
-6.131491 1.328490 41.710825 135 135 135 0
-6.036522 1.330081 41.760786 134 134 134 0
-5.937201 1.330752 41.781848 136 136 136 0
-5.840383 1.332017 41.821573 133 133 133 0
-5.737692 1.331964 41.819912 130 130 130 0
-5.647880 1.334954 41.913769 127 127 127 0
-5.547768 1.335574 41.933239 127 127 127 0
-5.452780 1.337474 41.992916 133 133 133 0
-5.357396 1.339349 42.051772 139 139 139 0
-5.254941 1.339495 42.056347 140 140 140 0
-5.161928 1.342101 42.138188 135 135 135 0
-5.067105 1.344334 42.208288 130 130 130 0
-4.957714 1.342714 42.157428 126 126 126 0
-4.848891 1.341183 42.109346 126 126 126 0
-4.769264 1.347836 42.318228 130 130 130 0
-4.693078 1.355778 42.567601 149 149 149 0
-4.580207 1.353243 42.488003 147 147 147 0
-4.479267 1.354197 42.517956 149 149 149 0
-4.359743 1.349444 42.368736 145 145 145 0
-4.243304 1.345438 42.242943 144 144 144 0
-4.140035 1.345511 42.245253 146 146 146 0
-4.033605 1.344535 42.214605 149 149 149 0
-3.929185 1.344195 42.203923 152 152 152 0
-3.834348 1.347203 42.298376 150 150 150 0
-3.724876 1.345094 42.232151 149 149 149 0
-3.608956 1.340469 42.086951 145 145 145 0
-3.493362 1.335697 41.937118 145 145 145 0
-3.379969 1.331503 41.805427 146 146 146 0
-3.267744 1.327521 41.680412 143 143 143 0
-3.154400 1.322813 41.532586 146 146 146 0
-3.055840 1.324198 41.576061 149 149 149 0
-2.952420 1.323498 41.554111 147 147 147 0
-2.845442 1.321098 41.478750 140 140 140 0
-2.747605 1.322921 41.535972 131 131 131 0
-2.650502 1.325251 41.609130 124 124 124 0
-2.548958 1.325458 41.615637 118 118 118 0
-2.450359 1.327278 41.672770 116 116 116 0
-2.355548 1.331397 41.802097 118 118 118 0
-2.254915 1.332450 41.835151 114 114 114 0
-2.156839 1.335186 41.921072 115 115 115 0
-2.057573 1.337423 41.991290 121 121 121 0
-1.956918 1.338944 42.039062 126 126 126 0
-1.856314 1.340671 42.093283 130 130 130 0
-1.755722 1.342611 42.154184 135 135 135 0
-1.652943 1.343016 42.166905 139 139 139 0
-1.549700 1.343073 42.168703 139 139 139 0
-1.447379 1.343995 42.197639 139 139 139 0
-1.344314 1.344314 42.207649 134 134 134 0
-1.240618 1.344003 42.197907 129 129 129 0
-1.139455 1.346629 42.280348 129 129 129 0
-1.037624 1.348911 42.351994 121 121 121 0
-0.934905 1.350419 42.399325 115 115 115 0
-0.832082 1.352132 42.453139 107 107 107 0
-0.732604 1.360550 42.717435 102 102 102 0
-0.629070 1.362985 42.793864 91 91 91 0
-0.505715 1.314859 41.282871 77 77 77 0
0.000000 1.398408 43.906057 114 114 114 0
0.106724 1.387412 43.560805 128 128 128 0
0.213113 1.385235 43.492456 142 142 142 0
0.319509 1.384540 43.470646 146 146 146 0
0.424825 1.380682 43.349511 147 147 147 0
0.531471 1.381824 43.385362 148 148 148 0
0.638336 1.383061 43.424218 147 147 147 0
0.743018 1.379890 43.324643 145 145 145 0
0.850125 1.381454 43.373737 140 140 140 0
0.957551 1.383129 43.426344 128 128 128 0
1.062368 1.381078 43.361946 115 115 115 0
1.170089 1.382832 43.417015 122 122 122 0
1.282430 1.389299 43.620052 132 132 132 0
1.391017 1.391017 43.674017 136 136 136 0
1.496240 1.389366 43.622166 139 139 139 0
1.603282 1.389511 43.626726 138 138 138 0
1.709001 1.388563 43.596961 136 136 136 0
1.812774 1.386239 43.523992 137 137 137 0
1.918299 1.385438 43.498848 134 134 134 0
2.026710 1.386696 43.538338 133 133 133 0
2.131661 1.385580 43.503293 131 131 131 0
2.239363 1.386272 43.525039 129 129 129 0
2.350338 1.388836 43.605520 128 128 128 0
2.453995 1.387041 43.549165 127 127 127 0
2.560560 1.386970 43.546943 124 124 124 0
2.668627 1.387686 43.569414 117 117 117 0
2.437862 1.218931 38.270991 114 114 114 0
2.540674 1.223287 38.407766 100 100 100 0
2.630183 1.221156 38.340858 98 98 98 0
2.748820 1.232229 38.688522 106 106 106 0
2.844319 1.232538 38.698216 110 110 110 0
2.946616 1.235678 38.796786 111 111 111 0
3.027200 1.229800 38.612250 109 109 109 0
3.635188 1.432044 44.962125 140 140 140 0
3.764124 1.439224 45.187567 143 143 143 0
3.865332 1.435695 45.076754 144 144 144 0
3.979036 1.436874 45.113790 144 144 144 0
4.085148 1.435322 45.065062 142 142 142 0
4.186062 1.432074 44.963068 142 142 142 0
4.294177 1.431392 44.941676 142 142 142 0
4.398523 1.429520 44.882889 146 146 146 0
4.507958 1.429353 44.877631 144 144 144 0
4.610701 1.427122 44.807594 142 142 142 0
4.719839 1.426928 44.801506 145 145 145 0
4.827818 1.426401 44.784955 145 145 145 0
4.926129 1.423104 44.681439 146 146 146 0
5.032005 1.422088 44.649558 147 147 147 0
5.142456 1.422382 44.658760 148 148 148 0
5.240782 1.419378 44.564471 148 148 148 0
5.348840 1.419080 44.555106 147 147 147 0
5.465186 1.420948 44.613766 143 143 143 0
5.569468 1.419668 44.573572 136 136 136 0
5.679551 1.419888 44.580464 124 124 124 0
5.799778 1.422587 44.665217 104 104 104 0
5.917069 1.424480 44.724633 104 104 104 0
6.041538 1.428000 44.835161 108 108 108 0
6.174946 1.433470 45.006897 114 114 114 0
6.293913 1.435454 45.069193 110 110 110 0
6.415491 1.437955 45.147722 83 83 83 0
6.551011 1.443443 45.320037 86 86 86 0
6.700011 1.451669 45.578305 100 100 100 0
6.844403 1.458643 45.797279 107 107 107 0
6.975267 1.462556 45.920127 106 106 106 0
7.098657 1.464802 45.990653 90 90 90 0
-8.164082 1.428714 41.653481 155 155 155 0
-8.069248 1.429993 41.690765 144 144 144 0
-7.978206 1.431986 41.748854 143 143 143 0
-7.863225 1.429677 41.681552 139 139 139 0
-7.776365 1.432488 41.763506 139 139 139 0
-7.677350 1.433105 41.781495 144 144 144 0
-7.581378 1.434315 41.816759 144 144 144 0
-7.477927 1.434123 41.811165 146 146 146 0
-7.382648 1.435515 41.851744 144 144 144 0
-7.284146 1.436310 41.874939 145 145 145 0
-7.170006 1.434001 41.807617 144 144 144 0
-7.067467 1.433979 41.806963 142 142 142 0
-6.947812 1.430432 41.703552 141 141 141 0
-6.830882 1.427349 41.613659 141 141 141 0
-6.731677 1.427931 41.630655 144 144 144 0
-6.621144 1.426093 41.577044 137 137 137 0
-6.510926 1.424265 41.523762 134 134 134 0
-6.417631 1.426140 41.578431 133 133 133 0
-6.324386 1.428087 41.635191 133 133 133 0
-6.220435 1.427641 41.622183 130 130 130 0
-6.118162 1.427571 41.620152 132 132 132 0
-6.031327 1.431162 41.724849 133 133 133 0
-5.921635 1.429360 41.672306 135 135 135 0
-5.829110 1.431711 41.740853 131 131 131 0
-5.733859 1.433465 41.791978 129 129 129 0
-5.639173 1.435426 41.849153 128 128 128 0
-5.544064 1.437350 41.905245 124 124 124 0
-5.448038 1.439104 41.956395 131 131 131 0
-5.350653 1.440561 41.998849 138 138 138 0
-5.249857 1.441137 42.015662 139 139 139 0
-5.156599 1.443848 42.094689 135 135 135 0
-5.054798 1.444228 42.105773 129 129 129 0
-4.952298 1.444420 42.111380 125 125 125 0
-4.845200 1.443251 42.077286 126 126 126 0
-4.771985 1.452343 42.342371 130 130 130 0
-4.689196 1.458861 42.532392 150 150 150 0
-4.574608 1.455557 42.436063 149 149 149 0
-4.472083 1.456027 42.449763 146 146 146 0
-4.350668 1.450223 42.280542 143 143 143 0
-4.241911 1.448457 42.229077 147 147 147 0
-4.137134 1.447997 42.215652 143 143 143 0
-4.026195 1.445301 42.137044 145 145 145 0
-3.924903 1.446017 42.157922 148 148 148 0
-3.828797 1.448734 42.237140 151 151 151 0
-3.728664 1.450036 42.275106 150 150 150 0
-3.612494 1.444998 42.128214 146 146 146 0
-3.490159 1.437124 41.898662 148 148 148 0
-3.380686 1.434231 41.814301 147 147 147 0
-3.269769 1.430524 41.706240 145 145 145 0
-3.154693 1.424700 41.536450 145 145 145 0
-3.054194 1.425291 41.553661 147 147 147 0
-2.949189 1.423746 41.508636 146 146 146 0
-2.843168 1.421584 41.445592 141 141 141 0
-2.745603 1.423646 41.505713 133 133 133 0
-2.647772 1.425723 41.566275 126 126 126 0
-2.546813 1.426215 41.580614 121 121 121 0
-2.446494 1.427122 41.607043 117 117 117 0
-2.352891 1.432195 41.754946 113 113 113 0
-2.252158 1.433191 41.784000 111 111 111 0
-2.152465 1.434977 41.836063 113 113 113 0
-2.055322 1.438725 41.945346 117 117 117 0
-1.955573 1.440949 42.010163 122 122 122 0
-1.856164 1.443683 42.089890 128 128 128 0
-1.754132 1.444579 42.116007 136 136 136 0
-1.652737 1.446145 42.161669 140 140 140 0
-1.548835 1.445579 42.145159 141 141 141 0
-1.446909 1.446909 42.183943 140 140 140 0
-1.343629 1.446985 42.186160 137 137 137 0
-1.239564 1.446158 42.162050 131 131 131 0
-1.138794 1.449374 42.255801 125 125 125 0
-1.037042 1.451859 42.328247 117 117 117 0
-0.934620 1.453853 42.386387 108 108 108 0
-0.833367 1.458392 42.518713 100 100 100 0
-0.657313 1.314626 38.327297 89 89 89 0
-0.562895 1.313421 38.292161 80 80 80 0
0.000000 1.515971 44.197391 106 106 106 0
0.106927 1.496978 43.643679 120 120 120 0
0.213161 1.492126 43.502220 136 136 136 0
0.319153 1.489380 43.422159 146 146 146 0
0.424825 1.486888 43.349511 149 149 149 0
0.531465 1.488103 43.384915 150 150 150 0
0.638232 1.489207 43.417109 150 150 150 0
0.742958 1.485916 43.321157 148 148 148 0
0.850108 1.487689 43.372847 144 144 144 0
0.956604 1.488051 43.383400 136 136 136 0
1.062532 1.487545 43.368669 125 125 125 0
1.166624 1.484794 43.288465 115 115 115 0
1.279932 1.493254 43.535115 130 130 130 0
1.387423 1.494148 43.561157 136 136 136 0
1.492590 1.492590 43.515742 138 138 138 0
1.601623 1.494848 43.581571 137 137 137 0
1.706684 1.493349 43.537859 136 136 136 0
1.809825 1.490444 43.453185 136 136 136 0
1.916242 1.490411 43.452205 134 134 134 0
2.023527 1.491020 43.469966 135 135 135 0
2.127573 1.489301 43.419848 133 133 133 0
2.235468 1.490312 43.449332 132 132 132 0
2.343943 1.491600 43.486875 130 130 130 0
2.450769 1.491773 43.491916 125 125 125 0
2.554711 1.490248 43.447462 123 123 123 0
2.665847 1.492874 43.524035 114 114 114 0
2.436646 1.312040 38.251905 110 110 110 0
2.541891 1.318017 38.426166 98 98 98 0
2.632259 1.316130 38.371126 100 100 100 0
2.741083 1.323282 38.579641 107 107 107 0
2.850707 1.330330 38.785122 108 108 108 0
2.949006 1.331809 38.828262 108 108 108 0
3.002865 1.313754 38.301854 107 107 107 0
3.625669 1.538163 44.844391 130 130 130 0
3.758508 1.547621 45.120144 145 145 145 0
3.868971 1.547588 45.119198 140 140 140 0
3.979306 1.547508 45.116848 145 145 145 0
4.083043 1.544935 45.041846 143 143 143 0
4.184195 1.541545 44.943015 142 142 142 0
4.282558 1.537328 44.820072 145 145 145 0
4.392495 1.537373 44.821373 143 143 143 0
4.506872 1.538932 44.866821 144 144 144 0
4.608845 1.536282 44.789554 144 144 144 0
4.717483 1.535925 44.779142 144 144 144 0
4.829906 1.536788 44.804325 145 145 145 0
4.926717 1.532756 44.686773 146 146 146 0
5.027317 1.530053 44.607955 147 147 147 0
5.144158 1.532302 44.673540 149 149 149 0
5.242321 1.529010 44.577556 148 148 148 0
5.347114 1.527747 44.540725 149 149 149 0
5.460392 1.528910 44.574628 145 145 145 0
5.567517 1.528338 44.557960 138 138 138 0
5.671361 1.526905 44.516177 129 129 129 0
5.794620 1.530654 44.625493 109 109 109 0
5.914756 1.533455 44.707149 103 103 103 0
6.029191 1.534703 44.743535 107 107 107 0
6.169107 1.542277 44.964337 109 109 109 0
6.285444 1.543793 45.008551 105 105 105 0
6.398548 1.544477 45.028487 85 85 85 0
6.550732 1.554411 45.318107 84 84 84 0
6.703424 1.564132 45.601521 102 102 102 0
6.840392 1.569926 45.770440 107 107 107 0
6.963043 1.572300 45.839650 104 104 104 0
7.100348 1.577855 46.001604 80 80 80 0
-8.164664 1.530875 41.656451 151 151 151 0
-8.068417 1.531978 41.686474 147 147 147 0
-7.973866 1.533436 41.726145 142 142 142 0
-7.863214 1.531795 41.681493 143 143 143 0
-7.772258 1.533998 41.741450 143 143 143 0
-7.677793 1.535559 41.783910 145 145 145 0
-7.577486 1.535977 41.795289 144 144 144 0
-7.469086 1.534744 41.761736 147 147 147 0
-7.374762 1.536409 41.807041 145 145 145 0
-7.277624 1.537526 41.837449 145 145 145 0
-7.160351 1.534361 41.751316 143 143 143 0
-7.051987 1.533041 41.715393 146 146 146 0
-6.935775 1.529950 41.631305 142 142 142 0
-6.821974 1.527308 41.559391 142 142 142 0
-6.714570 1.526039 41.524864 141 141 141 0
-6.610270 1.525447 41.508760 138 138 138 0
-6.504558 1.524506 41.483151 134 134 134 0
-6.406980 1.525471 41.509428 133 133 133 0
-6.315038 1.527832 41.573652 132 132 132 0
-6.209577 1.526945 41.549528 135 135 135 0
-6.110322 1.527580 41.566813 133 133 133 0
-6.022089 1.531039 41.660938 131 131 131 0
-5.915432 1.529853 41.628656 130 130 130 0
-5.818067 1.531070 41.661779 134 134 134 0
-5.728630 1.534454 41.753863 125 125 125 0
-5.630081 1.535477 41.781677 127 127 127 0
-5.534570 1.537380 41.833482 128 128 128 0
-5.442019 1.540194 41.910044 131 131 131 0
-5.347257 1.542478 41.972192 137 137 137 0
-5.245729 1.542861 41.982621 141 141 141 0
-5.151207 1.545362 42.050670 135 135 135 0
-5.051057 1.546242 42.074611 130 130 130 0
-4.950640 1.547075 42.097275 129 129 129 0
-4.844541 1.546130 42.071563 122 122 122 0
-4.767258 1.554541 42.300426 133 133 133 0
-4.678809 1.559603 42.438181 149 149 149 0
-4.566706 1.556831 42.362761 146 146 146 0
-4.464845 1.557504 42.381061 146 146 146 0
-4.343878 1.551385 42.214555 148 148 148 0
-4.234373 1.549161 42.154041 146 146 146 0
-4.128616 1.548231 42.128732 142 142 142 0
-4.024961 1.548062 42.124130 144 144 144 0
-3.922316 1.548283 42.130142 146 146 146 0
-3.818914 1.548208 42.128117 148 148 148 0
-3.721604 1.550669 42.195062 147 147 147 0
-3.611713 1.547877 42.119107 147 147 147 0
-3.495893 1.542306 41.967498 147 147 147 0
-3.381306 1.536957 41.821963 144 144 144 0
-3.268430 1.532077 41.689164 144 144 144 0
-3.154400 1.526323 41.532586 142 142 142 0
-3.052218 1.526109 41.526771 146 146 146 0
-2.949753 1.525735 41.516587 148 148 148 0
-2.842532 1.522785 41.436328 145 145 145 0
-2.742835 1.523797 41.463865 136 136 136 0
-2.645620 1.526319 41.532494 127 127 127 0
-2.543877 1.526326 41.532686 121 121 121 0
-2.443054 1.526909 41.548534 118 118 118 0
-2.349607 1.532352 41.696665 113 113 113 0
-2.250580 1.534486 41.754724 112 112 112 0
-2.151021 1.536444 41.807998 110 110 110 0
-2.051978 1.538983 41.877092 116 116 116 0
-1.954728 1.543206 41.992000 124 124 124 0
-1.853752 1.544793 42.035184 127 127 127 0
-1.753537 1.547238 42.101722 132 132 132 0
-1.651719 1.548487 42.135691 137 137 137 0
-1.547792 1.547792 42.116782 141 141 141 0
-1.446453 1.549771 42.170629 141 141 141 0
-1.344030 1.550804 42.198753 137 137 137 0
-1.239511 1.549389 42.160244 131 131 131 0
-1.137896 1.551676 42.222488 120 120 120 0
-1.035792 1.553688 42.277215 116 116 116 0
-0.935472 1.559119 42.425017 102 102 102 0
-0.749557 1.405419 38.242684 95 95 95 0
-0.660929 1.416277 38.538153 85 85 85 0
0.000000 1.637378 44.554493 104 104 104 0
0.107347 1.610201 43.814988 114 114 114 0
0.213352 1.600140 43.541216 131 131 131 0
0.319496 1.597482 43.468910 142 142 142 0
0.424879 1.593298 43.355043 148 148 148 0
0.531503 1.594510 43.388036 150 150 150 0
0.637970 1.594925 43.399311 149 149 149 0
0.742937 1.592007 43.319927 151 151 151 0
0.849461 1.592739 43.339842 147 147 147 0
0.956715 1.594525 43.388430 139 139 139 0
1.061852 1.592778 43.340900 132 132 132 0
1.166900 1.591227 43.298706 122 122 122 0
1.277816 1.597269 43.463115 123 123 123 0
1.385492 1.598645 43.500545 137 137 137 0
1.490991 1.597490 43.469120 138 138 138 0
1.598554 1.598554 43.498063 140 140 140 0
1.704261 1.597745 43.476051 140 140 140 0
1.807487 1.594842 43.397056 138 138 138 0
1.914426 1.595355 43.411030 139 139 139 0
2.022176 1.596455 43.440944 136 136 136 0
2.125601 1.594200 43.379603 133 133 133 0
2.230234 1.593025 43.347606 135 135 135 0
2.343704 1.597980 43.482444 132 132 132 0
2.446625 1.595625 43.418371 128 128 128 0
2.555579 1.597237 43.462226 120 120 120 0
2.332110 1.399266 38.075264 114 114 114 0
2.429204 1.401464 38.135072 103 103 103 0
2.538643 1.410357 38.377072 93 93 93 0
2.636426 1.412371 38.431870 106 106 106 0
3.143046 1.625714 44.237107 104 104 104 0
2.841839 1.420920 38.664482 109 109 109 0
3.374958 1.633044 44.436578 107 107 107 0
3.017002 1.414220 38.482164 107 107 107 0
3.612422 1.642010 44.680539 120 120 120 0
3.753826 1.656100 45.063933 143 143 143 0
3.862553 1.655380 45.044353 142 142 142 0
3.970447 1.654353 45.016409 141 141 141 0
4.079956 1.654036 45.007785 148 148 148 0
4.176771 1.648725 44.863273 146 146 146 0
4.280702 1.646424 44.800650 143 143 143 0
4.388719 1.645770 44.782847 141 141 141 0
4.499475 1.646150 44.793185 143 143 143 0
4.603907 1.644252 44.741561 147 147 147 0
4.716253 1.645204 44.767466 146 146 146 0
4.828384 1.646040 44.790202 148 148 148 0
4.926807 1.642269 44.687591 146 146 146 0
5.026307 1.639013 44.598999 146 146 146 0
5.145410 1.642152 44.684409 146 146 146 0
5.241097 1.637843 44.567149 148 148 148 0
5.349989 1.637752 44.564674 146 146 146 0
5.461491 1.638447 44.583597 144 144 144 0
5.568787 1.637879 44.568126 141 141 141 0
5.672246 1.636225 44.523127 134 134 134 0
5.787643 1.638012 44.571757 119 119 119 0
5.905631 1.640453 44.638178 108 108 108 0
6.023840 1.642866 44.703823 106 106 106 0
6.152995 1.648124 44.846902 107 107 107 0
6.272144 1.650564 44.913313 102 102 102 0
6.408834 1.657457 45.100873 82 82 82 0
6.550243 1.665316 45.314720 83 83 83 0
6.685651 1.671413 45.480619 100 100 100 0
6.828985 1.679259 45.694110 108 108 108 0
6.955706 1.682832 45.791349 100 100 100 0
-8.164316 1.632863 41.654675 149 149 149 0
-8.066831 1.633789 41.678281 150 150 150 0
-7.973186 1.635525 41.722586 145 145 145 0
-7.867298 1.634763 41.703141 144 144 144 0
-7.770087 1.635808 41.729792 143 143 143 0
-7.677143 1.637791 41.780371 143 143 143 0
-7.573635 1.637543 41.774050 149 149 149 0
-7.466061 1.636397 41.744822 145 145 145 0
-7.374375 1.638750 41.804849 147 147 147 0
-7.267917 1.637840 41.781645 148 148 148 0
-7.146692 1.633530 41.671672 144 144 144 0
-7.040239 1.632519 41.645895 142 142 142 0
-6.923844 1.629140 41.559688 141 141 141 0
-6.811019 1.626512 41.492655 143 143 143 0
-6.700971 1.624478 41.440759 144 144 144 0
-6.593635 1.623049 41.404304 139 139 139 0
-6.491089 1.622772 41.397253 137 137 137 0
-6.399606 1.625297 41.461652 134 134 134 0
-6.299437 1.625661 41.470951 132 132 132 0
-6.197560 1.625590 41.469122 132 132 132 0
-6.108190 1.628851 41.552310 135 135 135 0
-6.011227 1.630163 41.585801 131 131 131 0
-5.904756 1.628898 41.553527 129 129 129 0
-5.815626 1.632456 41.644294 128 128 128 0
-5.715883 1.633109 41.660953 124 124 124 0
-5.626703 1.636859 41.756609 123 123 123 0
-5.531114 1.638849 41.807363 129 129 129 0
-5.437326 1.641457 41.873898 133 133 133 0
-5.342794 1.643937 41.937158 135 135 135 0
-5.242185 1.644607 41.954263 135 135 135 0
-5.150353 1.648113 42.043698 134 134 134 0
-5.048327 1.648433 42.051870 127 127 127 0
-4.944073 1.648024 42.041441 127 127 127 0
-4.838455 1.647134 42.018717 124 124 124 0
-4.773750 1.660435 42.358030 141 141 141 0
-4.671820 1.661092 42.374788 148 148 148 0
-4.555665 1.656605 42.260340 148 148 148 0
-4.455414 1.657828 42.291541 148 148 148 0
-4.335954 1.651792 42.137547 145 145 145 0
-4.230171 1.650799 42.112209 144 144 144 0
-4.124816 1.649926 42.089961 143 143 143 0
-4.020114 1.649278 42.073411 144 144 144 0
-3.914130 1.648055 42.042217 143 143 143 0
-3.815243 1.649835 42.087620 147 147 147 0
-3.715882 1.651503 42.130178 145 145 145 0
-3.612430 1.651396 42.127459 149 149 149 0
-3.497917 1.646079 41.991799 146 146 146 0
-3.380620 1.639088 41.813482 144 144 144 0
-3.268403 1.634201 41.688811 142 142 142 0
-3.155188 1.628484 41.542964 144 144 144 0
-3.052160 1.627819 41.525991 146 146 146 0
-2.946748 1.625792 41.474281 147 147 147 0
-2.839276 1.622443 41.388863 147 147 147 0
-2.741323 1.624488 41.441020 140 140 140 0
-2.644256 1.627234 41.511084 129 129 129 0
-2.541344 1.626460 41.491324 122 122 122 0
-2.443428 1.628952 41.554895 116 116 116 0
-2.345997 1.631998 41.632603 112 112 112 0
-2.249224 1.635799 41.729574 109 109 109 0
-2.149290 1.637554 41.774348 112 112 112 0
-2.051484 1.641187 41.867025 117 117 117 0
-1.954147 1.645598 41.979536 121 121 121 0
-1.852888 1.647011 42.015593 128 128 128 0
-1.753580 1.650428 42.102761 132 132 132 0
-1.650806 1.650806 42.112408 136 136 136 0
-1.547393 1.650552 42.105928 140 140 140 0
-1.444800 1.651200 42.122454 141 141 141 0
-1.343217 1.653190 42.173204 137 137 137 0
-1.239059 1.652078 42.144855 128 128 128 0
-1.137982 1.655247 42.225685 120 120 120 0
-1.036525 1.658439 42.307125 112 112 112 0
-0.936808 1.665437 42.485643 97 97 97 0
-0.751134 1.502268 38.323170 85 85 85 0
-0.664040 1.517807 38.719560 79 79 79 0
0.000000 1.759715 44.890688 100 100 100 0
