ply
format ascii 1.0
element vertex 1101
property float x
property float y
property float z
property uchar red
property uchar green
property uchar blue
property uchar alpha
end_header
-0.102129 -1.225550 41.685371 153 153 153 0
0.000000 -1.226115 41.704603 156 156 156 0
0.102086 -1.225030 41.667692 151 151 151 0
0.203886 -1.223316 41.609399 153 153 153 0
0.305840 -1.223358 41.610818 155 155 155 0
0.408297 -1.224891 41.662956 153 153 153 0
0.509680 -1.223231 41.606498 143 143 143 0
0.611342 -1.222685 41.587924 136 136 136 0
0.716417 -1.228143 41.773582 144 144 144 0
0.817849 -1.226774 41.726995 140 140 140 0
0.917168 -1.222890 41.594904 139 139 139 0
1.021260 -1.225512 41.684075 137 137 137 0
1.123449 -1.225581 41.686417 132 132 132 0
1.221666 -1.221666 41.553272 135 135 135 0
1.325755 -1.223774 41.624965 130 130 130 0
1.259608 -1.079664 36.723268 130 130 130 0
1.526109 -1.220888 41.526788 133 133 133 0
1.634217 -1.225663 41.689221 128 128 128 0
1.734520 -1.224367 41.645130 135 135 135 0
1.838118 -1.225412 41.680670 135 135 135 0
1.936527 -1.223070 41.601004 133 133 133 0
2.041353 -1.224812 41.660263 139 139 139 0
2.143102 -1.224630 41.654070 142 142 142 0
2.238181 -1.220826 41.524694 141 141 141 0
2.339498 -1.220608 41.517273 140 140 140 0
2.443276 -1.221638 41.552309 133 133 133 0
2.540583 -1.219480 41.478911 127 127 127 0
2.312673 -1.067388 36.305705 116 116 116 0
2.389066 -1.061807 36.115882 95 95 95 0
2.862758 -1.226896 41.731172 81 81 81 0
2.997918 -1.240518 42.194488 95 95 95 0
3.114354 -1.245741 42.372160 124 124 124 0
3.207096 -1.241456 42.226406 125 125 125 0
3.307899 -1.240462 42.192589 134 134 134 0
3.400230 -1.236447 42.056030 136 136 136 0
3.490507 -1.231944 41.902845 135 135 135 0
3.579142 -1.227134 41.739267 141 141 141 0
3.677776 -1.225925 41.698136 145 145 145 0
3.779124 -1.225662 41.689183 147 147 147 0
3.885791 -1.227092 41.737820 141 141 141 0
3.980889 -1.224889 41.662889 135 135 135 0
4.079861 -1.223958 41.631231 134 134 134 0
4.186375 -1.225280 41.676206 133 133 133 0
4.278255 -1.222359 41.576827 135 135 135 0
4.388079 -1.224580 41.652390 138 138 138 0
4.490041 -1.224557 41.651582 139 139 139 0
4.590868 -1.224232 41.640529 138 138 138 0
4.676943 -1.220072 41.499049 138 138 138 0
4.784075 -1.221466 41.546458 131 131 131 0
4.883552 -1.220888 41.526803 126 126 126 0
4.968401 -1.216751 41.386101 123 123 123 0
5.079520 -1.219085 41.465469 116 116 116 0
4.397930 -1.034807 35.197521 120 120 120 0
5.300846 -1.223272 41.607896 121 121 121 0
5.402149 -1.223128 41.602993 125 125 125 0
5.526883 -1.228196 41.775385 129 129 129 0
5.637926 -1.230093 41.839893 129 129 129 0
5.757852 -1.233825 41.966850 130 130 130 0
5.862413 -1.234192 41.979326 129 129 129 0
5.914788 -1.223749 41.624124 126 126 126 0
6.010298 -1.222434 41.579371 122 122 122 0
6.101424 -1.220285 41.506289 124 124 124 0
6.210748 -1.221787 41.557366 120 120 120 0
6.289453 -1.217314 41.405223 118 118 118 0
6.398508 -1.218763 41.454539 117 117 117 0
5.616696 -1.053131 35.820766 116 116 116 0
6.626618 -1.223376 41.611417 122 122 122 0
6.740884 -1.225615 41.687594 119 119 119 0
6.828725 -1.223055 41.600518 122 122 122 0
6.550863 -1.156035 39.320909 128 128 128 0
7.065853 -1.228844 41.797413 135 135 135 0
7.184872 -1.231692 41.894297 138 138 138 0
7.274734 -1.229533 41.820836 136 136 136 0
7.378539 -1.229756 41.828450 140 140 140 0
7.464040 -1.226965 41.733520 142 142 142 0
7.608999 -1.233892 41.969107 140 140 140 0
7.876817 -1.260291 42.867031 140 140 140 0
7.812740 -1.233591 41.958862 139 139 139 0
8.254914 -1.286480 43.757825 141 141 141 0
8.534112 -1.312940 44.657834 138 138 138 0
8.816906 -1.339277 45.553635 136 136 136 0
-7.404671 -1.018142 37.778934 103 103 103 0
-7.357224 -1.024424 38.012007 105 105 105 0
-7.790786 -1.098701 40.768111 97 97 97 0
-7.518834 -1.074119 39.856000 97 97 97 0
-7.520186 -1.088448 40.387681 80 80 80 0
-7.519260 -1.102825 40.921145 77 77 77 0
-7.189380 -1.113848 41.330155 119 119 119 0
-7.077718 -1.112213 41.269493 147 147 147 0
-6.970100 -1.111175 41.230999 151 151 151 0
-6.856354 -1.109116 41.154585 153 153 153 0
-6.757042 -1.109365 41.163827 156 156 156 0
-6.658928 -1.109821 41.180753 152 152 152 0
-6.554181 -1.109169 41.156554 150 150 150 0
-6.463772 -1.110961 41.223036 147 147 147 0
-6.364192 -1.111208 41.232216 151 151 151 0
-6.264716 -1.111482 41.242370 149 149 149 0
-6.172321 -1.113041 41.300241 154 154 154 0
-6.089271 -1.116366 41.423615 150 150 150 0
-5.959192 -1.111036 41.225821 146 146 146 0
-5.822395 -1.104247 40.973929 145 145 145 0
-5.709072 -1.101751 40.881288 144 144 144 0
-5.576145 -1.095314 40.642458 145 145 145 0
-5.448671 -1.089734 40.435409 140 140 140 0
-5.345014 -1.088799 40.400709 139 139 139 0
-5.238631 -1.087263 40.343715 139 139 139 0
-5.126625 -1.084478 40.240385 135 135 135 0
-5.016609 -1.082014 40.148933 133 133 133 0
-4.919094 -1.082201 40.155872 131 131 131 0
-4.814206 -1.080740 40.101673 135 135 135 0
-4.710871 -1.079575 40.058428 135 135 135 0
-4.617701 -1.080738 40.101614 135 135 135 0
-4.518758 -1.080573 40.095459 130 130 130 0
-4.425503 -1.081790 40.140618 128 128 128 0
-4.334571 -1.083643 40.209378 132 132 132 0
-4.240388 -1.084750 40.250481 132 132 132 0
-4.137502 -1.083632 40.208963 128 128 128 0
-4.045727 -1.085439 40.276028 128 128 128 0
-3.953621 -1.087246 40.343070 125 125 125 0
-3.858070 -1.088174 40.377498 124 124 124 0
-3.757695 -1.087754 40.361924 129 129 129 0
-3.664690 -1.089502 40.426809 125 125 125 0
-3.572733 -1.091668 40.507177 126 126 126 0
-3.470884 -1.090849 40.476785 129 129 129 0
-3.376119 -1.092274 40.529637 133 133 133 0
-3.279316 -1.093105 40.560496 135 135 135 0
-3.184668 -1.094730 40.620769 128 128 128 0
-3.081117 -1.093299 40.567697 129 129 129 0
-2.989185 -1.096034 40.669183 127 127 127 0
-2.892412 -1.097122 40.709530 128 128 128 0
-2.795623 -1.098280 40.752518 132 132 132 0
-2.698635 -1.099444 40.795687 128 128 128 0
-2.605451 -1.102306 40.901892 128 128 128 0
-2.509957 -1.104381 40.978890 124 124 124 0
-2.413503 -1.106189 41.045976 125 125 125 0
-2.092195 -1.000615 37.128579 120 120 120 0
-1.988372 -0.994186 36.890022 113 113 113 0
-2.119534 -1.110232 41.195988 108 108 108 0
-2.043052 -1.123679 41.694946 152 152 152 0
-1.943851 -1.125387 41.758341 155 155 155 0
-1.838936 -1.123794 41.699224 156 156 156 0
-1.735024 -1.122663 41.657247 158 158 158 0
-1.634450 -1.123684 41.695153 155 155 155 0
-1.528949 -1.121230 41.604064 155 155 155 0
-1.426970 -1.121191 41.602623 155 155 155 0
-1.327396 -1.123181 41.676476 155 155 155 0
-1.223067 -1.121144 41.600903 150 150 150 0
-1.119988 -1.119988 41.557991 145 145 145 0
-1.019914 -1.121906 41.629162 144 144 144 0
-0.918975 -1.123191 41.676859 143 143 143 0
-0.815390 -1.121161 41.601531 146 146 146 0
-0.712328 -1.119373 41.535168 136 136 136 0
-0.612377 -1.122692 41.658327 141 141 141 0
-0.511301 -1.124863 41.738869 157 157 157 0
-0.409529 -1.126205 41.788691 159 159 159 0
-0.307621 -1.127943 41.853186 155 155 155 0
-0.204761 -1.126188 41.788051 155 155 155 0
-0.102075 -1.122820 41.663091 155 155 155 0
0.000000 -1.123871 41.702066 160 160 160 0
0.102202 -1.124219 41.715004 156 156 156 0
0.203996 -1.121978 41.631847 156 156 156 0
0.305834 -1.121392 41.610075 158 158 158 0
0.408329 -1.122905 41.666235 151 151 151 0
0.510013 -1.122029 41.633743 142 142 142 0
0.611475 -1.121038 41.596970 141 141 141 0
0.716852 -1.126481 41.798934 148 148 148 0
0.818548 -1.125503 41.762641 147 147 147 0
0.920519 -1.125079 41.746898 141 141 141 0
1.022681 -1.124949 41.742075 134 134 134 0
1.124483 -1.124483 41.724792 133 133 133 0
1.223606 -1.121639 41.619248 133 133 133 0
1.327430 -1.123210 41.677541 130 130 130 0
1.432347 -1.125416 41.759399 130 130 130 0
1.535513 -1.126043 41.782665 134 134 134 0
1.638289 -1.126323 41.793078 134 134 134 0
1.738596 -1.124974 41.742996 128 128 128 0
1.842148 -1.125757 41.772066 131 131 131 0
1.942889 -1.124831 41.737687 133 133 133 0
2.048568 -1.126712 41.807512 139 139 139 0
2.144508 -1.123314 41.681395 143 143 143 0
2.242508 -1.121254 41.604977 142 142 142 0
2.345940 -1.121971 41.631584 135 135 135 0
2.448665 -1.122305 41.643955 132 132 132 0
2.548102 -1.121165 41.601662 131 131 131 0
2.650077 -1.121187 41.602472 121 121 121 0
2.735578 -1.114495 41.354169 104 104 104 0
2.834643 -1.113610 41.321328 88 88 88 0
3.000540 -1.138136 42.231387 116 116 116 0
3.106964 -1.139220 42.271622 131 131 131 0
3.203568 -1.136750 42.179965 135 135 135 0
3.299310 -1.134138 42.083039 136 136 136 0
3.392063 -1.130688 41.955021 137 137 137 0
3.488542 -1.128646 41.879258 138 138 138 0
3.580929 -1.125435 41.760107 143 143 143 0
3.673572 -1.122480 41.650471 152 152 152 0
3.782061 -1.124396 41.721574 147 147 147 0
3.883626 -1.124208 41.714570 141 141 141 0
3.980109 -1.122595 41.654723 139 139 139 0
4.085513 -1.123516 41.688907 138 138 138 0
4.190419 -1.124259 41.716464 137 137 137 0
4.282140 -1.121513 41.614582 139 139 139 0
4.385573 -1.121891 41.628600 140 140 140 0
4.494008 -1.123502 41.688386 142 142 142 0
4.596631 -1.123621 41.692797 140 140 140 0
4.682478 -1.119723 41.548164 138 138 138 0
4.791736 -1.121470 41.612995 134 134 134 0
4.894494 -1.121655 41.619847 130 130 130 0
4.987076 -1.119548 41.541656 124 124 124 0
5.096562 -1.121244 41.604584 124 124 124 0
5.202758 -1.122164 41.638721 120 120 120 0
5.307307 -1.122700 41.658614 123 123 123 0
5.415023 -1.123873 41.702143 129 129 129 0
5.534078 -1.127312 41.829764 128 128 128 0
5.636821 -1.127364 41.831693 132 132 132 0
5.756253 -1.130693 41.955196 130 130 130 0
5.876427 -1.134047 42.079679 133 133 133 0
5.970610 -1.132357 42.016958 125 125 125 0
6.032352 -1.124676 41.731943 126 126 126 0
6.126028 -1.123105 41.673662 126 126 126 0
6.239468 -1.125150 41.749537 118 118 118 0
5.444267 -0.965918 35.841126 117 117 117 0
6.441602 -1.124724 41.733732 118 118 118 0
6.558087 -1.127171 41.824532 124 124 124 0
5.984376 -1.012741 37.578498 124 124 124 0
6.752979 -1.125496 41.762393 127 127 127 0
6.167169 -1.012520 37.570327 125 125 125 0
6.974558 -1.128237 41.864095 129 129 129 0
7.075555 -1.127987 41.854806 137 137 137 0
7.180781 -1.128408 41.870441 138 138 138 0
7.281092 -1.128057 41.857384 139 139 139 0
7.386565 -1.128503 41.873953 140 140 140 0
7.508356 -1.131396 41.981305 140 140 140 0
7.573596 -1.125805 41.773833 142 142 142 0
7.713294 -1.131283 41.977109 140 140 140 0
7.317982 -1.059182 39.301728 139 139 139 0
7.867237 -1.123891 41.702820 135 135 135 0
8.533804 -1.203485 44.656224 131 131 131 0
8.819176 -1.227987 45.565363 129 129 129 0
-7.416953 -0.927119 37.841599 96 96 96 0
-7.341160 -0.929261 37.929012 96 96 96 0
-7.356086 -0.943088 38.493384 91 91 91 0
-7.561436 -0.982005 40.081822 87 87 87 0
-7.535448 -0.991506 40.469647 81 81 81 0
-7.498128 -1.013261 41.357573 76 76 76 0
-7.187567 -1.012333 41.319727 126 126 126 0
-7.081679 -1.011668 41.292589 147 147 147 0
-6.967910 -1.009842 41.218043 151 151 151 0
-6.858818 -1.008650 41.169373 152 152 152 0
-6.755227 -1.008243 41.152767 158 158 158 0
-6.654252 -1.008220 41.151838 156 156 156 0
-6.553572 -1.008242 41.152729 149 149 149 0
-6.457290 -1.008952 41.181699 153 153 153 0
-6.362090 -1.009856 41.218596 150 150 150 0
-6.268506 -1.011049 41.267321 150 150 150 0
-6.176220 -1.012495 41.326328 147 147 147 0
-6.059891 -1.009982 41.223746 141 141 141 0
-5.914058 -1.002383 40.913579 143 143 143 0
-5.794953 -0.999130 40.780809 141 141 141 0
-5.677605 -0.996071 40.655960 140 140 140 0
-5.554890 -0.991945 40.487540 136 136 136 0
-5.431687 -0.987579 40.309363 135 135 135 0
-5.325183 -0.986145 40.250814 137 137 137 0
-5.220669 -0.985032 40.205380 137 137 137 0
-5.111059 -0.982896 40.118203 137 137 137 0
-4.998841 -0.980165 40.006728 136 136 136 0
-4.899832 -0.979966 39.998628 134 134 134 0
-4.802976 -0.980199 40.008131 132 132 132 0
-4.704197 -0.980041 40.001673 134 134 134 0
-4.610745 -0.981010 40.041207 133 133 133 0
-4.516405 -0.981827 40.074580 131 131 131 0
-4.419571 -0.982127 40.086814 129 129 129 0
-4.325509 -0.983070 40.125319 131 131 131 0
-4.235106 -0.984908 40.200342 133 133 133 0
-4.132963 -0.984039 40.164851 133 133 133 0
-4.042277 -0.985921 40.241683 132 132 132 0
-3.950488 -0.987622 40.311099 132 132 132 0
-3.852027 -0.987699 40.314253 129 129 129 0
-3.751954 -0.987356 40.300260 125 125 125 0
-3.662669 -0.989910 40.404509 128 128 128 0
-3.566634 -0.990732 40.438032 126 126 126 0
-3.465560 -0.990160 40.414688 132 132 132 0
-3.369067 -0.990902 40.444986 132 132 132 0
-3.277042 -0.993043 40.532369 132 132 132 0
-3.177819 -0.993069 40.533410 132 132 132 0
-3.077259 -0.992664 40.516907 127 127 127 0
-2.986240 -0.995413 40.629113 126 126 126 0
-2.891719 -0.997144 40.699772 125 125 125 0
-2.795029 -0.998225 40.743869 127 127 127 0
-2.694462 -0.997949 40.732607 123 123 123 0
-2.602677 -1.001030 40.858351 127 127 127 0
-2.507526 -1.003010 40.939199 121 121 121 0
-2.412851 -1.005354 41.034877 121 121 121 0
-2.093172 -0.910075 37.145912 117 117 117 0
-1.989542 -0.904337 36.911733 116 116 116 0
-2.121769 -1.010366 41.239440 109 109 109 0
-2.042382 -1.021191 41.681275 152 152 152 0
-1.943156 -1.022713 41.743405 158 158 158 0
-1.838450 -1.021361 41.688219 151 151 151 0
-1.734777 -1.020457 41.651312 153 153 153 0
-1.634062 -1.021289 41.685254 155 155 155 0
-1.530075 -1.020050 41.634686 156 156 156 0
-1.427762 -1.019830 41.625728 158 158 158 0
-1.326774 -1.020595 41.656951 149 149 149 0
-1.224229 -1.020191 41.640449 143 143 143 0
-1.121415 -1.019468 41.610959 148 148 148 0
-1.021666 -1.021666 41.700662 147 147 147 0
-0.921277 -1.023641 41.781253 147 147 147 0
-0.814610 -1.018262 41.561720 143 143 143 0
-0.713031 -1.018616 41.576146 139 139 139 0
-0.611121 -1.018536 41.572889 135 135 135 0
-0.508659 -1.017319 41.523219 142 142 142 0
-0.407964 -1.019909 41.628935 150 150 150 0
-0.307378 -1.024592 41.820080 155 155 155 0
-0.204939 -1.024694 41.824263 152 152 152 0
-0.102164 -1.021641 41.699614 150 150 150 0
0.000000 -1.022783 41.746263 148 148 148 0
0.101940 -1.019395 41.607978 148 148 148 0
0.203274 -1.016368 41.484422 145 145 145 0
0.305359 -1.017864 41.545465 145 145 145 0
0.407012 -1.017529 41.531795 145 145 145 0
0.508888 -1.017776 41.541881 137 137 137 0
0.610926 -1.018210 41.559612 132 132 132 0
0.716417 -1.023453 41.773582 138 138 138 0
0.818420 -1.023025 41.756131 140 140 140 0
0.815442 -0.906046 36.981489 139 139 139 0
1.022769 -1.022769 41.745677 135 135 135 0
0.995810 -0.905282 36.950288 139 139 139 0
1.228319 -1.023599 41.779556 133 133 133 0
1.329482 -1.022678 41.741974 132 132 132 0
1.434315 -1.024511 41.816772 130 130 130 0
1.537618 -1.025079 41.839956 133 133 133 0
1.639106 -1.024441 41.813938 133 133 133 0
1.743423 -1.025543 41.858903 134 134 134 0
1.847301 -1.026279 41.888921 139 139 139 0
1.951343 -1.027022 41.919282 142 142 142 0
2.051282 -1.025641 41.862889 146 146 146 0
2.150670 -1.024129 41.801166 145 145 145 0
2.244830 -1.020377 41.648061 144 144 144 0
2.346972 -1.020423 41.649910 137 137 137 0
2.451185 -1.021327 41.686821 132 132 132 0
2.552185 -1.020874 41.668330 132 132 132 0
2.650570 -1.019450 41.610207 127 127 127 0
2.389027 -0.884825 36.115294 111 111 111 0
2.852183 -1.018637 41.577011 103 103 103 0
2.999365 -1.034264 42.214849 135 135 135 0
3.107356 -1.035785 42.276952 140 140 140 0
3.198995 -1.031934 42.119751 137 137 137 0
3.294581 -1.029557 42.022723 140 140 140 0
3.390038 -1.027284 41.929964 142 142 142 0
3.483279 -1.024494 41.816076 140 140 140 0
3.578102 -1.022315 41.727135 150 150 150 0
3.674747 -1.020763 41.663799 153 153 153 0
3.782283 -1.022239 41.724022 146 146 146 0
3.883726 -1.022033 41.715638 140 140 140 0
3.981731 -1.020957 41.671696 139 139 139 0
4.084613 -1.021153 41.679721 139 139 139 0
4.192392 -1.022535 41.736104 141 141 141 0
4.288785 -1.021139 41.679157 141 141 141 0
4.389871 -1.020900 41.669398 144 144 144 0
4.497709 -1.022207 41.722717 145 145 145 0
4.597448 -1.021655 41.700205 145 145 145 0
4.688020 -1.019135 41.597335 145 145 145 0
4.796105 -1.020448 41.650932 140 140 140 0
4.898465 -1.020514 41.653617 134 134 134 0
4.988477 -1.018056 41.553325 130 130 130 0
5.100005 -1.020001 41.632695 124 124 124 0
5.202342 -1.020067 41.635392 121 121 121 0
5.307275 -1.020630 41.658357 127 127 127 0
5.409732 -1.020704 41.661393 128 128 128 0
5.528519 -1.023800 41.787749 130 130 130 0
5.650165 -1.027303 41.930727 129 129 129 0
5.763853 -1.029260 42.010592 130 130 130 0
5.875667 -1.030819 42.074239 132 132 132 0
5.978851 -1.030836 42.074956 130 130 130 0
6.068644 -1.028584 41.983013 126 126 126 0
6.147797 -1.024633 41.821748 127 127 127 0
6.242495 -1.023360 41.769786 125 125 125 0
6.347161 -1.023736 41.785130 121 121 121 0
6.460239 -1.025435 41.854478 122 122 122 0
6.537387 -1.021467 41.692519 120 120 120 0
6.666686 -1.025644 41.863023 123 123 123 0
6.770657 -1.025857 41.871721 125 125 125 0
6.862463 -1.024248 41.806048 127 127 127 0
6.967170 -1.024584 41.819751 130 130 130 0
7.088256 -1.027284 41.929940 133 133 133 0
7.200324 -1.028618 41.984395 136 136 136 0
7.303331 -1.028638 41.985230 138 138 138 0
7.387383 -1.026025 41.878587 141 141 141 0
7.485258 -1.025378 41.852155 140 140 140 0
7.590991 -1.025810 41.869778 140 140 140 0
7.713805 -1.028507 41.979891 139 139 139 0
7.484382 -0.984787 40.195391 133 133 133 0
7.867529 -1.021757 41.704367 130 130 130 0
8.363351 -1.072224 43.764263 126 126 126 0
7.952464 -1.006641 41.087387 124 124 124 0
-7.445658 -0.837637 37.988052 97 97 97 0
-7.457591 -0.849599 38.530564 91 91 91 0
-7.534738 -0.869393 39.428245 86 86 86 0
-7.606464 -0.889067 40.320507 78 78 78 0
-7.524719 -0.902966 40.950850 75 75 75 0
-7.185698 -0.910863 41.308985 129 129 129 0
-7.078831 -0.910135 41.275980 148 148 148 0
-6.968868 -0.908983 41.223708 150 150 150 0
-6.856126 -0.907428 41.153217 157 157 157 0
-6.755227 -0.907419 41.152767 158 158 158 0
-6.656347 -0.907684 41.164793 155 155 155 0
-6.549758 -0.906890 41.128776 155 155 155 0
-6.461320 -0.908623 41.207397 155 155 155 0
-6.360532 -0.908647 41.208498 152 152 152 0
-6.269842 -0.910138 41.276119 147 147 147 0
-6.146827 -0.906909 41.129658 144 144 144 0
-6.002709 -0.900406 40.834752 140 140 140 0
-5.895312 -0.899285 40.783897 137 137 137 0
-5.776444 -0.896345 40.650553 139 139 139 0
-5.657307 -0.893259 40.510610 142 142 142 0
-5.529576 -0.888682 40.303033 134 134 134 0
-5.419584 -0.886841 40.219544 137 137 137 0
-5.315857 -0.885976 40.180328 135 135 135 0
-5.202451 -0.883435 40.065086 136 136 136 0
-5.094689 -0.881773 39.989713 135 135 135 0
-4.988950 -0.880403 39.927567 136 136 136 0
-4.892883 -0.880719 39.941899 135 135 135 0
-4.796415 -0.880974 39.953478 131 131 131 0
-4.697932 -0.880862 39.948397 130 130 130 0
-4.607681 -0.882322 40.014596 129 129 129 0
-4.512386 -0.882858 40.038918 128 128 128 0
-4.417601 -0.883520 40.068944 130 130 130 0
-4.320991 -0.883839 40.083405 131 131 131 0
-4.228616 -0.885059 40.138736 130 130 130 0
-4.129746 -0.884946 40.133585 135 135 135 0
-4.040118 -0.886855 40.220192 132 132 132 0
-3.943824 -0.887360 40.243103 130 130 130 0
-3.845919 -0.887520 40.250329 132 132 132 0
-3.748119 -0.887712 40.259069 129 129 129 0
-3.657380 -0.889633 40.346169 127 127 127 0
-3.558513 -0.889628 40.345956 129 129 129 0
-3.461708 -0.890154 40.369776 132 132 132 0
-3.367414 -0.891374 40.425133 132 132 132 0
-3.273697 -0.892827 40.490999 133 133 133 0
-3.171549 -0.891998 40.453428 133 133 133 0
-3.072855 -0.892119 40.458924 131 131 131 0
-2.982652 -0.894796 40.580304 126 126 126 0
-2.887162 -0.896016 40.635631 123 123 123 0
-2.787979 -0.896136 40.641098 124 124 124 0
-2.692759 -0.897586 40.706858 120 120 120 0
-2.601381 -0.900478 40.838004 120 120 120 0
-2.507524 -0.902708 40.939160 119 119 119 0
-2.178472 -0.816927 37.048849 121 121 121 0
-2.309015 -0.903528 40.976308 116 116 116 0
-2.196376 -0.898517 40.749088 116 116 116 0
-2.127263 -0.911684 41.346215 118 118 118 0
-2.044148 -0.919867 41.717315 150 150 150 0
-1.941773 -0.919787 41.713712 152 152 152 0
-1.838936 -0.919468 41.699224 151 151 151 0
-1.733003 -0.917472 41.608704 151 151 151 0
-1.634267 -0.919275 41.690493 150 150 150 0
-1.528956 -0.917374 41.604243 151 151 151 0
-1.426824 -0.917244 41.598379 151 151 151 0
-1.326791 -0.918548 41.657486 143 143 143 0
-1.225124 -0.918843 41.670899 144 144 144 0
-1.121760 -0.917804 41.623759 147 147 147 0
-1.020953 -0.918858 41.671563 142 142 142 0
-0.918403 -0.918403 41.650916 146 146 146 0
-0.812950 -0.914569 41.477035 145 145 145 0
-0.711713 -0.915059 41.499287 135 135 135 0
-0.608842 -0.913262 41.417792 136 136 136 0
-0.507580 -0.913644 41.435082 140 140 140 0
-0.407477 -0.916822 41.579247 142 142 142 0
-0.307131 -0.921393 41.786540 150 150 150 0
-0.203763 -0.916934 41.584294 150 150 150 0
-0.101998 -0.917980 41.631751 146 146 146 0
0.000000 -0.914864 41.490449 142 142 142 0
0.101569 -0.914121 41.456715 140 140 140 0
0.202566 -0.911546 41.339976 136 136 136 0
0.303365 -0.910095 41.274146 129 129 129 0
0.404838 -0.910886 41.310034 125 125 125 0
0.506132 -0.911038 41.316902 125 125 125 0
0.607378 -0.911067 41.318237 119 119 119 0
0.633030 -0.813896 36.911367 127 127 127 0
0.723404 -0.813830 36.908390 130 130 130 0
0.922245 -0.922245 41.825147 136 136 136 0
1.024427 -0.921985 41.813360 140 140 140 0
1.127737 -0.922694 41.845533 137 137 137 0
1.228040 -0.921030 41.770080 134 134 134 0
1.335092 -0.924295 41.918127 130 130 130 0
1.437747 -0.924266 41.916810 130 130 130 0
1.543986 -0.926392 42.013224 134 134 134 0
1.648433 -0.927243 42.051859 138 138 138 0
1.750744 -0.926864 42.034660 143 143 143 0
1.853330 -0.926665 42.025632 148 148 148 0
1.956596 -0.926809 42.032143 151 151 151 0
2.055625 -0.925031 41.951529 150 150 150 0
2.153163 -0.922784 41.849630 144 144 144 0
2.251386 -0.921022 41.769690 144 144 144 0
2.352640 -0.920598 41.750491 137 137 137 0
2.453901 -0.920213 41.733010 134 134 134 0
2.555769 -0.920077 41.726836 137 137 137 0
2.654725 -0.918943 41.675436 130 130 130 0
2.746329 -0.915443 41.516683 113 113 113 0
2.859673 -0.919181 41.686194 108 108 108 0
2.999827 -0.930981 42.221350 141 141 141 0
3.102797 -0.930839 42.214919 141 141 141 0
3.201153 -0.929367 42.148158 138 138 138 0
3.293103 -0.926185 42.003868 137 137 137 0
3.391886 -0.925060 41.952826 140 140 140 0
3.481787 -0.921650 41.798166 145 145 145 0
3.579450 -0.920430 41.742854 151 151 151 0
3.679506 -0.919876 41.717752 148 148 148 0
3.783401 -0.920287 41.736357 142 142 142 0
3.885514 -0.920253 41.734847 139 139 139 0
3.982237 -0.918978 41.676996 140 140 140 0
4.084410 -0.918992 41.677653 142 142 142 0
4.192954 -0.920404 41.741700 142 142 142 0
4.289711 -0.919224 41.688150 144 144 144 0
4.395351 -0.919957 41.721414 146 146 146 0
4.500633 -0.920584 41.749841 149 149 149 0
4.600784 -0.920157 41.730466 148 148 148 0
4.693020 -0.918200 41.641702 146 146 146 0
4.794475 -0.918091 41.636775 144 144 144 0
4.899575 -0.918670 41.663054 139 139 139 0
4.996925 -0.917802 41.623694 134 134 134 0
5.099789 -0.917962 41.630933 128 128 128 0
5.207727 -0.919011 41.678490 124 124 124 0
5.312649 -0.919497 41.700543 124 124 124 0
5.414897 -0.919511 41.701167 128 128 128 0
5.538841 -0.923140 41.865769 124 124 124 0
5.656433 -0.925598 41.977242 126 126 126 0
5.765622 -0.926618 42.023483 130 130 130 0
5.879983 -0.928418 42.105142 131 131 131 0
5.992594 -0.929885 42.171667 132 132 132 0
6.097324 -0.930100 42.181419 127 127 127 0
6.187328 -0.928099 42.090664 128 128 128 0
6.273424 -0.925587 41.976739 123 123 123 0
6.377222 -0.925726 41.983030 119 119 119 0
6.489217 -0.927031 42.042223 126 126 126 0
6.579782 -0.925282 41.962894 125 125 125 0
6.678339 -0.924693 41.936193 127 127 127 0
6.800181 -0.927297 42.054307 124 124 124 0
6.894895 -0.926180 42.003626 130 130 130 0
7.001289 -0.926641 42.024547 131 131 131 0
7.091266 -0.924948 41.947745 136 136 136 0
7.207813 -0.926719 42.028063 136 136 136 0
7.305530 -0.926053 41.997875 139 139 139 0
7.399478 -0.924935 41.947153 142 142 142 0
7.669959 -0.945611 42.884872 138 138 138 0
7.613470 -0.925963 41.993769 136 136 136 0
7.551646 -0.906198 41.097394 132 132 132 0
7.785075 -0.921917 41.810287 129 129 129 0
8.259400 -0.965384 43.781604 126 126 126 0
8.534853 -0.984791 44.661713 123 123 123 0
8.820204 -1.004833 45.570677 121 121 121 0
-7.491592 -0.749159 38.222411 92 92 92 0
-7.487326 -0.758210 38.684194 84 84 84 0
-7.699808 -0.789724 40.292033 80 80 80 0
-7.433038 -0.792857 40.451907 76 76 76 0
-7.190198 -0.810163 41.334856 127 127 127 0
-7.083764 -0.809573 41.304744 145 145 145 0
-6.967999 -0.807884 41.218570 153 153 153 0
-6.862316 -0.807331 41.190369 152 152 152 0
-6.757755 -0.806896 41.168171 157 157 157 0
-6.658919 -0.807142 41.180697 157 157 157 0
-6.553180 -0.806545 41.150268 159 159 159 0
-6.458049 -0.807256 41.186538 156 156 156 0
-6.371320 -0.809056 41.278390 156 156 156 0
-6.244232 -0.805707 41.107517 149 149 149 0
-6.100050 -0.800007 40.816658 143 143 143 0
-5.986093 -0.798146 40.721718 141 141 141 0
-5.883190 -0.797721 40.700032 140 140 140 0
-5.751258 -0.793277 40.473316 140 140 140 0
-5.632625 -0.790544 40.333870 141 141 141 0
-5.513070 -0.787581 40.182728 138 138 138 0
-5.404135 -0.786056 40.104901 138 138 138 0
-5.303398 -0.785689 40.086156 137 137 137 0
-5.191793 -0.783667 39.983007 137 137 137 0
-5.083992 -0.782153 39.905748 137 137 137 0
-4.976769 -0.780670 39.830086 137 137 137 0
-4.883696 -0.781391 39.866904 133 133 133 0
-4.786004 -0.781388 39.866759 130 130 130 0
-4.692324 -0.782054 39.900715 127 127 127 0
-4.594646 -0.782067 39.901396 124 124 124 0
-4.505836 -0.783624 39.980797 127 127 127 0
-4.409532 -0.783917 39.995757 127 127 127 0
-4.317349 -0.784973 40.049621 125 125 125 0
-4.222701 -0.785619 40.082590 127 127 127 0
-4.126550 -0.786010 40.102528 131 131 131 0
-4.033297 -0.786985 40.152282 133 133 133 0
-3.937887 -0.787577 40.182518 133 133 133 0
-3.841339 -0.787967 40.202402 129 129 129 0
-3.742481 -0.787891 40.198505 130 130 130 0
-3.652986 -0.789835 40.297695 130 130 130 0
-3.554497 -0.789888 40.300420 129 129 129 0
-3.456740 -0.790112 40.311836 130 130 130 0
-3.363680 -0.791454 40.380312 131 131 131 0
-3.270407 -0.792826 40.450302 131 131 131 0
-3.168321 -0.792080 40.412263 132 132 132 0
-3.072587 -0.792926 40.455386 132 132 132 0
-2.979647 -0.794573 40.539418 128 128 128 0
-2.883892 -0.795556 40.589608 128 128 128 0
-2.785426 -0.795836 40.603873 123 123 123 0
-2.693783 -0.798158 40.722348 121 121 121 0
-2.603736 -0.801150 40.874975 118 118 118 0
-2.264370 -0.724598 36.969309 120 120 120 0
-2.177236 -0.725745 37.027823 114 114 114 0
-2.087009 -0.725916 37.036547 113 113 113 0
-2.199875 -0.799954 40.813999 108 108 108 0
-2.132257 -0.812288 41.443282 126 126 126 0
-2.042765 -0.817106 41.689082 151 151 151 0
-1.940627 -0.817106 41.689086 149 149 149 0
-1.837325 -0.816589 41.662701 149 149 149 0
-1.731149 -0.814658 41.564204 147 147 147 0
-1.632660 -0.816330 41.649498 145 145 145 0
-1.526844 -0.814317 41.546768 141 141 141 0
-1.425616 -0.814638 41.563149 146 146 146 0
-1.326298 -0.816183 41.642000 144 144 144 0
-1.222656 -0.815104 41.586940 146 146 146 0
-1.120127 -0.814638 41.563141 146 146 146 0
-1.019914 -0.815932 41.629162 146 146 146 0
-0.915412 -0.813699 41.515269 143 143 143 0
-0.811756 -0.811756 41.416122 141 141 141 0
-0.710508 -0.812010 41.429065 139 139 139 0
-0.608952 -0.811936 41.425298 136 136 136 0
-0.506560 -0.810496 41.351818 136 136 136 0
-0.407179 -0.814357 41.548834 145 145 145 0
-0.306240 -0.816639 41.665253 144 144 144 0
-0.203445 -0.813779 41.519344 140 140 140 0
-0.101655 -0.813241 41.491900 143 143 143 0
0.000000 -0.811728 41.414697 140 140 140 0
0.101037 -0.808299 41.239728 138 138 138 0
0.201673 -0.806694 41.157847 130 130 130 0
0.302086 -0.805564 41.100199 129 129 129 0
0.402868 -0.805736 41.108956 123 123 123 0
0.504289 -0.806862 41.166441 122 122 122 0
0.537735 -0.716980 36.580634 118 118 118 0
0.627166 -0.716761 36.569455 112 112 112 0
0.719734 -0.719734 36.721098 121 121 121 0
0.922560 -0.820053 41.839461 136 136 136 0
1.025887 -0.820709 41.872930 140 140 140 0
1.129837 -0.821700 41.923463 140 140 140 0
1.232446 -0.821630 41.919923 138 138 138 0
1.336397 -0.822398 41.959098 140 140 140 0
1.443097 -0.824627 42.072786 148 148 148 0
1.548925 -0.826093 42.147618 158 158 158 0
1.654354 -0.827177 42.202907 154 154 154 0
1.755162 -0.825959 42.140755 157 157 157 0
1.857506 -0.825558 42.120311 156 156 156 0
1.957399 -0.824168 42.049393 151 151 151 0
2.056247 -0.822499 41.964228 154 154 154 0
2.155767 -0.821244 41.900227 147 147 147 0
2.254996 -0.819999 41.836662 142 142 142 0
2.352300 -0.818191 41.744455 142 142 142 0
2.456643 -0.818881 41.779640 137 137 137 0
2.558427 -0.818697 41.770237 138 138 138 0
2.659619 -0.818344 41.752266 132 132 132 0
2.393896 -0.709302 36.188899 115 115 115 0
2.859568 -0.817020 41.684670 117 117 117 0
2.998488 -0.827169 42.202508 143 143 143 0
3.101415 -0.827044 42.196121 141 141 141 0
3.199307 -0.825628 42.123853 139 139 139 0
3.288713 -0.822178 41.947871 139 139 139 0
3.380758 -0.819578 41.815184 143 143 143 0
3.481690 -0.819221 41.797001 149 149 149 0
3.579360 -0.818139 41.741805 148 148 148 0
3.681450 -0.818100 41.739801 141 141 141 0
3.782664 -0.817873 41.728234 136 136 136 0
3.890327 -0.819016 41.786541 137 137 137 0
3.989671 -0.818394 41.754800 138 138 138 0
4.089946 -0.817989 41.734145 138 138 138 0
4.196636 -0.818856 41.778362 142 142 142 0
4.297872 -0.818642 41.767463 142 142 142 0
4.397481 -0.818136 41.741632 145 145 145 0
4.500850 -0.818336 41.751857 147 147 147 0
4.604850 -0.818640 41.767351 147 147 147 0
4.698344 -0.817103 41.688943 147 147 147 0
4.799447 -0.816927 41.679958 146 146 146 0
4.903225 -0.817204 41.694090 142 142 142 0
4.999667 -0.816272 41.646540 139 139 139 0
5.102595 -0.816415 41.653836 133 133 133 0
5.210214 -0.817289 41.698395 127 127 127 0
5.313925 -0.817527 41.710561 124 124 124 0
5.419889 -0.818096 41.739617 121 121 121 0
5.539720 -0.820699 41.872408 126 126 126 0
5.655086 -0.822558 41.967240 126 126 126 0
5.769566 -0.824224 42.052232 128 128 128 0
5.897784 -0.827759 42.232607 131 131 131 0
5.996379 -0.827087 42.198301 133 133 133 0
6.116309 -0.829330 42.312753 131 131 131 0
6.215145 -0.828686 42.279897 132 132 132 0
6.310080 -0.827551 42.222015 120 120 120 0
6.431523 -0.829874 42.340507 122 122 122 0
6.534927 -0.829832 42.338368 118 118 118 0
6.626924 -0.828365 42.263545 124 124 124 0
6.743879 -0.830016 42.347750 126 126 126 0
6.808657 -0.825292 42.106722 124 124 124 0
6.930181 -0.827484 42.218588 131 131 131 0
7.028570 -0.826891 42.188298 134 134 134 0
7.123481 -0.825911 42.138306 134 134 134 0
7.210104 -0.824012 42.041423 139 139 139 0
7.323078 -0.825135 42.098750 138 138 138 0
7.412812 -0.823646 42.022741 138 138 138 0
7.508331 -0.822831 41.981165 135 135 135 0
7.612557 -0.822979 41.988729 133 133 133 0
7.716507 -0.823094 41.994597 127 127 127 0
7.984805 -0.840506 42.882946 119 119 119 0
8.258818 -0.858059 43.778521 125 125 125 0
8.540202 -0.875918 44.689701 125 125 125 0
8.475402 -0.858269 43.789214 127 127 127 0
-7.566483 -0.662067 38.604504 85 85 85 0
-8.097076 -0.717462 41.834543 85 85 85 0
-7.595596 -0.681656 39.746707 80 80 80 0
-7.194333 -0.709300 41.358627 128 128 128 0
-7.087555 -0.708756 41.326852 145 145 145 0
-6.976632 -0.707774 41.269635 148 148 148 0
-6.861887 -0.706371 41.187799 154 154 154 0
-6.761769 -0.706453 41.192621 159 159 159 0
-6.660909 -0.706460 41.193007 160 160 160 0
-6.555041 -0.705927 41.161952 153 153 153 0
-6.455479 -0.706068 41.170145 149 149 149 0
-6.348875 -0.705431 41.132977 146 146 146 0
-6.206690 -0.700755 40.860372 139 139 139 0
-6.075702 -0.697212 40.653746 139 139 139 0
-5.971045 -0.696622 40.619357 141 141 141 0
-5.857211 -0.694923 40.520308 141 141 141 0
-5.736009 -0.692277 40.366001 143 143 143 0
-5.617004 -0.689807 40.222010 138 138 138 0
-5.502394 -0.687799 40.104914 137 137 137 0
-5.395308 -0.686676 40.039392 138 138 138 0
-5.288409 -0.685535 39.972858 138 138 138 0
-5.183112 -0.684562 39.916152 139 139 139 0
-5.076642 -0.683394 39.848050 141 141 141 0
-4.967459 -0.681808 39.755572 138 138 138 0
-4.873245 -0.682254 39.781590 134 134 134 0
-4.777876 -0.682554 39.799052 130 130 130 0
-4.677909 -0.682195 39.778139 125 125 125 0
-4.588858 -0.683447 39.851133 128 128 128 0
-4.497236 -0.684362 39.904487 126 126 126 0
-4.403411 -0.684975 39.940234 125 125 125 0
-4.308928 -0.685511 39.971506 124 124 124 0
-4.219344 -0.686870 40.050727 127 127 127 0
-4.123131 -0.687189 40.069301 133 133 133 0
-4.031917 -0.688376 40.138548 134 134 134 0
-3.933235 -0.688316 40.135047 133 133 133 0
-3.835139 -0.688358 40.137514 129 129 129 0
-3.739993 -0.688946 40.171780 127 127 127 0
-3.646598 -0.689897 40.227224 127 127 127 0
-3.549632 -0.690206 40.245263 127 127 127 0
-3.453505 -0.690701 40.274114 130 130 130 0
-3.358781 -0.691514 40.321506 129 129 129 0
-3.267666 -0.693141 40.416400 130 130 130 0
-3.166949 -0.692770 40.394752 130 130 130 0
-3.070083 -0.693245 40.422422 131 131 131 0
-2.978697 -0.695029 40.526494 129 129 129 0
-2.881813 -0.695610 40.560354 125 125 125 0
-2.783704 -0.695926 40.578778 121 121 121 0
-2.689955 -0.697396 40.664480 118 118 118 0
-2.600149 -0.700040 40.818673 116 116 116 0
-2.261113 -0.633112 36.916131 114 114 114 0
-2.182305 -0.636506 37.114027 111 111 111 0
-2.071798 -0.630547 36.766599 107 107 107 0
-2.211523 -0.703666 41.030115 109 109 109 0
-2.135423 -0.711808 41.504821 141 141 141 0
-2.041819 -0.714637 41.669774 154 154 154 0
-1.938116 -0.714043 41.635150 143 143 143 0
-1.832662 -0.712702 41.556964 144 144 144 0
-1.730400 -0.712517 41.546209 137 137 137 0
-1.629729 -0.713007 41.574723 141 141 141 0
-1.526249 -0.712250 41.530596 140 140 140 0
-1.423980 -0.711990 41.515449 145 145 145 0
-1.324242 -0.713053 41.577460 144 144 144 0
-1.220230 -0.711801 41.504409 147 147 147 0
-1.119180 -0.712205 41.527999 142 142 142 0
-1.017757 -0.712430 41.541102 141 141 141 0
-0.912982 -0.710097 41.405098 140 140 140 0
-0.810182 -0.708909 41.335822 139 139 139 0
-0.709437 -0.709437 41.366594 136 136 136 0
-0.607412 -0.708648 41.320576 136 136 136 0
-0.507136 -0.709991 41.398887 135 135 135 0
-0.406916 -0.712104 41.522088 142 142 142 0
-0.305181 -0.712088 41.521163 138 138 138 0
-0.202866 -0.710031 41.401221 139 139 139 0
-0.101203 -0.708421 41.307360 141 141 141 0
0.000000 -0.707235 41.238203 141 141 141 0
0.100519 -0.703630 41.028001 136 136 136 0
0.200915 -0.703201 41.002961 130 130 130 0
0.301523 -0.703554 41.023574 124 124 124 0
0.357242 -0.625173 36.453246 126 126 126 0
0.503229 -0.704521 41.079939 118 118 118 0
0.537111 -0.626630 36.538165 118 118 118 0
0.626243 -0.626243 36.515655 118 118 118 0
0.717594 -0.627895 36.611942 112 112 112 0
0.816719 -0.635226 37.039413 131 131 131 0
1.027547 -0.719283 41.940704 146 146 146 0
1.130416 -0.719356 41.944937 137 137 137 0
1.234038 -0.719855 41.974075 139 139 139 0
1.341017 -0.722086 42.104159 149 149 149 0
1.442849 -0.721424 42.065557 157 157 157 0
1.547705 -0.722262 42.114423 158 158 158 0
1.653545 -0.723426 42.182282 155 155 155 0
1.754866 -0.722592 42.133630 155 155 155 0
1.856169 -0.721844 42.090008 157 157 157 0
1.959012 -0.721741 42.084044 154 154 154 0
2.058227 -0.720380 42.004636 155 155 155 0
2.156170 -0.718723 41.908063 148 148 148 0
2.257995 -0.718453 41.892306 149 149 149 0
2.356094 -0.717072 41.811789 146 146 146 0
2.462252 -0.718157 41.875036 145 145 145 0
2.559766 -0.716734 41.792097 141 141 141 0
2.661084 -0.716446 41.775263 133 133 133 0
2.764235 -0.716653 41.787371 120 120 120 0
2.861678 -0.715419 41.715420 116 116 116 0
2.991342 -0.722048 42.101922 145 145 145 0
3.101931 -0.723784 42.203140 144 144 144 0
3.193676 -0.721153 42.049718 141 141 141 0
3.290902 -0.719885 41.975794 144 144 144 0
3.380684 -0.717115 41.814268 145 145 145 0
3.484346 -0.717365 41.828886 146 146 146 0
3.581475 -0.716295 41.766473 138 138 138 0
3.682146 -0.715973 41.747689 133 133 133 0
3.784218 -0.715933 41.745375 133 133 133 0
3.891225 -0.716805 41.796185 134 134 134 0
3.991962 -0.716506 41.778777 136 136 136 0
4.095589 -0.716728 41.791728 136 136 136 0
4.198551 -0.716826 41.797424 138 138 138 0
4.299901 -0.716650 41.787177 141 141 141 0
4.402396 -0.716669 41.788284 142 142 142 0
4.501217 -0.716103 41.755260 143 143 143 0
4.603601 -0.716116 41.756019 145 145 145 0
4.695456 -0.714526 41.663322 145 145 145 0
4.800250 -0.714931 41.686930 144 144 144 0
4.903225 -0.715054 41.694090 144 144 144 0
5.001810 -0.714544 41.664389 138 138 138 0
5.105470 -0.714766 41.677304 132 132 132 0
5.215821 -0.715897 41.743261 124 124 124 0
5.317691 -0.715843 41.740114 123 123 123 0
5.425553 -0.716582 41.783235 120 120 120 0
5.539049 -0.718025 41.867338 123 123 123 0
5.658566 -0.720181 41.993067 124 124 124 0
5.771700 -0.721462 42.067782 122 122 122 0
5.889136 -0.723227 42.170686 126 126 126 0
5.993882 -0.723400 42.180731 120 120 120 0
5.195722 -0.616442 35.944115 126 126 126 0
6.251718 -0.729367 42.528697 121 121 121 0
5.371140 -0.616360 35.939380 126 126 126 0
6.494252 -0.733222 42.753471 120 120 120 0
6.566458 -0.729606 42.542649 135 135 135 0
6.664452 -0.728924 42.502885 130 130 130 0
6.772586 -0.729355 42.528013 131 131 131 0
6.859965 -0.727572 42.424026 134 134 134 0
6.940425 -0.725119 42.280990 136 136 136 0
7.036820 -0.724379 42.237817 136 136 136 0
7.133010 -0.723639 42.194678 136 136 136 0
7.248995 -0.724900 42.268193 139 139 139 0
7.321978 -0.721885 42.092428 135 135 135 0
7.422248 -0.721607 42.076238 135 135 135 0
7.522343 -0.721321 42.059509 130 130 130 0
7.623298 -0.721123 42.047978 127 127 127 0
7.879747 -0.735443 42.882979 126 126 126 0
7.986330 -0.735583 42.891141 122 122 122 0
8.260634 -0.750967 43.788150 126 126 126 0
8.542790 -0.766661 44.703246 127 127 127 0
8.652521 -0.766679 44.704321 131 131 131 0
-8.207479 -0.615561 41.874895 80 80 80 0
-7.197939 -0.608277 41.379356 130 130 130 0
-7.088115 -0.607553 41.330117 146 146 146 0
-6.980200 -0.606974 41.290742 148 148 148 0
-6.863567 -0.605609 41.197881 152 152 152 0
-6.763703 -0.605705 41.204405 153 153 153 0
-6.661672 -0.605607 41.197726 155 155 155 0
-6.554257 -0.605008 41.157029 146 146 146 0
-6.447432 -0.604447 41.118827 141 141 141 0
-6.303861 -0.600368 40.841341 137 137 137 0
-6.177895 -0.597861 40.670806 135 135 135 0
-6.060666 -0.596131 40.553135 136 136 136 0
-5.953083 -0.595308 40.497160 138 138 138 0
-5.840115 -0.593910 40.402040 135 135 135 0
-5.717788 -0.591495 40.237775 139 139 139 0
-5.605930 -0.590098 40.142716 139 139 139 0
-5.491892 -0.588417 40.028365 139 139 139 0
-5.386995 -0.587672 39.977698 136 136 136 0
-5.277353 -0.586373 39.889293 141 141 141 0
-5.170087 -0.585293 39.815843 141 141 141 0
-5.068079 -0.584778 39.780840 140 140 140 0
-4.959695 -0.583494 39.693439 140 140 140 0
-4.867246 -0.584069 39.732617 139 139 139 0
-4.770452 -0.584137 39.737209 134 134 134 0
-4.670911 -0.583864 39.718627 130 130 130 0
-4.581564 -0.584881 39.787789 124 124 124 0
-4.491723 -0.585877 39.855569 123 123 123 0
-4.396399 -0.586187 39.876638 127 127 127 0
-4.303749 -0.586875 39.923459 127 127 127 0
-4.212316 -0.587765 39.984019 127 127 127 0
-4.117226 -0.588175 40.011913 131 131 131 0
-4.022926 -0.588721 40.049040 134 134 134 0
-3.928751 -0.589313 40.089294 133 133 133 0
-3.831113 -0.589402 40.095375 129 129 129 0
-3.735770 -0.589858 40.126420 127 127 127 0
-3.644478 -0.590996 40.203841 128 128 128 0
-3.547272 -0.591212 40.218504 128 128 128 0
-3.449683 -0.591374 40.229541 128 128 128 0
-3.356693 -0.592358 40.296431 129 129 129 0
-3.263456 -0.593356 40.364333 131 131 131 0
-3.163541 -0.593164 40.351287 131 131 131 0
-3.066150 -0.593448 40.370633 131 131 131 0
-2.976408 -0.595282 40.495344 129 129 129 0
-2.878559 -0.595564 40.514560 125 125 125 0
-2.779898 -0.595692 40.523292 122 122 122 0
-2.688528 -0.597451 40.642905 120 120 120 0
-2.352134 -0.542800 36.925186 118 118 118 0
-2.259077 -0.542178 36.882890 115 115 115 0
-2.169444 -0.542361 36.895305 109 109 109 0
-2.290694 -0.597572 40.651171 109 109 109 0
-2.214029 -0.603826 41.076606 99 99 99 0
-2.137839 -0.610811 41.551776 142 142 142 0
-2.040517 -0.612155 41.643202 147 147 147 0
-1.938832 -0.612263 41.650525 148 148 148 0
-1.830165 -0.610055 41.500329 147 147 147 0
-1.727253 -0.609619 41.470665 139 139 139 0
-1.625999 -0.609750 41.479561 141 141 141 0
-1.522947 -0.609179 41.440731 140 140 140 0
-1.422480 -0.609634 41.471724 139 139 139 0
-1.323464 -0.610830 41.553031 142 142 142 0
-1.219359 -0.609679 41.474785 139 139 139 0
-1.115408 -0.608405 41.388065 140 140 140 0
-1.014083 -0.608450 41.391148 140 140 140 0
-0.910693 -0.607129 41.301285 142 142 142 0
-0.808940 -0.606705 41.272441 143 143 143 0
-0.707890 -0.606762 41.276358 141 141 141 0
-0.607348 -0.607348 41.316170 134 134 134 0
-0.505487 -0.606585 41.264282 138 138 138 0
-0.405393 -0.608090 41.366634 142 142 142 0
-0.304005 -0.608010 41.361207 143 143 143 0
-0.202391 -0.607172 41.304200 137 137 137 0
-0.100845 -0.605067 41.161030 137 137 137 0
0.000000 -0.603595 41.060901 139 139 139 0
0.100394 -0.602363 40.977074 139 139 139 0
0.200385 -0.601156 40.894973 133 133 133 0
0.300367 -0.600734 40.866250 128 128 128 0
0.401516 -0.602274 40.971044 123 123 123 0
0.501828 -0.602193 40.965513 116 116 116 0
0.535451 -0.535451 36.425208 116 116 116 0
0.625759 -0.536364 36.487379 111 111 111 0
0.715367 -0.536525 36.498299 111 111 111 0
0.910614 -0.607076 41.297700 110 110 110 0
1.024854 -0.614912 41.830774 136 136 136 0
1.130481 -0.616626 41.947348 137 137 137 0
1.236099 -0.618050 42.044187 143 143 143 0
1.339671 -0.618310 42.061889 143 143 143 0
1.441131 -0.617628 42.015492 138 138 138 0
1.545538 -0.618215 42.055445 146 146 146 0
1.646400 -0.617400 42.000000 149 149 149 0
1.753230 -0.618787 42.094353 158 158 158 0
1.854622 -0.618207 42.054911 160 160 160 0
1.958318 -0.618416 42.069129 155 155 155 0
2.059552 -0.617866 42.031669 151 151 151 0
2.157915 -0.616547 41.941977 153 153 153 0
2.256149 -0.615313 41.858048 152 152 152 0
2.356565 -0.614756 41.820135 154 154 154 0
2.459925 -0.614981 41.835459 146 146 146 0
2.562835 -0.615080 41.842201 137 137 137 0
2.664441 -0.614871 41.827956 135 135 135 0
2.769119 -0.615360 41.861214 130 130 130 0
2.864336 -0.613786 41.754172 115 115 115 0
2.993380 -0.619320 42.130613 143 143 143 0
3.099243 -0.619849 42.166574 141 141 141 0
3.195133 -0.618413 42.068899 143 143 143 0
3.286362 -0.616193 41.917884 147 147 147 0
3.381873 -0.614886 41.828980 144 144 144 0
3.486401 -0.615247 41.853550 136 136 136 0
3.587744 -0.615042 41.839576 137 137 137 0
3.692437 -0.615406 41.864360 133 133 133 0
3.791538 -0.614844 41.826127 133 133 133 0
3.897708 -0.615428 41.865826 135 135 135 0
3.995447 -0.614684 41.815254 136 136 136 0
4.100085 -0.615013 41.837599 137 137 137 0
4.203542 -0.615152 41.847104 139 139 139 0
4.300168 -0.614310 41.789773 142 142 142 0
4.403401 -0.614428 41.797824 141 141 141 0
4.505308 -0.614360 41.793207 142 142 142 0
4.608115 -0.614415 41.796960 142 142 142 0
4.699889 -0.613029 41.702650 143 143 143 0
4.807559 -0.613731 41.750400 142 142 142 0
4.912068 -0.614009 41.769287 144 144 144 0
4.994857 -0.611615 41.606468 141 141 141 0
5.108850 -0.613062 41.704899 135 135 135 0
5.223701 -0.614553 41.806333 126 126 126 0
5.314676 -0.613232 41.716455 122 122 122 0
5.420444 -0.613635 41.743886 125 125 125 0
5.533209 -0.614801 41.823195 126 126 126 0
5.648977 -0.616252 41.921906 123 123 123 0
5.754230 -0.616525 41.940449 125 125 125 0
4.954109 -0.521485 35.475178 123 123 123 0
5.047896 -0.522196 35.523545 118 118 118 0
5.195348 -0.528340 35.941528 124 124 124 0
5.224026 -0.522403 35.537592 125 125 125 0
6.366248 -0.626188 42.597845 128 128 128 0
6.504896 -0.629506 42.823543 133 133 133 0
6.624554 -0.630910 42.919044 139 139 139 0
6.700983 -0.628217 42.735861 135 135 135 0
6.788916 -0.626669 42.630554 138 138 138 0
6.881104 -0.625555 42.554754 138 138 138 0
6.954162 -0.622761 42.364681 140 140 140 0
7.048213 -0.621901 42.306199 136 136 136 0
7.141548 -0.621004 42.245179 134 134 134 0
7.244311 -0.620941 42.240881 134 134 134 0
7.344544 -0.620666 42.222153 134 134 134 0
7.436171 -0.619681 42.155165 130 130 130 0
7.525511 -0.618535 42.077221 125 125 125 0
7.644126 -0.619794 42.162858 128 128 128 0
7.724488 -0.617959 42.038030 122 122 122 0
8.155038 -0.643819 43.797198 124 124 124 0
8.264529 -0.643989 43.808793 129 129 129 0
8.543844 -0.657219 44.708760 137 137 137 0
8.481700 -0.644180 43.821751 139 139 139 0
-7.197119 -0.506839 41.374639 127 127 127 0
-7.094388 -0.506742 41.366697 143 143 143 0
-6.983456 -0.506048 41.310003 148 148 148 0
-6.867513 -0.504964 41.221565 148 148 148 0
-6.764878 -0.504842 41.211565 151 151 151 0
-6.661523 -0.504661 41.196801 142 142 142 0
-6.544570 -0.503428 41.096200 136 136 136 0
-6.411934 -0.500932 40.892434 142 142 142 0
-6.276658 -0.498147 40.665101 139 139 139 0
-6.160981 -0.496853 40.559456 138 138 138 0
-6.045141 -0.495503 40.449252 134 134 134 0
-5.938041 -0.494837 40.394836 138 138 138 0
-5.824381 -0.493592 40.293196 137 137 137 0
-5.706786 -0.491964 40.160353 137 137 137 0
-5.596400 -0.490912 40.074469 140 140 140 0
-5.486790 -0.489892 39.991178 140 140 140 0
-5.380427 -0.489130 39.928955 140 140 140 0
-5.267776 -0.487757 39.816904 139 139 139 0
-5.165404 -0.487302 39.779773 142 142 142 0
-5.056349 -0.486187 39.688765 141 141 141 0
-4.953673 -0.485654 39.645241 140 140 140 0
-4.862973 -0.486297 39.697739 140 140 140 0
-4.763172 -0.486038 39.676569 136 136 136 0
-4.667340 -0.486181 39.688268 132 132 132 0
-4.573291 -0.486520 39.715943 124 124 124 0
-4.486410 -0.487653 39.808429 124 124 124 0
-4.389058 -0.487673 39.810051 122 122 122 0
-4.300353 -0.488676 39.891954 125 125 125 0
-4.207411 -0.489234 39.937455 130 130 130 0
-4.112540 -0.489588 39.966372 131 131 131 0
-4.018656 -0.490080 40.006526 131 131 131 0
-3.923670 -0.490459 40.037449 128 128 128 0
-3.827750 -0.490737 40.060179 130 130 130 0
-3.733331 -0.491228 40.100226 128 128 128 0
-3.639393 -0.491810 40.147744 128 128 128 0
-3.545342 -0.492409 40.196619 128 128 128 0
-3.446707 -0.492387 40.194829 127 127 127 0
-3.353906 -0.493222 40.262981 129 129 129 0
-3.260199 -0.493970 40.324049 129 129 129 0
-3.162721 -0.494175 40.340831 131 131 131 0
-3.064289 -0.494240 40.346129 134 134 134 0
-2.971903 -0.495317 40.434054 129 129 129 0
-2.874484 -0.495601 40.457204 127 127 127 0
-2.775613 -0.495645 40.460828 121 121 121 0
-2.430221 -0.450041 36.738032 120 120 120 0
-2.593904 -0.498828 40.720631 113 113 113 0
-2.259406 -0.451881 36.888259 112 112 112 0
-2.169042 -0.451884 36.888461 112 112 112 0
-2.291321 -0.498113 40.662299 110 110 110 0
-2.216215 -0.503685 41.117156 103 103 103 0
-2.138636 -0.509199 41.567277 138 138 138 0
-2.039075 -0.509769 41.613780 146 146 146 0
-1.932744 -0.508617 41.519740 139 139 139 0
-1.827116 -0.507532 41.431207 141 141 141 0
-1.725852 -0.507604 41.437022 137 137 137 0
-1.624762 -0.507738 41.448018 138 138 138 0
-1.519397 -0.506466 41.344126 137 137 137 0
-1.420270 -0.507239 41.407275 138 138 138 0
-1.318902 -0.507270 41.409798 140 140 140 0
-1.215445 -0.506435 41.341661 140 140 140 0
-1.111960 -0.505436 41.260097 142 142 142 0
-1.011911 -0.505955 41.302485 143 143 143 0
-0.910550 -0.505861 41.294782 146 146 146 0
-0.807919 -0.504950 41.220371 145 145 145 0
-0.707978 -0.505699 41.281510 146 146 146 0
-0.606197 -0.505164 41.237911 140 140 140 0
-0.505139 -0.505139 41.235849 141 141 141 0
-0.404425 -0.505531 41.267824 139 139 139 0
-0.302674 -0.504457 41.180171 139 139 139 0
-0.201013 -0.502532 41.023022 135 135 135 0
-0.100390 -0.501951 40.975616 130 130 130 0
0.000000 -0.501050 40.902014 135 135 135 0
0.100084 -0.500419 40.850544 138 138 138 0
0.200003 -0.500009 40.817025 135 135 135 0
0.299896 -0.499827 40.802221 128 128 128 0
0.400373 -0.500466 40.854368 122 122 122 0
0.500868 -0.500868 40.887177 121 121 121 0
0.534543 -0.445453 36.363481 119 119 119 0
0.625770 -0.446978 36.488021 115 115 115 0
0.713704 -0.446065 36.413473 116 116 116 0
0.802721 -0.445956 36.404569 109 109 109 0
1.014950 -0.507475 41.426541 117 117 117 0
1.128118 -0.512781 41.859683 141 141 141 0
1.235048 -0.514603 42.008434 150 150 150 0
1.338305 -0.514733 42.018992 149 149 149 0
1.439525 -0.514116 41.968651 139 139 139 0
1.537800 -0.512600 41.844895 135 135 135 0
1.643532 -0.513604 41.926829 140 140 140 0
1.744763 -0.513165 41.891061 144 144 144 0
