ply
format ascii 1.0
element vertex 1129
property float x
property float y
property float z
property uchar red
property uchar green
property uchar blue
property uchar alpha
end_header
-6.281827 0.676504 39.446325 120 120 120 0
-6.192490 0.677304 39.492923 119 119 119 0
-6.103591 0.678177 39.543835 117 117 117 0
-6.002778 0.677733 39.517957 113 113 113 0
-5.917182 0.679021 39.593052 110 110 110 0
-5.834343 0.680673 39.689407 104 104 104 0
-5.271624 0.625447 36.469207 105 105 105 0
-5.653037 0.682263 39.782103 111 111 111 0
-5.574784 0.684623 39.919686 108 108 108 0
-5.487065 0.685883 39.993183 115 115 115 0
-5.397496 0.686954 40.055629 124 124 124 0
-5.312173 0.688615 40.152478 129 129 129 0
-5.211655 0.688332 40.135964 130 130 130 0
-5.114650 0.688511 40.146388 133 133 133 0
-5.014972 0.688329 40.135829 134 134 134 0
-4.919015 0.688662 40.155222 132 132 132 0
-4.814986 0.687855 40.108174 135 135 135 0
-4.716405 0.687809 40.105489 137 137 137 0
-4.622233 0.688418 40.140976 138 138 138 0
-4.523102 0.688298 40.134000 137 137 137 0
-4.423283 0.688066 40.120485 135 135 135 0
-4.326570 0.688318 40.135154 134 134 134 0
-4.230557 0.688695 40.157160 134 134 134 0
-4.128648 0.688108 40.122917 133 133 133 0
-4.035196 0.688936 40.171186 133 133 133 0
-3.936855 0.688950 40.171992 130 130 130 0
-3.839741 0.689184 40.185674 128 128 128 0
-3.742371 0.689384 40.197325 126 126 126 0
-3.649729 0.690489 40.261768 124 124 124 0
-3.555607 0.691368 40.313008 123 123 123 0
-3.454529 0.690906 40.286052 118 118 118 0
-3.359880 0.691740 40.334697 117 117 117 0
-3.271570 0.693969 40.464686 115 115 115 0
-3.171104 0.693679 40.447758 116 116 116 0
-3.074223 0.694179 40.476930 114 114 114 0
-2.981653 0.695719 40.566706 108 108 108 0
-2.890543 0.697717 40.683228 109 109 109 0
-2.795211 0.698803 40.746514 104 104 104 0
-2.699999 0.700000 40.816317 109 109 109 0
-2.606881 0.701853 40.924354 104 104 104 0
-2.270681 0.635791 37.072336 110 110 110 0
-2.183729 0.636921 37.138241 102 102 102 0
-2.103073 0.640066 37.321610 106 106 106 0
-2.014542 0.640991 37.375556 101 101 101 0
-1.921246 0.640415 37.341998 100 100 100 0
-1.840655 0.644229 37.564384 96 96 96 0
-1.753530 0.646037 37.669822 91 91 91 0
-1.701508 0.661698 38.582946 90 90 90 0
-1.576807 0.649273 37.858505 76 76 76 0
-1.591855 0.696437 40.608554 68 68 68 0
-1.497668 0.698912 40.752865 70 70 70 0
-1.419430 0.709715 41.382784 77 77 77 0
-1.312193 0.706566 41.199155 78 78 78 0
-1.157318 0.675102 39.364566 81 81 81 0
-1.198056 0.762399 44.454772 127 127 127 0
-1.092007 0.764405 44.571713 134 134 134 0
-0.978280 0.760884 44.366442 135 135 135 0
-0.868673 0.760089 44.320034 142 142 142 0
-0.762575 0.762575 44.464987 138 138 138 0
-0.653311 0.762196 44.442927 143 143 143 0
-0.545948 0.764327 44.567145 145 145 145 0
-0.436665 0.764163 44.557628 145 145 145 0
-0.325862 0.760346 44.335026 142 142 142 0
-0.215128 0.752947 43.903620 138 138 138 0
-0.107157 0.750097 43.737437 138 138 138 0
0.000000 0.748525 43.645787 139 139 139 0
0.106413 0.744892 43.433913 138 138 138 0
0.212779 0.744727 43.424340 141 141 141 0
0.317755 0.741429 43.231993 140 140 140 0
0.422855 0.739996 43.148451 142 142 142 0
0.527408 0.738371 43.053696 137 137 137 0
0.631114 0.736300 42.932941 142 142 142 0
0.735144 0.735144 42.865546 141 141 141 0
0.838801 0.733951 42.795991 140 140 140 0
0.941344 0.732157 42.691349 141 141 141 0
1.046190 0.732333 42.701644 141 141 141 0
1.148527 0.730881 42.616974 143 143 143 0
1.249798 0.729049 42.510151 141 141 141 0
1.356339 0.730336 42.585214 141 141 141 0
1.456919 0.728460 42.475783 143 143 143 0
1.557583 0.726872 42.383218 143 143 143 0
1.662363 0.727284 42.407216 141 141 141 0
1.762363 0.725679 42.313633 140 140 140 0
1.860450 0.723508 42.187080 141 141 141 0
1.964993 0.723945 42.212533 141 141 141 0
2.064689 0.722641 42.136512 140 140 140 0
2.165972 0.721991 42.098591 141 141 141 0
2.266838 0.721267 42.056373 139 139 139 0
2.369258 0.721079 42.045402 135 135 135 0
2.472037 0.721011 42.041450 132 132 132 0
2.575499 0.721140 42.048956 128 128 128 0
2.682609 0.722241 42.113165 120 120 120 0
2.791577 0.723742 42.200714 115 115 115 0
2.897202 0.724301 42.233267 112 112 112 0
3.005817 0.725542 42.305663 111 111 111 0
3.120143 0.728033 42.450920 117 117 117 0
3.221592 0.727456 42.417270 120 120 120 0
3.332044 0.728885 42.500561 121 121 121 0
3.443993 0.730544 42.597311 122 122 122 0
3.549958 0.730874 42.616542 120 120 120 0
3.655662 0.731132 42.631629 120 120 120 0
3.770477 0.733148 42.749173 117 117 117 0
3.883463 0.734709 42.840191 113 113 113 0
3.991745 0.735322 42.875890 103 103 103 0
4.110031 0.737698 43.014454 96 96 96 0
4.218794 0.738289 43.048921 97 97 97 0
4.342056 0.741327 43.226040 104 104 104 0
4.461403 0.743567 43.356688 112 112 112 0
4.576668 0.745039 43.442504 125 125 125 0
4.685793 0.745467 43.467463 130 130 130 0
4.808097 0.747926 43.610857 132 132 132 0
4.908092 0.746884 43.550064 128 128 128 0
5.013847 0.746743 43.541876 124 124 124 0
5.130066 0.748135 43.623009 118 118 118 0
5.239289 0.748470 43.642559 114 114 114 0
5.355250 0.749735 43.716326 112 112 112 0
5.473513 0.751266 43.805624 113 113 113 0
5.582519 0.751493 43.818833 110 110 110 0
5.705098 0.753503 43.936064 105 105 105 0
5.831300 0.755909 44.076342 99 99 99 0
5.948093 0.757030 44.141689 88 88 88 0
-7.775050 0.777505 39.668623 130 130 130 0
-7.652029 0.774889 39.535156 132 132 132 0
-7.544855 0.773831 39.481190 132 132 132 0
-7.441252 0.773117 39.444748 132 132 132 0
-7.326775 0.771239 39.348953 128 128 128 0
-7.231783 0.771390 39.356640 128 128 128 0
-7.130319 0.770845 39.328843 128 128 128 0
-7.019395 0.769249 39.247384 128 128 128 0
-6.928027 0.769781 39.274527 124 124 124 0
-6.835784 0.770229 39.297407 125 125 125 0
-6.739185 0.770193 39.295539 128 128 128 0
-6.637417 0.769556 39.263039 124 124 124 0
-6.548221 0.770379 39.305049 124 124 124 0
-6.447937 0.769903 39.280762 122 122 122 0
-6.354764 0.770274 39.299715 120 120 120 0
-6.266734 0.771290 39.351548 120 120 120 0
-6.177052 0.772132 39.394465 118 118 118 0
-6.084646 0.772654 39.421098 115 115 115 0
-5.991572 0.773106 39.444184 114 114 114 0
-5.908007 0.774821 39.531663 112 112 112 0
-5.340582 0.712078 36.330491 108 108 108 0
-5.733447 0.777417 39.664111 104 104 104 0
-5.645261 0.778657 39.727380 105 105 105 0
-5.568980 0.781611 39.878124 112 112 112 0
-5.477477 0.782497 39.923300 117 117 117 0
-5.391191 0.784173 40.008841 130 130 130 0
-5.301286 0.785376 40.070192 133 133 133 0
-5.203907 0.785495 40.076298 133 133 133 0
-5.107946 0.785838 40.093767 136 136 136 0
-5.007304 0.785459 40.074460 137 137 137 0
-4.911487 0.785838 40.093768 135 135 135 0
-4.811537 0.785557 40.079442 140 140 140 0
-4.712061 0.785344 40.068549 138 138 138 0
-4.616077 0.785715 40.087508 138 138 138 0
-4.516870 0.785543 40.078704 137 137 137 0
-4.418383 0.785490 40.076036 139 139 139 0
-4.321255 0.785683 40.085856 137 137 137 0
-4.225209 0.786085 40.106399 136 136 136 0
-4.124462 0.785612 40.082236 135 135 135 0
-4.028178 0.785986 40.101323 134 134 134 0
-3.930243 0.786049 40.104519 132 132 132 0
-3.833169 0.786291 40.116896 131 131 131 0
-3.737363 0.786813 40.143538 129 129 129 0
-3.645407 0.788196 40.214091 129 129 129 0
-3.547899 0.788422 40.225613 126 126 126 0
-3.449232 0.788396 40.224280 124 124 124 0
-3.355125 0.789441 40.277607 125 125 125 0
-3.261092 0.790568 40.335089 119 119 119 0
-3.163082 0.790770 40.345433 114 114 114 0
-3.069015 0.792004 40.408356 115 115 115 0
-2.975567 0.793485 40.483910 112 112 112 0
-2.881810 0.794982 40.560304 115 115 115 0
-2.788539 0.796725 40.649257 108 108 108 0
-2.687933 0.796425 40.633907 105 105 105 0
-2.350320 0.723175 36.896704 108 108 108 0
-2.261370 0.723638 36.920320 110 110 110 0
-2.411871 0.803957 41.018213 103 103 103 0
-2.095573 0.728895 37.188510 104 104 104 0
-2.006174 0.729518 37.220302 102 102 102 0
-1.924655 0.733202 37.408262 97 97 97 0
-1.841020 0.736408 37.571832 99 99 99 0
-1.753836 0.738457 37.676391 98 98 98 0
-1.635772 0.727010 37.092336 93 93 93 0
-1.619273 0.762011 38.878113 90 90 90 0
-1.598312 0.799156 40.773258 72 72 72 0
-1.517107 0.809124 41.281814 73 73 73 0
-1.325326 0.815585 41.611498 70 70 70 0
-1.236471 0.824314 42.056820 74 74 74 0
-1.071730 0.779440 39.767355 82 82 82 0
-1.088868 0.871094 44.443572 123 123 123 0
-0.979030 0.870248 44.400433 134 134 134 0
-0.871403 0.871403 44.459331 138 138 138 0
-0.764251 0.873429 44.562722 144 144 144 0
-0.655068 0.873424 44.562456 146 146 146 0
-0.546315 0.874104 44.597123 145 145 145 0
-0.436773 0.873545 44.568625 144 144 144 0
-0.324795 0.866119 44.189745 138 138 138 0
-0.214822 0.859290 43.841306 133 133 133 0
-0.107061 0.856486 43.698268 135 135 135 0
0.000000 0.853233 43.532303 137 137 137 0
0.106300 0.850402 43.387844 137 137 137 0
0.212321 0.849283 43.330789 140 140 140 0
0.317671 0.847123 43.220547 138 138 138 0
0.422552 0.845105 43.117584 137 137 137 0
0.526496 0.842393 42.979229 141 141 141 0
0.630702 0.840937 42.904927 138 138 138 0
0.735658 0.840752 42.895487 140 140 140 0
0.838070 0.838070 42.758688 139 139 139 0
0.940420 0.835929 42.649440 141 141 141 0
1.045878 0.836702 42.688891 142 142 142 0
1.147601 0.834619 42.582587 142 142 142 0
1.250143 0.833429 42.521865 141 141 141 0
1.355680 0.834265 42.564522 142 142 142 0
1.455971 0.831983 42.448130 145 145 145 0
1.558153 0.831015 42.398715 144 144 144 0
1.662236 0.831118 42.403983 142 142 142 0
1.762025 0.829188 42.305517 144 144 144 0
1.861198 0.827199 42.204038 142 142 142 0
1.962889 0.826480 42.167329 141 141 141 0
2.063197 0.825279 42.106067 143 143 143 0
2.162845 0.823941 42.037795 146 146 146 0
2.266386 0.824140 42.047972 145 145 145 0
2.368702 0.823897 42.035536 140 140 140 0
2.471698 0.823899 42.035684 134 134 134 0
2.574812 0.823940 42.037751 127 127 127 0
2.681620 0.825114 42.097649 117 117 117 0
2.788402 0.826193 42.152719 114 114 114 0
2.896226 0.827493 42.219044 109 109 109 0
3.004321 0.828778 42.284604 113 113 113 0
3.117077 0.831221 42.409216 118 118 118 0
3.222044 0.831495 42.423222 119 119 119 0
3.331747 0.832937 42.496771 121 121 121 0
3.444688 0.835076 42.605910 122 122 122 0
3.548614 0.834968 42.600410 124 124 124 0
3.654230 0.835253 42.614929 121 121 121 0
3.771159 0.838035 42.756901 121 121 121 0
3.876497 0.838162 42.763348 116 116 116 0
3.988048 0.839589 42.836180 107 107 107 0
4.104557 0.841960 42.957161 96 96 96 0
4.216757 0.843351 43.028128 96 96 96 0
4.334986 0.845851 43.155663 99 99 99 0
4.459680 0.849463 43.339946 107 107 107 0
4.575811 0.851314 43.434374 125 125 125 0
4.684833 0.851788 43.458559 130 130 130 0
4.804197 0.854079 43.575483 133 133 133 0
4.903363 0.852759 43.508100 134 134 134 0
5.009741 0.852722 43.506221 129 129 129 0
5.124253 0.854042 43.573584 125 125 125 0
5.240836 0.855647 43.655442 117 117 117 0
5.346254 0.855401 43.642887 113 113 113 0
5.469469 0.857956 43.773263 111 111 111 0
5.582251 0.858808 43.816729 112 112 112 0
5.696737 0.859885 43.871674 108 108 108 0
5.825206 0.862993 44.030280 102 102 102 0
5.951561 0.865682 44.167428 90 90 90 0
-7.741921 0.870966 39.499594 132 132 132 0
-7.622281 0.868361 39.381459 134 134 134 0
-7.522866 0.868023 39.366124 131 131 131 0
-7.414422 0.866621 39.302529 131 131 131 0
-7.305391 0.865112 39.234108 128 128 128 0
-7.211153 0.865338 39.244367 129 129 129 0
-7.107676 0.864447 39.203952 126 126 126 0
-7.002847 0.863365 39.154860 127 127 127 0
-6.913467 0.864183 39.191990 125 125 125 0
-6.812198 0.863518 39.161817 128 128 128 0
-6.714734 0.863323 39.152966 124 124 124 0
-6.621189 0.863633 39.167048 124 124 124 0
-6.532688 0.864620 39.211813 124 124 124 0
-6.436283 0.864575 39.209766 123 123 123 0
-6.340488 0.864612 39.211428 122 122 122 0
-6.249125 0.865263 39.240973 120 120 120 0
-6.159041 0.866115 39.279595 118 118 118 0
-6.067702 0.866815 39.311317 116 116 116 0
-5.977279 0.867670 39.350091 112 112 112 0
-5.896108 0.869918 39.452046 110 110 110 0
-5.804058 0.870609 39.483389 109 109 109 0
-5.718297 0.872283 39.559299 100 100 100 0
-5.637153 0.874731 39.670322 101 101 101 0
-5.552064 0.876642 39.756994 105 105 105 0
-5.467998 0.878785 39.854210 113 113 113 0
-5.387064 0.881520 39.978214 136 136 136 0
-5.298433 0.883072 40.048626 142 142 142 0
-5.197655 0.882621 40.028148 139 139 139 0
-5.100110 0.882711 40.032264 138 138 138 0
-5.003081 0.882897 40.040661 138 138 138 0
-4.905173 0.882931 40.042225 138 138 138 0
-4.804599 0.882477 40.021647 138 138 138 0
-4.707207 0.882601 40.027267 138 138 138 0
-4.610102 0.882786 40.035625 138 138 138 0
-4.511217 0.882629 40.028548 138 138 138 0
-4.415185 0.883037 40.047026 138 138 138 0
-4.315388 0.882693 40.031426 138 138 138 0
-4.217873 0.882811 40.036764 137 137 137 0
-4.118561 0.882549 40.024889 137 137 137 0
-4.024459 0.883418 40.064300 135 135 135 0
-3.928152 0.883834 40.083188 132 132 132 0
-3.828589 0.883521 40.068959 133 133 133 0
-3.733028 0.884138 40.096975 130 130 130 0
-3.638977 0.885157 40.143157 132 132 132 0
-3.542733 0.885683 40.167045 127 127 127 0
-3.444588 0.885751 40.170120 127 127 127 0
-3.351640 0.887199 40.235779 127 127 127 0
-3.255100 0.887754 40.260971 124 124 124 0
-3.157318 0.887996 40.271912 124 124 124 0
-3.061138 0.888717 40.304647 119 119 119 0
-2.969966 0.890990 40.407697 118 118 118 0
-2.875455 0.892383 40.470862 113 113 113 0
-2.777082 0.892634 40.482250 107 107 107 0
-2.683879 0.894626 40.572622 109 109 109 0
-2.595968 0.898604 40.753023 107 107 107 0
-2.256566 0.812364 36.841887 103 103 103 0
-2.176691 0.816259 37.018560 105 105 105 0
-2.087154 0.816712 37.039106 102 102 102 0
-2.219016 0.907779 41.169127 98 98 98 0
-1.920463 0.823056 37.326788 100 100 100 0
-1.825650 0.821543 37.258164 104 104 104 0
-1.748906 0.828429 37.570493 96 96 96 0
-1.663364 0.831682 37.718002 93 93 93 0
-1.649761 0.873403 39.610108 96 96 96 0
-1.513843 0.851536 38.618433 79 79 79 0
-1.499649 0.899790 40.806785 67 67 67 0
-1.419272 0.912389 41.378207 67 67 67 0
-1.226777 0.920083 41.727101 68 68 68 0
-1.142283 0.934595 42.385272 76 76 76 0
-0.967598 0.870838 39.493801 85 85 85 0
-0.980507 0.980507 44.467456 126 126 126 0
-0.874395 0.983694 44.611986 142 142 142 0
-0.767148 0.986333 44.731667 144 144 144 0
-0.657041 0.985561 44.696640 149 149 149 0
-0.546759 0.984166 44.633361 141 141 141 0
-0.434459 0.977534 44.332586 139 139 139 0
-0.323407 0.970221 44.000969 134 134 134 0
-0.214366 0.964646 43.748107 136 136 136 0
-0.106971 0.962740 43.661697 138 138 138 0
0.000000 0.959366 43.508645 136 136 136 0
0.106249 0.956238 43.366804 135 135 135 0
0.212219 0.954983 43.309909 137 137 137 0
0.317656 0.952967 43.218465 141 141 141 0
0.422377 0.950349 43.099713 139 139 139 0
0.526439 0.947590 42.974617 138 138 138 0
0.630136 0.945204 42.866386 138 138 138 0
0.733817 0.943480 42.788192 137 137 137 0
0.836758 0.941352 42.691721 141 141 141 0
0.940716 0.940716 42.662874 140 140 140 0
1.045264 0.940738 42.663853 143 143 143 0
1.147278 0.938682 42.570599 143 143 143 0
1.249010 0.936757 42.483326 140 140 140 0
1.354731 0.937891 42.534720 144 144 144 0
1.456283 0.936182 42.457239 143 143 143 0
1.557294 0.934376 42.375343 143 143 143 0
1.662941 0.935404 42.421972 143 143 143 0
1.763580 0.933660 42.342861 144 144 144 0
1.861064 0.930532 42.200990 143 143 143 0
1.965065 0.930820 42.214073 141 141 141 0
2.063468 0.928560 42.111583 143 143 143 0
2.163688 0.927295 42.054188 148 148 148 0
2.267047 0.927428 42.060242 151 151 151 0
2.367799 0.926530 42.019512 143 143 143 0
2.470311 0.926367 42.012093 134 134 134 0
2.574373 0.926774 42.030578 126 126 126 0
2.682654 0.928611 42.113874 116 116 116 0
2.788254 0.929418 42.150469 110 110 110 0
2.897253 0.931260 42.234009 110 110 110 0
3.005926 0.932873 42.307187 112 112 112 0
3.117054 0.935116 42.408902 119 119 119 0
3.219594 0.934721 42.390968 124 124 124 0
3.330086 0.936587 42.475587 123 123 123 0
3.442011 0.938730 42.572803 124 124 124 0
3.546124 0.938680 42.570510 124 124 124 0
3.652118 0.939116 42.590292 125 125 125 0
3.767960 0.941990 42.720630 123 123 123 0
3.874221 0.942378 42.738236 119 119 119 0
3.984738 0.943754 42.800624 110 110 110 0
4.102402 0.946708 42.934605 95 95 95 0
4.210546 0.947373 42.964760 94 94 94 0
4.323251 0.949006 43.038840 97 97 97 0
4.455945 0.954845 43.303646 104 104 104 0
4.575180 0.957596 43.428378 121 121 121 0
4.691132 0.959550 43.516992 129 129 129 0
4.809995 0.961999 43.628070 132 132 132 0
4.907697 0.960202 43.546561 134 134 134 0
5.011386 0.959627 43.520503 134 134 134 0
5.123526 0.960661 43.567400 128 128 128 0
5.235365 0.961598 43.609873 124 124 124 0
5.341503 0.961470 43.604104 117 117 117 0
5.458393 0.963246 43.684622 114 114 114 0
5.580750 0.965899 43.804943 113 113 113 0
5.688557 0.965981 43.808678 110 110 110 0
5.810345 0.968391 43.917949 105 105 105 0
5.937218 0.971545 44.060989 92 92 92 0
-7.714169 0.964271 39.358007 138 138 138 0
-7.601706 0.962241 39.275152 135 135 135 0
-7.501849 0.961776 39.256144 134 134 134 0
-7.388535 0.959550 39.165304 132 132 132 0
-7.287044 0.958822 39.135573 130 130 130 0
-7.189960 0.958661 39.129032 132 132 132 0
-7.088531 0.957910 39.098351 129 129 129 0
-6.989751 0.957500 39.081640 126 126 126 0
-6.890976 0.957080 39.064488 127 127 127 0
-6.798213 0.957495 39.081422 129 129 129 0
-6.700102 0.957157 39.067652 125 125 125 0
-6.603945 0.957093 39.065039 127 127 127 0
-6.515126 0.958107 39.106397 125 125 125 0
-6.420430 0.958273 39.113189 123 123 123 0
-6.320918 0.957715 39.090402 121 121 121 0
-6.233704 0.959031 39.144136 121 121 121 0
-6.144647 0.960101 39.187797 117 117 117 0
-6.051097 0.960492 39.203736 116 116 116 0
-5.960155 0.961315 39.237361 115 115 115 0
-5.877049 0.963451 39.324514 113 113 113 0
-5.793328 0.965555 39.410393 108 108 108 0
-5.234142 0.887143 36.209905 104 104 104 0
-5.621831 0.969281 39.562502 100 100 100 0
-5.543349 0.972517 39.694588 103 103 103 0
-5.458316 0.974699 39.783642 108 108 108 0
-5.381826 0.978514 39.939341 130 130 130 0
-5.292042 0.980008 40.000319 146 146 146 0
-5.194842 0.980159 40.006488 140 140 140 0
-5.095938 0.979988 39.999510 140 140 140 0
-4.997812 0.979963 39.998493 140 140 140 0
-4.898736 0.979747 39.989678 137 137 137 0
-4.802000 0.980000 40.000000 138 138 138 0
-4.703333 0.979861 39.994330 139 139 139 0
-4.606362 0.980077 40.003147 139 139 139 0
-4.507578 0.979908 39.996259 138 138 138 0
-4.408292 0.979621 39.984512 138 138 138 0
-4.310995 0.979772 39.990680 139 139 139 0
-4.212621 0.979679 39.986908 138 138 138 0
-4.115537 0.979890 39.995503 138 138 138 0
-4.019997 0.980487 40.019878 136 136 136 0
-3.923961 0.980990 40.040423 135 135 135 0
-3.824805 0.980719 40.029356 133 133 133 0
-3.728926 0.981296 40.052908 131 131 131 0
-3.633767 0.982099 40.085676 131 131 131 0
-3.538256 0.982849 40.116279 129 129 129 0
-3.440753 0.983072 40.125405 129 129 129 0
-3.348123 0.984742 40.193552 128 128 128 0
-3.251789 0.985391 40.220024 127 127 127 0
-3.153579 0.985493 40.224221 127 127 127 0
-3.056232 0.985881 40.240054 123 123 123 0
-2.966208 0.988736 40.356567 120 120 120 0
-2.869652 0.989535 40.389196 116 116 116 0
-2.773419 0.990507 40.428848 113 113 113 0
-2.678507 0.992040 40.491410 110 110 110 0
-2.587844 0.995325 40.625491 105 105 105 0
-2.492975 0.997190 40.701626 101 101 101 0
-2.396309 0.998462 40.753546 103 103 103 0
-2.082259 0.905330 36.952238 106 106 106 0
-1.995650 0.907114 37.025052 103 103 103 0
-1.907268 0.908223 37.070330 103 103 103 0
-1.822161 0.911080 37.186955 93 93 93 0
-1.742238 0.916967 37.427244 97 97 97 0
-1.642235 0.912353 37.238886 95 95 95 0
-1.551819 0.912835 37.258569 93 93 93 0
-1.460942 0.913089 37.268930 91 91 91 0
-1.416883 1.012059 41.308543 66 66 66 0
-1.147686 1.043351 42.585763 68 68 68 0
-1.065156 1.065156 43.475747 70 70 70 0
-0.971135 1.079039 44.042389 86 86 86 0
-0.875600 1.094500 44.673466 126 126 126 0
-0.767592 1.096560 44.757538 148 148 148 0
-0.656404 1.094007 44.653338 138 138 138 0
-0.546195 1.092390 44.587353 140 140 140 0
-0.433127 1.082817 44.196603 139 139 139 0
-0.323027 1.076758 43.949293 139 139 139 0
-0.214713 1.073566 43.819009 133 133 133 0
-0.106881 1.068814 43.625076 138 138 138 0
0.000000 1.065513 43.490342 141 141 141 0
0.106249 1.062487 43.366804 139 139 139 0
0.212103 1.060515 43.286345 140 140 140 0
0.317134 1.057112 43.147420 139 139 139 0
0.421506 1.053766 43.010863 137 137 137 0
0.525918 1.051837 42.932115 138 138 138 0
0.629507 1.049178 42.823585 139 139 139 0
0.733562 1.047945 42.773278 137 137 137 0
0.836648 1.045811 42.686146 138 138 138 0
0.939493 1.043881 42.607387 141 141 141 0
1.044559 1.044559 42.635053 139 139 139 0
1.146239 1.042035 42.532060 141 141 141 0
1.249037 1.040864 42.484261 142 142 142 0
1.353119 1.040861 42.484107 145 145 145 0
1.455569 1.039692 42.436402 147 147 147 0
1.556962 1.037974 42.366305 146 146 146 0
1.663715 1.039822 42.441698 146 146 146 0
1.762971 1.037041 42.328224 145 145 145 0
1.862336 1.034631 42.229839 142 142 142 0
1.966337 1.034914 42.241394 141 141 141 0
2.064416 1.032208 42.130932 143 143 143 0
2.163851 1.030405 42.057354 146 146 146 0
2.266075 1.030034 42.042215 150 150 150 0
2.367937 1.029538 42.021950 145 145 145 0
2.470974 1.029573 42.023375 136 136 136 0
2.575501 1.030201 42.049001 126 126 126 0
2.681935 1.031513 42.102588 113 113 113 0
2.788651 1.032834 42.156475 110 110 110 0
2.896075 1.034313 42.216837 111 111 111 0
3.008718 1.037489 42.346489 116 116 116 0
3.117464 1.039155 42.414478 121 121 121 0
3.221243 1.039111 42.412674 122 122 122 0
3.331744 1.041170 42.496730 124 124 124 0
3.443842 1.043588 42.595444 124 124 124 0
3.548914 1.043798 42.604011 126 126 126 0
3.651344 1.043241 42.581274 125 125 125 0
3.766755 1.046321 42.706975 125 125 125 0
3.871672 1.046398 42.710119 122 122 122 0
3.979714 1.047293 42.746658 113 113 113 0
4.097844 1.050729 42.886909 98 98 98 0
4.208072 1.052018 42.939515 91 91 91 0
4.312573 1.051847 42.932531 92 92 92 0
4.459713 1.061836 43.340260 102 102 102 0
4.579139 1.064916 43.465957 120 120 120 0
4.697313 1.067571 43.574329 127 127 127 0
4.812667 1.069482 43.652308 131 131 131 0
4.912766 1.067993 43.591533 133 133 133 0
5.017328 1.067517 43.572104 133 133 133 0
5.123901 1.067479 43.570590 132 132 132 0
5.236492 1.068672 43.619258 131 131 131 0
5.339373 1.067875 43.586718 122 122 122 0
5.457353 1.070069 43.676297 117 117 117 0
5.571998 1.071538 43.736251 114 114 114 0
5.681089 1.071904 43.751165 113 113 113 0
5.808073 1.075569 43.900778 108 108 108 0
5.925341 1.077335 43.972849 95 95 95 0
6.059446 1.082044 44.165061 80 80 80 0
-7.692495 1.057718 39.247424 136 136 136 0
-7.584298 1.056041 39.185213 135 135 135 0
-7.482227 1.055186 39.153466 134 134 134 0
-7.367768 1.052538 39.055224 134 134 134 0
-7.273845 1.052793 39.064686 129 129 129 0
-7.169913 1.051587 39.019933 131 131 131 0
-7.071992 1.051242 39.007128 130 130 130 0
-6.969412 1.050185 38.967916 130 130 130 0
-6.875101 1.050363 38.974496 125 125 125 0
-6.779875 1.050403 38.975996 127 127 127 0
-6.686619 1.050754 38.989030 125 125 125 0
-6.588288 1.050307 38.972421 125 125 125 0
-6.495674 1.050771 38.989639 124 124 124 0
-6.405487 1.051647 39.022157 124 124 124 0
-6.305632 1.050939 38.995869 124 124 124 0
-6.219857 1.052591 39.057189 122 122 122 0
-6.129970 1.053589 39.094197 121 121 121 0
-6.034484 1.053640 39.096108 117 117 117 0
-5.461654 0.969003 35.955589 116 116 116 0
-5.872220 1.058925 39.292205 109 109 109 0
-5.785255 1.060630 39.355478 107 107 107 0
-5.691970 1.061215 39.377168 103 103 103 0
-5.614983 1.064911 39.514305 102 102 102 0
-5.532399 1.067656 39.616177 102 102 102 0
-5.453649 1.071252 39.749625 111 111 111 0
-5.373465 1.074693 39.877289 128 128 128 0
-5.287227 1.077028 39.963923 147 147 147 0
-5.190462 1.077266 39.972750 144 144 144 0
-5.092400 1.077238 39.971740 141 141 141 0
-4.991285 1.076552 39.946259 141 141 141 0
-4.894396 1.076767 39.954250 139 139 139 0
-4.796305 1.076722 39.952564 138 138 138 0
-4.697251 1.076453 39.942611 140 140 140 0
-4.599567 1.076494 39.944135 139 139 139 0
-4.504357 1.077129 39.967675 139 139 139 0
-4.404432 1.076639 39.949494 139 139 139 0
-4.305646 1.076412 39.941062 140 140 140 0
-4.209857 1.076940 39.960676 137 137 137 0
-4.112914 1.077192 39.970013 136 136 136 0
-4.015585 1.077352 39.975958 137 137 137 0
-3.919330 1.077816 39.993161 135 135 135 0
-3.821057 1.077734 39.990126 134 134 134 0
-3.726185 1.078632 40.023465 132 132 132 0
-3.631353 1.079592 40.059056 130 130 130 0
-3.534082 1.079858 40.068955 131 131 131 0
-3.436232 1.079959 40.072674 128 128 128 0
-3.342426 1.081373 40.125166 129 129 129 0
-3.246953 1.082318 40.160211 129 129 129 0
-3.149781 1.082737 40.175784 126 126 126 0
-3.052766 1.083239 40.194414 125 125 125 0
-2.961840 1.086008 40.297148 123 123 123 0
-2.865263 1.086824 40.327419 119 119 119 0
-2.766792 1.086954 40.332243 118 118 118 0
-2.676752 1.090529 40.464887 113 113 113 0
-2.584854 1.093592 40.578549 109 109 109 0
-2.486027 1.093852 40.588193 107 107 107 0
-2.391275 1.096001 40.667934 105 105 105 0
-2.303065 1.101466 40.870718 106 106 106 0
-1.990102 0.995051 36.922108 102 102 102 0
-1.900781 0.995647 36.944233 102 102 102 0
-1.819117 1.000515 37.124846 99 99 99 0
-1.736051 1.005082 37.294339 99 99 99 0
-1.652280 1.009727 37.466670 95 95 95 0
-1.542361 0.997999 37.031485 94 94 94 0
-1.476810 1.015307 37.673719 90 90 90 0
-0.872447 1.199614 44.512588 98 98 98 0
-0.767833 1.206595 44.771596 131 131 131 0
-0.655351 1.201477 44.581716 134 134 134 0
-0.543874 1.196524 44.397906 134 134 134 0
-0.431578 1.186838 44.038527 128 128 128 0
-0.322405 1.182151 43.864593 134 134 134 0
-0.214018 1.177100 43.677169 134 134 134 0
-0.106730 1.174033 43.563364 138 138 138 0
0.000000 1.170569 43.434853 139 139 139 0
0.106182 1.168005 43.339685 141 141 141 0
0.212164 1.166904 43.298861 137 137 137 0
0.317401 1.163805 43.183856 139 139 139 0
0.421506 1.159140 43.010767 141 141 141 0
0.525677 1.156488 42.912374 139 139 139 0
0.629328 1.153767 42.811396 139 139 139 0
0.733041 1.151922 42.742940 141 141 141 0
0.836583 1.150301 42.682792 139 139 139 0
0.938646 1.147234 42.568982 139 139 139 0
1.042965 1.147262 42.570007 143 143 143 0
1.145209 1.145209 42.493830 141 141 141 0
1.248158 1.144145 42.454357 144 144 144 0
1.353332 1.145127 42.490812 144 144 144 0
1.454682 1.142964 42.410540 146 146 146 0
1.556557 1.141475 42.355301 146 146 146 0
1.662518 1.142981 42.411168 147 147 147 0
1.763224 1.140909 42.334300 144 144 144 0
1.864752 1.139571 42.284636 143 143 143 0
1.968520 1.139669 42.288287 142 142 142 0
2.065742 1.136158 42.157992 141 141 141 0
2.164485 1.133778 42.069680 143 143 143 0
2.266653 1.133327 42.052938 146 146 146 0
2.367101 1.132092 42.007118 145 145 145 0
2.470824 1.132461 42.020814 137 137 137 0
2.575000 1.133000 42.040820 125 125 125 0
2.683213 1.135205 42.122650 113 113 113 0
2.788723 1.136147 42.157573 111 111 111 0
2.895144 1.137378 42.203264 114 114 114 0
3.006041 1.140222 42.308810 117 117 117 0
3.115183 1.142234 42.383446 119 119 119 0
3.220253 1.142670 42.399646 121 121 121 0
3.330331 1.144801 42.478712 122 122 122 0
3.439999 1.146666 42.547920 126 126 126 0
3.546320 1.147339 42.572868 127 127 127 0
3.648486 1.146667 42.547942 128 128 128 0
3.765717 1.150636 42.695210 126 126 126 0
3.871141 1.150880 42.704258 123 123 123 0
3.977036 1.151247 42.717892 116 116 116 0
4.093041 1.154447 42.836641 98 98 98 0
4.190790 1.152467 42.763165 91 91 91 0
4.291964 1.151503 42.727370 89 89 89 0
4.474534 1.171902 43.484296 107 107 107 0
4.590068 1.174204 43.569704 121 121 121 0
4.699086 1.174771 43.590775 132 132 132 0
4.818464 1.177847 43.704892 132 132 132 0
4.918585 1.176183 43.643168 133 133 133 0
5.022229 1.175415 43.614667 135 135 135 0
5.129859 1.175593 43.621246 134 134 134 0
5.237123 1.175681 43.624519 133 133 133 0
5.339231 1.174631 43.585558 126 126 126 0
5.454578 1.176478 43.654087 120 120 120 0
5.569294 1.178120 43.715023 116 116 116 0
5.677276 1.178303 43.721803 114 114 114 0
5.804007 1.182298 43.870044 108 108 108 0
5.921957 1.184391 43.947736 100 100 100 0
6.051708 1.188728 44.108656 85 85 85 0
-7.678599 1.151790 39.176525 137 137 137 0
-7.564440 1.149029 39.082615 134 134 134 0
-7.463202 1.148185 39.053910 133 133 133 0
-7.351146 1.145633 38.967114 136 136 136 0
-7.254831 1.145500 38.962570 132 132 132 0
-7.151451 1.144232 38.919461 133 133 133 0
-7.056998 1.144378 38.924423 132 132 132 0
-6.952441 1.142867 38.873026 132 132 132 0
-6.860339 1.143390 38.890811 129 129 129 0
-6.761389 1.142770 38.869729 130 130 130 0
-6.673564 1.144039 38.912907 132 132 132 0
-6.570707 1.142732 38.868426 128 128 128 0
-6.478030 1.143182 38.883731 127 127 127 0
-6.385897 1.143743 38.902816 126 126 126 0
-6.293906 1.144347 38.923355 124 124 124 0
-6.206066 1.145735 38.970590 124 124 124 0
-6.117358 1.147005 39.013762 120 120 120 0
-6.024732 1.147568 39.032925 116 116 116 0
-5.940307 1.149737 39.106694 113 113 113 0
-5.863067 1.153390 39.230957 103 103 103 0
-5.778437 1.155687 39.309097 102 102 102 0
-5.692727 1.157843 39.382404 101 101 101 0
-5.605809 1.159822 39.449744 100 100 100 0
-5.531669 1.164562 39.610948 108 108 108 0
-5.452491 1.168391 39.741190 116 116 116 0
-5.379277 1.173660 39.920421 141 141 141 0
-5.283029 1.174007 39.932194 148 148 148 0
-5.187685 1.174570 39.951370 152 152 152 0
-5.084539 1.173355 39.910036 145 145 145 0
-4.986494 1.173293 39.907913 140 140 140 0
-4.889410 1.173458 39.913547 139 139 139 0
-4.791113 1.173334 39.909310 140 140 140 0
-4.694277 1.173569 39.917319 141 141 141 0
-4.594107 1.172964 39.896718 141 141 141 0
-4.499030 1.173660 39.920405 140 140 140 0
-4.400617 1.173498 39.914897 139 139 139 0
-4.302568 1.173428 39.912505 139 139 139 0
-4.206163 1.173813 39.925610 138 138 138 0
-4.109150 1.174043 39.933435 139 139 139 0
-4.011442 1.174081 39.934714 138 138 138 0
-3.914980 1.174494 39.948780 135 135 135 0
-3.818138 1.174812 39.959582 135 135 135 0
-3.721985 1.175364 39.978358 133 133 133 0
-3.626426 1.176138 40.004695 133 133 133 0
-3.530901 1.176967 40.032897 132 132 132 0
-3.434584 1.177572 40.053455 130 130 130 0
-3.339933 1.178800 40.095230 129 129 129 0
-3.243129 1.179320 40.112914 129 129 129 0
-3.146528 1.179948 40.134284 129 129 129 0
-3.049007 1.180261 40.144922 127 127 127 0
-2.958058 1.183223 40.245692 125 125 125 0
-2.860485 1.183649 40.260164 121 121 121 0
-2.764771 1.184902 40.302784 118 118 118 0
-2.669655 1.186513 40.357599 113 113 113 0
-2.577833 1.189769 40.468339 110 110 110 0
-2.483872 1.192259 40.553015 107 107 107 0
-2.387059 1.193530 40.596243 106 106 106 0
-2.296768 1.198314 40.758976 107 107 107 0
-2.199837 1.199911 40.813307 104 104 104 0
-1.899133 1.085219 36.912199 104 104 104 0
-1.818165 1.090899 37.105412 98 98 98 0
-1.730868 1.093180 37.182995 97 97 97 0
-1.649339 1.099559 37.399968 94 94 94 0
-1.557984 1.099754 37.406590 97 97 97 0
-1.488674 1.116505 37.976373 89 89 89 0
-1.343270 1.074616 36.551576 84 84 84 0
-0.870070 1.305105 44.391338 74 74 74 0
-0.765764 1.312738 44.650957 121 121 121 0
-0.653014 1.306028 44.422726 135 135 135 0
-0.542271 1.301451 44.267056 131 131 131 0
-0.431743 1.295229 44.055411 135 135 135 0
-0.322390 1.289559 43.862543 132 132 132 0
-0.214092 1.284550 43.692177 140 140 140 0
-0.106871 1.282448 43.620687 139 139 139 0
0.000000 1.275951 43.399706 138 138 138 0
0.106094 1.273131 43.303783 139 139 139 0
0.211766 1.270594 43.217498 140 140 140 0
0.316851 1.267406 43.109045 134 134 134 0
0.421601 1.264802 43.020486 137 137 137 0
0.524595 1.259027 42.824058 137 137 137 0
0.629137 1.258274 42.798434 139 139 139 0
0.732576 1.255845 42.715808 136 136 136 0
0.834587 1.251881 42.580978 138 138 138 0
0.938123 1.250831 42.545281 138 138 138 0
1.041228 1.249474 42.499107 138 138 138 0
1.144275 1.248300 42.459186 138 138 138 0
1.246849 1.246849 42.409823 141 141 141 0
1.351971 1.247973 42.448067 143 143 143 0
1.453414 1.245783 42.373574 142 142 142 0
1.554377 1.243501 42.295965 147 147 147 0
1.661691 1.246268 42.390076 148 148 148 0
1.763595 1.244890 42.343207 147 147 147 0
1.864589 1.243060 42.280940 143 143 143 0
1.968005 1.242950 42.277225 142 142 142 0
2.068001 1.240801 42.204103 143 143 143 0
2.165757 1.237575 42.094393 141 141 141 0
2.266243 1.236132 42.045318 144 144 144 0
2.367111 1.235015 42.007300 142 142 142 0
2.471514 1.235757 42.032543 136 136 136 0
2.575159 1.236076 42.043417 126 126 126 0
2.680605 1.237202 42.081714 116 116 116 0
2.788402 1.239290 42.152719 112 112 112 0
2.896441 1.241332 42.222177 116 116 116 0
3.007447 1.244461 42.328596 117 117 117 0
3.115059 1.246024 42.381752 118 118 118 0
3.216806 1.245215 42.354260 119 119 119 0
3.328533 1.248200 42.455775 123 123 123 0
3.441059 1.251294 42.561023 124 124 124 0
3.546569 1.251730 42.575853 126 126 126 0
3.649821 1.251367 42.563508 129 129 129 0
3.765100 1.255033 42.688211 128 128 128 0
3.869104 1.254844 42.681783 127 127 127 0
3.978076 1.256235 42.729070 117 117 117 0
4.094085 1.259718 42.847565 98 98 98 0
4.186887 1.256066 42.723333 88 88 88 0
4.477366 1.279247 43.511816 108 108 108 0
4.598196 1.283218 43.646857 124 124 124 0
4.707029 1.283735 43.664466 130 130 130 0
4.820901 1.285574 43.726991 132 132 132 0
4.922320 1.284083 43.676305 132 132 132 0
5.031018 1.284515 43.690993 133 133 133 0
5.134382 1.283595 43.659708 135 135 135 0
5.241309 1.283586 43.659385 131 131 131 0
5.340273 1.281666 43.594068 130 130 130 0
5.457057 1.284013 43.673922 125 125 125 0
5.568307 1.284994 43.707279 119 119 119 0
5.678337 1.285661 43.729971 115 115 115 0
5.800443 1.288987 43.843105 110 110 110 0
5.918989 1.291416 43.925710 102 102 102 0
6.046461 1.295670 44.070419 90 90 90 0
-7.657747 1.244384 39.070140 138 138 138 0
-7.549262 1.242284 39.004194 138 138 138 0
-7.443024 1.240504 38.948320 136 136 136 0
-7.338766 1.239012 38.901488 136 136 136 0
-7.239208 1.238285 38.878666 137 137 137 0
-7.135604 1.236838 38.833219 134 134 134 0
-7.042886 1.237264 38.846585 134 134 134 0
-6.939278 1.235762 38.799428 132 132 132 0
-6.843674 1.235663 38.796339 131 131 131 0
-6.753192 1.236500 38.822604 130 130 130 0
-6.656407 1.236190 38.812870 130 130 130 0
-6.558213 1.235605 38.794517 132 132 132 0
-6.468724 1.236668 38.827873 127 127 127 0
-6.376711 1.237272 38.846852 127 127 127 0
-6.282195 1.237402 38.850929 127 127 127 0
-6.192366 1.238473 38.884560 125 125 125 0
-6.103208 1.239714 38.923518 119 119 119 0
-6.016443 1.241488 38.979222 116 116 116 0
-5.935307 1.244500 39.073778 109 109 109 0
-5.373487 1.145169 35.955080 104 104 104 0
-5.769630 1.250087 39.249187 101 101 101 0
-5.688793 1.253463 39.355195 102 102 102 0
-5.610010 1.257416 39.479313 99 99 99 0
-5.534889 1.262343 39.634009 110 110 110 0
-5.457390 1.266894 39.776892 126 126 126 0
-5.381424 1.271973 39.936353 156 156 156 0
-5.281921 1.271573 39.923814 157 157 157 0
-5.186433 1.272144 39.941727 156 156 156 0
-5.084585 1.271146 39.910401 154 154 154 0
-4.981775 1.269864 39.870147 147 147 147 0
-4.885430 1.270212 39.881057 141 141 141 0
-4.787469 1.270145 39.878959 141 141 141 0
-4.688362 1.269765 39.867026 141 141 141 0
-4.591307 1.269936 39.872404 143 143 143 0
-4.498414 1.271291 39.914945 142 142 142 0
-4.396399 1.270071 39.876638 142 142 142 0
-4.298359 1.269970 39.873458 142 142 142 0
-4.202185 1.270428 39.887848 141 141 141 0
-4.106230 1.270976 39.905058 140 140 140 0
-4.007959 1.270816 39.900041 139 139 139 0
-3.910591 1.270942 39.903985 137 137 137 0
-3.815369 1.271790 39.930601 136 136 136 0
-3.718367 1.272073 39.939490 134 134 134 0
-3.622469 1.272759 39.961043 133 133 133 0
-3.527430 1.273794 39.993541 131 131 131 0
-3.429881 1.273956 39.998608 131 131 131 0
-3.334168 1.274829 40.026023 131 131 131 0
-3.240417 1.276528 40.079374 130 130 130 0
-3.143786 1.277163 40.099308 129 129 129 0
-3.047793 1.278107 40.128934 127 127 127 0
-2.955338 1.280646 40.208680 126 126 126 0
-2.857193 1.280811 40.213840 122 122 122 0
-2.761364 1.282062 40.253114 118 118 118 0
-2.668491 1.284829 40.339995 116 116 116 0
-2.575991 1.287995 40.439415 112 112 112 0
-2.477267 1.288179 40.445175 110 110 110 0
-2.383291 1.290949 40.532165 107 107 107 0
-2.294702 1.297005 40.722300 106 106 106 0
-2.197903 1.298761 40.777422 105 105 105 0
-1.892972 1.171840 36.792451 104 104 104 0
-1.811434 1.177432 36.968038 101 101 101 0
-1.725484 1.180595 37.067334 100 100 100 0
-1.639549 1.184119 37.177982 98 98 98 0
-1.559607 1.192641 37.445557 90 90 90 0
-1.490216 1.210801 38.015717 89 89 89 0
-1.339046 1.160507 36.436630 82 82 82 0
-0.856991 1.392610 43.724010 68 68 68 0
-0.763942 1.418750 44.544729 124 124 124 0
-0.650438 1.409283 44.247500 130 130 130 0
-0.540425 1.405104 44.116306 133 133 133 0
-0.431327 1.401813 44.012975 131 131 131 0
-0.322141 1.395944 43.828691 138 138 138 0
-0.213915 1.390447 43.656105 138 138 138 0
-0.106674 1.386756 43.540208 140 140 140 0
0.000000 1.383601 43.441169 137 137 137 0
0.105870 1.376311 43.212286 139 139 139 0
0.211700 1.376048 43.204023 137 137 137 0
0.316492 1.371465 43.060130 138 138 138 0
0.420572 1.366858 42.915476 138 138 138 0
0.524371 1.363365 42.805804 140 140 140 0
0.628669 1.362117 42.766616 138 138 138 0
0.731726 1.358921 42.666264 141 141 141 0
0.833310 1.354129 42.515836 138 138 138 0
0.937302 1.353881 42.508031 138 138 138 0
1.041062 1.353381 42.492326 139 139 139 0
1.143743 1.351697 42.439456 139 139 139 0
1.245575 1.349373 42.366500 138 138 138 0
1.350982 1.350982 42.417013 141 141 141 0
1.451867 1.348163 42.328494 141 141 141 0
1.554539 1.347268 42.300394 141 141 141 0
1.660406 1.349080 42.357287 143 143 143 0
1.761703 1.347185 42.297787 143 143 143 0
1.864164 1.346340 42.271285 144 144 144 0
1.969584 1.347610 42.311144 147 147 147 0
2.068883 1.344774 42.222103 144 144 144 0
2.167521 1.341798 42.128679 141 141 141 0
2.268382 1.340407 42.085001 142 142 142 0
2.368686 1.338822 42.035238 143 143 143 0
2.473357 1.339735 42.063898 137 137 137 0
2.574558 1.338770 42.033604 126 126 126 0
2.682497 1.341249 42.111418 121 121 121 0
2.789598 1.343140 42.170787 116 116 116 0
2.896712 1.344902 42.226125 116 116 116 0
3.005492 1.347289 42.301081 117 117 117 0
3.115596 1.350092 42.389065 118 118 118 0
3.217769 1.349387 42.366938 120 120 120 0
3.329820 1.352740 42.472200 122 122 122 0
3.441059 1.355569 42.561023 124 124 124 0
3.547464 1.356383 42.586600 127 127 127 0
3.648325 1.355092 42.546060 129 129 129 0
3.762051 1.358519 42.653642 129 129 129 0
3.868894 1.359341 42.679469 126 126 126 0
3.973468 1.359344 42.679575 118 118 118 0
4.090675 1.363558 42.811875 104 104 104 0
4.210243 1.368329 42.961658 89 89 89 0
4.483666 1.387801 43.573042 101 101 101 0
4.603475 1.391748 43.696967 125 125 125 0
4.716238 1.393434 43.749888 131 131 131 0
4.825263 1.393965 43.766560 130 130 130 0
4.931008 1.393546 43.753395 131 131 131 0
5.037372 1.393316 43.746173 133 133 133 0
5.140277 1.392158 43.709839 134 134 134 0
5.247848 1.392286 43.713852 133 133 133 0
5.342838 1.389138 43.615004 132 132 132 0
5.460880 1.391989 43.704524 125 125 125 0
5.572458 1.393115 43.739861 118 118 118 0
5.678278 1.392785 43.729522 114 114 114 0
5.801087 1.396558 43.847976 110 110 110 0
5.922216 1.399797 43.949657 103 103 103 0
6.049953 1.404453 44.095870 90 90 90 0
-7.643703 1.337648 38.998483 139 139 139 0
-7.537480 1.335756 38.943320 137 137 137 0
-7.429730 1.333541 38.878753 138 138 138 0
-7.323857 1.331610 38.822458 138 138 138 0
-7.222878 1.330530 38.790965 138 138 138 0
-7.123023 1.329631 38.764750 137 137 137 0
-7.034529 1.330857 38.800492 137 137 137 0
-6.928255 1.328706 38.737796 134 134 134 0
-6.828692 1.327801 38.711408 134 134 134 0
-6.738359 1.328691 38.737333 134 134 134 0
-6.644665 1.328933 38.744402 130 130 130 0
-6.548014 1.328583 38.734185 132 132 132 0
-6.459023 1.329799 38.769644 129 129 129 0
-6.369900 1.331024 38.805360 128 128 128 0
-6.272188 1.330464 38.789041 128 128 128 0
-6.185071 1.332169 38.838750 125 125 125 0
-6.099228 1.334206 38.898140 118 118 118 0
-6.016298 1.336955 38.978286 113 113 113 0
-5.935756 1.340332 39.076734 98 98 98 0
-5.370562 1.232588 35.935512 96 96 96 0
-5.764517 1.345054 39.214404 98 98 98 0
-5.692135 1.350676 39.378310 101 101 101 0
-5.616233 1.355643 39.523107 110 110 110 0
-5.546548 1.362310 39.717496 117 117 117 0
-5.462699 1.365675 39.815591 132 132 132 0
-5.382801 1.370168 39.946576 156 156 156 0
-5.282868 1.369632 39.930973 158 158 158 0
-5.186132 1.369922 39.939407 155 155 155 0
-5.084084 1.368792 39.906467 154 154 154 0
-4.978664 1.366692 39.845248 153 153 153 0
-4.884341 1.367615 39.872172 152 152 152 0
-4.783257 1.366645 39.843875 148 148 148 0
-4.685172 1.366509 39.839900 143 143 143 0
-4.588872 1.366898 39.851254 144 144 144 0
-4.494002 1.367740 39.875791 144 144 144 0
-4.393142 1.366755 39.847089 143 143 143 0
-4.296779 1.367157 39.858808 143 143 143 0
-4.200480 1.367598 39.871665 142 142 142 0
-4.102753 1.367584 39.871268 142 142 142 0
-4.005150 1.367612 39.872073 140 140 140 0
-3.909377 1.368282 39.891603 140 140 140 0
-3.811483 1.368225 39.889931 136 136 136 0
-3.714073 1.368343 39.893370 134 134 134 0
-3.619859 1.369676 39.932257 134 134 134 0
-3.523892 1.370402 39.953423 135 135 135 0
-3.429046 1.371618 39.988869 134 134 134 0
-3.333956 1.372806 40.023485 131 131 131 0
-3.237621 1.373536 40.044784 132 132 132 0
-3.141098 1.374231 40.065031 130 130 130 0
-3.045237 1.375268 40.095288 128 128 128 0
-2.951631 1.377428 40.158248 127 127 127 0
-2.854114 1.377848 40.170500 125 125 125 0
-2.758106 1.379053 40.205626 122 122 122 0
-2.664961 1.381832 40.286639 117 117 117 0
-2.573223 1.385582 40.395973 113 113 113 0
-2.474891 1.385939 40.406386 112 112 112 0
-2.380191 1.388445 40.479438 108 108 108 0
-2.292322 1.395327 40.680074 107 107 107 0
-2.192694 1.395351 40.680788 106 106 106 0
-2.100014 1.400009 40.816593 105 105 105 0
-1.804942 1.263459 36.835551 101 101 101 0
-1.717708 1.265680 36.900285 94 94 94 0
-1.639307 1.275016 37.172484 94 94 94 0
-1.551052 1.277337 37.240148 97 97 97 0
-1.477001 1.292376 37.678595 88 88 88 0
-1.394348 1.301392 37.941446 92 92 92 0
-1.302920 1.302920 37.986013 76 76 76 0
-0.857406 1.500461 43.745229 73 73 73 0
-0.761473 1.522945 44.400740 117 117 117 0
-0.650279 1.517317 44.236656 133 133 133 0
-0.539949 1.511856 44.077438 129 129 129 0
-0.430482 1.506687 43.926736 136 136 136 0
-0.321850 1.501969 43.789180 139 139 139 0
-0.213767 1.496368 43.625896 139 139 139 0
-0.106633 1.492865 43.523749 139 139 139 0
0.000000 1.489410 43.423037 138 138 138 0
0.105832 1.481645 43.196652 135 135 135 0
0.211548 1.480835 43.173038 135 135 135 0
0.316638 1.477643 43.079975 137 137 137 0
0.420897 1.473140 42.948687 134 134 134 0
0.523944 1.467044 42.770954 136 136 136 0
0.627539 1.464257 42.689695 137 137 137 0
0.731259 1.462517 42.638982 138 138 138 0
0.832456 1.456798 42.472239 136 136 136 0
0.936148 1.456230 42.455677 136 136 136 0
1.039766 1.455672 42.439427 138 138 138 0
1.141254 1.452506 42.347100 138 138 138 0
1.244795 1.452261 42.339960 137 137 137 0
1.348606 1.452345 42.342428 138 138 138 0
1.451130 1.451130 42.307008 138 138 138 0
1.553155 1.449611 42.262715 134 134 134 0
1.658393 1.451094 42.305942 135 135 135 0
1.759340 1.448868 42.241054 138 138 138 0
1.861783 1.448054 42.217308 141 141 141 0
1.966978 1.449352 42.255159 144 144 144 0
2.066139 1.446298 42.166111 146 146 146 0
2.166793 1.444529 42.114541 145 145 145 0
2.269455 1.444199 42.104917 148 148 148 0
2.370522 1.442926 42.067821 146 146 146 0
2.472408 1.442238 42.047757 137 137 137 0
2.576592 1.442891 42.066805 129 129 129 0
2.684645 1.445578 42.145126 121 121 121 0
2.787719 1.445484 42.142395 117 117 117 0
2.894547 1.447274 42.194566 118 118 118 0
3.005862 1.451106 42.306295 118 118 118 0
3.113827 1.453119 42.364987 119 119 119 0
3.216953 1.452817 42.356190 121 121 121 0
3.329948 1.456852 42.473822 123 123 123 0
3.436278 1.457815 42.501898 125 125 125 0
3.542672 1.458747 42.529073 126 126 126 0
3.646714 1.458686 42.527275 127 127 127 0
3.761539 1.462821 42.647838 128 128 128 0
3.866007 1.462814 42.647624 126 126 126 0
3.973330 1.463858 42.678084 119 119 119 0
4.085526 1.466599 42.757988 105 105 105 0
4.218766 1.476568 43.048628 84 84 84 0
4.481589 1.493863 43.552855 94 94 94 0
4.609087 1.500633 43.750236 126 126 126 0
4.721674 1.502351 43.800317 130 130 130 0
4.828855 1.502311 43.799140 132 132 132 0
4.938603 1.503053 43.820794 133 133 133 0
5.042204 1.501933 43.788139 133 133 133 0
5.147272 1.501288 43.769319 133 133 133 0
5.248042 1.499441 43.715468 133 133 133 0
5.351567 1.498439 43.686263 130 130 130 0
5.466988 1.500742 43.753404 125 125 125 0
5.573979 1.500687 43.751795 117 117 117 0
5.684778 1.501639 43.779573 112 112 112 0
5.800830 1.503919 43.846031 110 110 110 0
5.920992 1.507161 43.940568 105 105 105 0
6.047488 1.511872 44.077904 92 92 92 0
-7.629994 1.430624 38.928540 141 141 141 0
-7.520420 1.427928 38.855178 140 140 140 0
-7.418870 1.426706 38.821926 140 140 140 0
-7.315465 1.425091 38.777976 140 140 140 0
-7.210193 1.423064 38.722841 139 139 139 0
-7.111998 1.422400 38.704753 139 139 139 0
-7.017411 1.422448 38.706071 137 137 137 0
-6.915328 1.420958 38.665519 138 138 138 0
-6.820218 1.420879 38.663365 138 138 138 0
-6.731716 1.422194 38.699146 136 136 136 0
-6.632269 1.421200 38.672122 137 137 137 0
-6.537902 1.421283 38.674368 137 137 137 0
-6.448307 1.422421 38.705322 133 133 133 0
-6.360392 1.423968 38.747436 130 130 130 0
-6.265982 1.424087 38.750663 127 127 127 0
-6.179308 1.425994 38.802564 122 122 122 0
-6.100437 1.429790 38.905851 115 115 115 0
-6.016487 1.432497 38.979506 106 106 106 0
-5.440174 1.316171 35.814178 98 98 98 0
-5.373196 1.321278 35.953134 97 97 97 0
-5.781928 1.445482 39.332841 101 101 101 0
-5.707006 1.450934 39.481191 103 103 103 0
-5.629027 1.455783 39.613142 117 117 117 0
-5.552644 1.461222 39.761145 120 120 120 0
-5.470545 1.465325 39.872779 136 136 136 0
-5.384597 1.468527 39.959906 156 156 156 0
-5.284865 1.468018 39.946067 155 155 155 0
-5.187240 1.468087 39.947939 154 154 154 0
-5.084626 1.466719 39.910719 153 153 153 0
-4.977744 1.464042 39.837884 155 155 155 0
-4.881832 1.464550 39.851689 155 155 155 0
-4.783614 1.464372 39.846851 151 151 151 0
-4.682914 1.463411 39.820698 150 150 150 0
-4.584616 1.463175 39.814299 147 147 147 0
-4.490655 1.464344 39.846092 146 146 146 0
-4.391304 1.463768 39.830419 145 145 145 0
-4.292518 1.463358 39.819275 145 145 145 0
-4.198387 1.464553 39.851794 144 144 144 0
-4.099932 1.464261 39.843848 144 144 144 0
-4.001270 1.463879 39.833452 141 141 141 0
-3.905220 1.464457 39.849180 140 140 140 0
-3.812005 1.466156 39.895390 138 138 138 0
-3.711083 1.464901 39.861261 137 137 137 0
-3.617601 1.466595 39.907350 135 135 135 0
-3.521089 1.467121 39.921647 134 134 134 0
-3.425523 1.468081 39.947792 133 133 133 0
-3.328780 1.468580 39.961348 133 133 133 0
-3.234522 1.470237 40.006452 132 132 132 0
-3.138378 1.471115 40.030328 130 130 130 0
-3.043537 1.472679 40.072897 130 130 130 0
-2.949666 1.474833 40.131505 128 128 128 0
-2.851817 1.475078 40.138174 126 126 126 0
-2.755985 1.476421 40.174708 123 123 123 0
-2.662433 1.479129 40.248417 121 121 121 0
-2.570602 1.483040 40.354821 117 117 117 0
-2.471380 1.482828 40.349062 114 114 114 0
-2.378101 1.486313 40.443893 112 112 112 0
-2.285553 1.490578 40.559954 107 107 107 0
-2.189414 1.492783 40.619934 108 108 108 0
-2.095754 1.496967 40.733798 104 104 104 0
-1.999170 1.499378 40.799388 101 101 101 0
-1.720526 1.358310 36.960823 99 99 99 0
-1.633159 1.360966 37.033086 95 95 95 0
-1.555973 1.372917 37.358287 92 92 92 0
-1.474239 1.382099 37.608149 87 87 87 0
-1.309988 1.309988 35.645942 86 86 86 0
-1.275403 1.366503 37.183758 82 82 82 0
-0.778967 1.460563 39.743211 77 77 77 0
-0.760559 1.629769 44.347460 119 119 119 0
-0.650043 1.625108 44.220634 133 133 133 0
-0.538904 1.616713 43.992199 135 135 135 0
-0.429666 1.611246 43.843438 137 137 137 0
-0.321438 1.607190 43.733053 137 137 137 0
-0.213533 1.601496 43.578136 140 140 140 0
-0.106613 1.599188 43.515324 135 135 135 0
0.000000 1.595463 43.413962 139 139 139 0
0.105914 1.588710 43.230211 135 135 135 0
0.211436 1.585766 43.150109 140 140 140 0
0.316285 1.581425 43.031968 136 136 136 0
0.420157 1.575589 42.873160 133 133 133 0
0.523778 1.571335 42.757414 135 135 135 0
0.626971 1.567428 42.651107 138 138 138 0
0.730492 1.565340 42.594281 136 136 136 0
