ply
format ascii 1.0
element vertex 1147
property float x
property float y
property float z
property uchar red
property uchar green
property uchar blue
property uchar alpha
end_header
3.181431 2.757240 43.284770 134 134 134 0
3.286285 2.756239 43.269052 137 137 137 0
3.391429 2.755536 43.258018 138 138 138 0
3.492031 2.751297 43.191477 141 141 141 0
3.595289 2.749339 43.160738 140 140 140 0
3.700940 2.749270 43.159649 140 140 140 0
3.803791 2.747183 43.126886 136 136 136 0
3.909967 2.747544 43.132563 132 132 132 0
4.018471 2.749480 43.162957 129 129 129 0
4.126800 2.751200 43.189948 126 126 126 0
4.233887 2.752026 43.202925 121 121 121 0
4.345826 2.755890 43.263572 117 117 117 0
4.458947 2.760301 43.332819 112 112 112 0
4.568856 2.762564 43.368356 110 110 110 0
4.685666 2.768802 43.466286 107 107 107 0
4.805828 2.776701 43.590280 105 105 105 0
4.918764 2.780171 43.644757 101 101 101 0
5.044698 2.790684 43.809792 104 104 104 0
5.162494 2.796351 43.898761 103 103 103 0
5.287410 2.805564 44.043397 97 97 97 0
4.615701 2.400164 37.679191 90 90 90 0
4.732993 2.412898 37.879095 81 81 81 0
5.704933 2.852467 44.779696 90 90 90 0
5.845007 2.867362 45.013531 107 107 107 0
5.980141 2.879327 45.201369 122 122 122 0
6.078783 2.873606 45.111561 125 125 125 0
6.176255 2.867547 45.016439 120 120 120 0
6.270254 2.860116 44.899781 121 121 121 0
6.367867 2.854561 44.812575 125 125 125 0
6.475239 2.853495 44.795845 128 128 128 0
6.578331 2.850610 44.750552 129 129 129 0
6.687892 2.850577 44.750029 128 128 128 0
6.785757 2.845640 44.672530 126 126 126 0
6.910142 2.851804 44.769301 126 126 126 0
7.012575 2.848858 44.723052 124 124 124 0
7.122165 2.848866 44.723174 124 124 124 0
7.236999 2.850939 44.755715 119 119 119 0
7.356026 2.854577 44.812827 107 107 107 0
7.471772 2.856854 44.848570 96 96 96 0
7.662555 2.887339 45.327149 91 91 91 0
8.194814 3.043788 47.783174 96 96 96 0
9.558999 3.500479 54.952567 113 113 113 0
9.693519 3.500438 54.951924 119 119 119 0
9.828069 3.500408 54.951462 120 120 120 0
9.962700 3.500408 54.951464 118 118 118 0
10.097124 3.500336 54.950337 112 112 112 0
10.232899 3.500728 54.956491 96 96 96 0
10.658169 3.507752 55.066748 88 88 88 0
-9.290420 3.135517 47.400101 100 100 100 0
-9.191178 3.141289 47.487356 95 95 95 0
-9.078735 3.142639 47.507769 97 97 97 0
-8.971154 3.145729 47.554486 95 95 95 0
-8.872818 3.152185 47.652081 96 96 96 0
-8.756370 3.152293 47.653717 101 101 101 0
-8.644872 3.154210 47.682693 99 99 99 0
-8.541653 3.159242 47.758754 95 95 95 0
-8.437768 3.164163 47.833153 95 95 95 0
-8.322663 3.164956 47.845143 96 96 96 0
-8.209758 3.166621 47.870307 98 98 98 0
-8.099038 3.169189 47.909125 98 98 98 0
-7.983787 3.170033 47.921890 99 99 99 0
-7.858351 3.166798 47.872991 101 101 101 0
-7.741125 3.166824 47.873375 104 104 104 0
-7.604087 3.158621 47.749367 107 107 107 0
-7.476455 3.154129 47.681472 110 110 110 0
-7.344204 3.147516 47.581497 111 111 111 0
-7.200846 3.135852 47.405174 109 109 109 0
-7.068738 3.128786 47.298347 110 110 110 0
-6.939075 3.122584 47.204590 110 110 110 0
-6.806156 3.114682 47.085136 110 110 110 0
-6.680257 3.109775 47.010956 112 112 112 0
-6.013797 2.848641 43.063353 112 112 112 0
-5.832406 2.812053 42.510251 116 116 116 0
-5.666993 2.781979 42.055609 119 119 119 0
-5.523222 2.761611 41.747706 121 121 121 0
-5.402057 2.751991 41.602286 125 125 125 0
-5.277968 2.740483 41.428319 128 128 128 0
-5.162013 2.732830 41.312627 130 130 130 0
-5.056526 2.730524 41.277766 131 131 131 0
-4.946391 2.725563 41.202761 133 133 133 0
-4.839580 2.722264 41.152891 134 134 134 0
-4.737958 2.721806 41.145967 135 135 135 0
-4.636580 2.721471 41.140904 134 134 134 0
-4.533057 2.719834 41.116160 132 132 132 0
-4.436857 2.722617 41.158230 129 129 129 0
-4.341061 2.725783 41.206088 126 126 126 0
-4.239143 2.725164 41.196727 126 126 126 0
-4.143208 2.728454 41.246474 126 126 126 0
-4.049653 2.733516 41.322994 126 126 126 0
-3.953141 2.736790 41.372485 127 127 127 0
-3.849902 2.735457 41.352330 127 127 127 0
-3.755560 2.740544 41.429229 125 125 125 0
-3.661931 2.746448 41.518494 124 124 124 0
-3.561897 2.747749 41.538152 121 121 121 0
-3.464884 2.751525 41.595242 122 122 122 0
-3.370801 2.757928 41.692040 121 121 121 0
-3.276677 2.764697 41.794354 116 116 116 0
-3.178511 2.768380 41.850045 111 111 111 0
-3.082202 2.773982 41.934719 105 105 105 0
-2.987263 2.781245 42.044524 97 97 97 0
-2.888906 2.785730 42.112327 101 101 101 0
-2.797964 2.797964 42.297271 111 111 111 0
-2.703899 2.807895 42.447392 111 111 111 0
-2.602146 2.810318 42.484023 112 112 112 0
-2.505071 2.818205 42.603253 108 108 108 0
-2.406314 2.824803 42.702999 105 105 105 0
-2.301560 2.824641 42.700548 108 108 108 0
-2.184435 2.808560 42.457438 114 114 114 0
-2.067687 2.791378 42.197696 117 117 117 0
-1.957326 2.781464 42.047827 120 120 120 0
-1.848856 2.773285 41.924182 127 127 127 0
-1.743899 2.769722 41.870331 134 134 134 0
-1.640900 2.769018 41.859689 137 137 137 0
-1.536312 2.765361 41.804396 140 140 140 0
-1.432619 2.762908 41.767311 141 141 141 0
-1.329380 2.761020 41.738774 143 143 143 0
-1.226091 2.758704 41.703762 143 143 143 0
-1.120814 2.751089 41.588641 143 143 143 0
-1.018566 2.750129 41.574142 142 142 142 0
-0.916005 2.748015 41.542171 141 141 141 0
-0.812145 2.740991 41.435993 139 139 139 0
-0.711106 2.742837 41.463904 136 136 136 0
-0.609887 2.744493 41.488936 130 130 130 0
-0.507575 2.740907 41.434728 124 124 124 0
-0.406390 2.743134 41.468390 117 117 117 0
-0.305586 2.750275 41.576337 107 107 107 0
-0.204117 2.755574 41.656454 100 100 100 0
-0.102124 2.757343 41.683194 95 95 95 0
0.000000 2.769621 41.868799 95 95 95 0
0.102871 2.777505 41.987975 91 91 91 0
0.206212 2.783857 42.084001 82 82 82 0
1.647313 3.176962 48.026631 95 95 95 0
1.764609 3.176296 48.016571 108 108 108 0
1.878564 3.170077 47.922557 109 109 109 0
1.994140 3.167163 47.878506 112 112 112 0
2.112753 3.169130 47.908242 110 110 110 0
2.231755 3.171442 47.943184 106 106 106 0
2.356157 3.180812 48.084835 109 109 109 0
2.477098 3.184841 48.145743 111 111 111 0
2.568653 3.152437 47.655892 108 108 108 0
2.587893 3.037961 45.925341 107 107 107 0
2.650335 2.981626 45.073718 106 106 106 0
2.730821 2.949287 44.584839 109 109 109 0
2.821496 2.930015 44.293504 110 110 110 0
2.910216 2.910216 43.994198 110 110 110 0
3.002691 2.895452 43.771012 110 110 110 0
3.094476 2.881064 43.553497 114 114 114 0
3.187766 2.868989 43.370966 122 122 122 0
3.289720 2.865240 43.314288 128 128 128 0
3.393405 2.863186 43.283230 131 131 131 0
3.492536 2.857529 43.197720 133 133 133 0
3.597951 2.857196 43.192689 134 134 134 0
3.703749 2.857177 43.192403 132 132 132 0
3.806772 2.855079 43.160682 131 131 131 0
3.913734 2.855968 43.174118 128 128 128 0
4.023169 2.858567 43.213412 125 125 125 0
4.130687 2.859707 43.230637 122 122 122 0
4.235309 2.858833 43.217437 120 120 120 0
4.350104 2.864703 43.306166 115 115 115 0
4.465551 2.870711 43.396999 112 112 112 0
4.574934 2.872633 43.426044 106 106 106 0
4.691559 2.878911 43.520954 103 103 103 0
4.817292 2.890375 43.694263 99 99 99 0
4.928906 2.893054 43.734749 98 98 98 0
5.047377 2.899557 43.833058 100 100 100 0
5.173739 2.910228 43.994383 95 95 95 0
5.308715 2.925210 44.220868 86 86 86 0
5.773560 2.997810 45.318366 92 92 92 0
5.882960 2.996980 45.305817 102 102 102 0
5.991025 2.995512 45.283633 108 108 108 0
6.091914 2.990576 45.209007 110 110 110 0
6.194056 2.986420 45.146184 113 113 113 0
6.285004 2.977107 45.005398 114 114 114 0
6.386614 2.973079 44.944506 113 113 113 0
6.487544 2.968876 44.880967 115 115 115 0
6.589463 2.965259 44.826282 115 115 115 0
6.697341 2.964397 44.813256 114 114 114 0
6.807353 2.964492 44.814699 113 113 113 0
6.914706 2.963445 44.798870 110 110 110 0
7.030434 2.965965 44.836954 107 107 107 0
7.152868 2.971191 44.915968 104 104 104 0
7.289240 2.981962 45.078787 98 98 98 0
7.723424 3.112425 47.051016 98 98 98 0
8.033209 3.189656 48.218541 104 104 104 0
9.289596 3.635059 54.951764 114 114 114 0
9.423651 3.634837 54.948400 121 121 121 0
9.558616 3.634967 54.950367 124 124 124 0
9.693159 3.634935 54.949883 120 120 120 0
9.827690 3.634899 54.949345 117 117 117 0
9.962623 3.635011 54.951040 107 107 107 0
10.096781 3.634841 54.948466 88 88 88 0
10.518837 3.641136 55.043625 99 99 99 0
10.653795 3.641170 55.044147 116 116 116 0
-9.336436 3.267753 47.634877 133 133 133 0
-9.195416 3.259135 47.509251 132 132 132 0
-9.135438 3.279388 47.804491 134 134 134 0
-9.036827 3.286119 47.902608 131 131 131 0
-8.969946 3.304717 48.173715 121 121 121 0
-9.520711 3.554399 51.813394 124 124 124 0
-8.729512 3.303059 48.149543 117 117 117 0
-9.411621 3.609937 52.622984 112 112 112 0
-9.366535 3.642541 53.098269 107 107 107 0
-9.161099 3.612828 52.665128 105 105 105 0
-8.971344 3.588537 52.311042 103 103 103 0
-8.185363 3.321597 48.419777 99 99 99 0
-8.050065 3.314733 48.319716 102 102 102 0
-7.925829 3.312287 48.284066 101 101 101 0
-7.803197 3.310447 48.257247 102 102 102 0
-7.661892 3.300507 48.112353 106 106 106 0
-7.526400 3.292800 48.000000 108 108 108 0
-7.391962 3.285316 47.890910 109 109 109 0
-7.247936 3.273261 47.715181 107 107 107 0
-7.118758 3.267626 47.633038 107 107 107 0
-6.985536 3.259917 47.520656 109 109 109 0
-6.845301 3.248618 47.355941 106 106 106 0
-6.719451 3.243873 47.286777 109 109 109 0
-6.590628 3.237502 47.193901 108 108 108 0
-5.931916 2.965958 43.235540 112 112 112 0
-5.731323 2.917764 42.533008 116 116 116 0
-5.556832 2.881320 42.001756 118 118 118 0
-5.422301 2.864612 41.758190 120 120 120 0
-5.301900 2.854869 41.616171 120 120 120 0
-5.174685 2.841004 41.414049 123 123 123 0
-5.068968 2.838622 41.379330 124 124 124 0
-4.959494 2.833996 41.311901 125 125 125 0
-4.849115 2.828650 41.233971 125 125 125 0
-4.746000 2.827404 41.215805 126 126 126 0
-4.646053 2.828032 41.224957 126 126 126 0
-4.539931 2.824846 41.178512 123 123 123 0
-4.442293 2.826913 41.208651 124 124 124 0
-4.346945 2.830569 41.261934 124 124 124 0
-4.245544 2.830363 41.258934 123 123 123 0
-4.146763 2.831936 41.281860 123 123 123 0
-4.052618 2.836833 41.353248 123 123 123 0
-3.955506 2.839850 41.397232 122 122 122 0
-3.854460 2.840128 41.401290 120 120 120 0
-3.759082 2.844711 41.468089 120 120 120 0
-3.665042 2.850588 41.553765 118 118 118 0
-3.565197 2.852157 41.576636 118 118 118 0
-3.466621 2.854864 41.616095 118 118 118 0
-3.371489 2.860657 41.700546 115 115 115 0
-3.278229 2.868450 41.814146 110 110 110 0
-3.176410 2.869015 41.822378 102 102 102 0
-3.091346 2.885256 42.059124 97 97 97 0
-2.993340 2.890121 42.130050 95 95 95 0
-2.896900 2.896900 42.228861 101 101 101 0
-2.803920 2.907769 42.387299 101 101 101 0
-2.708052 2.916364 42.512591 97 97 97 0
-2.610306 2.923543 42.617243 93 93 93 0
-2.511078 2.929591 42.705404 93 93 93 0
-2.419421 2.945383 42.935606 91 91 91 0
-2.320519 2.953388 43.052296 100 100 100 0
-2.210181 2.946908 42.957842 109 109 109 0
-2.093008 2.930211 42.714448 113 113 113 0
-1.972055 2.906187 42.364242 110 110 110 0
-1.856887 2.888491 42.106277 113 113 113 0
-1.748387 2.879696 41.978076 119 119 119 0
-1.644040 2.877069 41.939788 124 124 124 0
-1.537903 2.870753 41.847706 127 127 127 0
-1.434202 2.868404 41.813463 130 130 130 0
-1.331334 2.867490 41.800141 131 131 131 0
-1.227420 2.863981 41.748995 133 133 133 0
-1.122230 2.856585 41.641184 133 133 133 0
-1.020014 2.856040 41.633236 133 133 133 0
-0.916921 2.852645 41.583741 132 132 132 0
-0.813243 2.846349 41.491967 131 131 131 0
-0.711743 2.846973 41.501062 128 128 128 0
-0.611020 2.851426 41.565981 120 120 120 0
-0.508518 2.847701 41.511671 111 111 111 0
-0.407617 2.853317 41.593535 104 104 104 0
-0.306467 2.860362 41.696246 96 96 96 0
-0.204866 2.868121 41.809342 93 93 93 0
-0.102641 2.873955 41.894386 92 92 92 0
0.000000 2.886141 42.072023 90 90 90 0
1.536621 3.309645 48.245551 99 99 99 0
1.654302 3.308603 48.230367 106 106 106 0
1.773024 3.309644 48.245543 109 109 109 0
1.888239 3.304419 48.169369 108 108 108 0
2.004229 3.301084 48.120753 107 107 107 0
2.118446 3.295360 48.037324 109 109 109 0
2.235957 3.295095 48.033456 109 109 109 0
2.359784 3.303698 48.158866 112 112 112 0
2.480258 3.307011 48.207155 113 113 113 0
2.602072 3.311728 48.275920 110 110 110 0
2.713974 3.303969 48.162807 110 110 110 0
2.738047 3.194389 46.565432 107 107 107 0
2.763176 3.094757 45.113077 108 108 108 0
2.847541 3.066582 44.702366 107 107 107 0
2.936242 3.044992 44.387637 108 108 108 0
3.026576 3.026576 44.119185 108 108 108 0
3.109379 3.002159 43.763252 110 110 110 0
3.201250 2.987833 43.554417 111 111 111 0
3.300070 2.980708 43.450561 117 117 117 0
3.398931 2.974065 43.353711 121 121 121 0
3.499873 2.969590 43.288477 125 125 125 0
3.603783 2.967822 43.262704 125 125 125 0
3.708605 2.966884 43.249034 123 123 123 0
3.812305 2.965126 43.223409 123 123 123 0
3.914963 2.962675 43.187677 121 121 121 0
4.033114 2.971768 43.320233 116 116 116 0
4.133470 2.967619 43.259755 115 115 115 0
4.246173 2.972321 43.328292 113 113 113 0
4.359251 2.977049 43.397219 110 110 110 0
4.472066 2.981378 43.460315 106 106 106 0
4.585157 2.985684 43.523089 100 100 100 0
4.703165 2.992923 43.628622 93 93 93 0
4.828837 3.004610 43.798978 90 90 90 0
4.951224 3.013789 43.932778 90 90 90 0
5.071464 3.021298 44.042241 89 89 89 0
5.217128 3.043324 44.363329 86 86 86 0
5.753698 3.158893 46.048006 82 82 82 0
5.858642 3.154654 45.986203 89 89 89 0
5.944088 3.140273 45.776572 95 95 95 0
6.031357 3.127370 45.588486 96 96 96 0
6.125694 3.118535 45.459697 99 99 99 0
6.209518 3.104759 45.258876 102 102 102 0
6.306572 3.097965 45.159841 100 100 100 0
6.408381 3.093701 45.097688 99 99 99 0
6.496991 3.083318 44.946326 99 99 99 0
6.576422 3.068997 44.737566 100 100 100 0
7.648392 3.510737 51.176926 101 101 101 0
7.510272 3.391736 49.442212 106 106 106 0
8.481499 3.769555 54.949782 105 105 105 0
8.615689 3.769364 54.946995 110 110 110 0
8.750674 3.769521 54.949285 112 112 112 0
8.885458 3.769588 54.950265 116 116 116 0
9.019629 3.769397 54.947479 118 118 118 0
9.154489 3.769495 54.948914 119 119 119 0
9.289302 3.769572 54.950029 123 123 123 0
9.423544 3.769418 54.947781 124 124 124 0
9.558372 3.769499 54.948963 121 121 121 0
9.693199 3.769577 54.950108 114 114 114 0
9.827364 3.769400 54.947521 99 99 99 0
9.961531 3.769228 54.945016 78 78 78 0
10.222915 3.766337 54.902872 80 80 80 0
10.353789 3.765014 54.883588 113 113 113 0
10.518940 3.776030 55.044163 117 117 117 0
10.662488 3.779110 55.089060 120 120 120 0
-6.677555 2.420614 34.069159 146 146 146 0
-10.344463 3.797335 53.445947 143 143 143 0
-10.507988 3.906816 54.986855 140 140 140 0
-9.158202 3.449193 48.545995 142 142 142 0
-10.237635 3.906466 54.981928 139 139 139 0
-9.717669 3.757499 52.885271 141 141 141 0
-9.607030 3.764917 52.989685 140 140 140 0
-9.828232 3.904366 54.952372 134 134 134 0
-9.693147 3.904184 54.949815 135 135 135 0
-9.558566 3.904203 54.950079 136 136 136 0
-9.424346 3.904372 54.952455 130 130 130 0
-9.289920 3.904459 54.953680 125 125 125 0
-8.870318 3.782930 53.243203 123 123 123 0
-8.690323 3.761483 52.941352 110 110 110 0
-8.526684 3.746573 52.731502 109 109 109 0
-8.374365 3.736255 52.586280 107 107 107 0
-7.602324 3.444803 48.484210 106 106 106 0
-7.445911 3.427483 48.240437 107 107 107 0
-7.296382 3.412824 48.034117 105 105 105 0
-7.162498 3.405122 47.925716 109 109 109 0
-7.030812 3.398226 47.828652 109 109 109 0
-6.894359 3.388753 47.695325 107 107 107 0
-6.760169 3.380084 47.573320 106 106 106 0
-6.629416 3.372861 47.471651 107 107 107 0
-6.496777 3.364402 47.352603 108 108 108 0
-6.353016 3.349772 47.146688 110 110 110 0
-5.618155 3.017158 42.465271 114 114 114 0
-5.460322 2.987723 42.050998 115 115 115 0
-5.328648 2.971746 41.826122 117 117 117 0
-5.200140 2.956942 41.617767 117 117 117 0
-5.086689 2.950280 41.523995 118 118 118 0
-4.978115 2.946232 41.467017 118 118 118 0
-4.863767 2.938526 41.358564 118 118 118 0
-4.758880 2.936330 41.327655 117 117 117 0
-4.661443 2.938736 41.361522 117 117 117 0
-4.553301 2.934349 41.299779 117 117 117 0
-4.452157 2.934376 41.300159 115 115 115 0
-4.357170 2.938556 41.358992 116 116 116 0
-4.255758 2.938499 41.358188 116 116 116 0
-4.154681 2.938677 41.360687 114 114 114 0
-4.059449 2.943101 41.422950 114 114 114 0
-3.964963 2.948306 41.496209 114 114 114 0
-3.860747 2.946360 41.468823 112 112 112 0
-3.767260 2.952717 41.558303 111 111 111 0
-3.672190 2.958153 41.634812 109 109 109 0
-3.573120 2.960585 41.669034 110 110 110 0
-3.472317 2.961682 41.684473 110 110 110 0
-3.379388 2.969765 41.798240 108 108 108 0
-3.282663 2.974913 41.870699 100 100 100 0
-3.185270 2.979769 41.939043 98 98 98 0
-3.095843 2.992648 42.120309 91 91 91 0
-3.004070 3.004070 42.281065 96 96 96 0
-2.907184 3.011012 42.378778 96 96 96 0
-2.817342 3.026034 42.590204 92 92 92 0
-2.718109 3.031737 42.670474 87 87 87 0
-2.626658 3.046923 42.884209 79 79 79 0
-2.445674 3.083676 43.401487 80 80 80 0
-2.345414 3.091682 43.514178 93 93 93 0
-2.231117 3.081066 43.364757 105 105 105 0
-2.118226 3.071428 43.229106 108 108 108 0
-2.000316 3.053114 42.971340 109 109 109 0
-1.875756 3.022051 42.534144 110 110 110 0
-1.761051 3.004147 42.282149 109 109 109 0
-1.651100 2.992618 42.119893 110 110 110 0
-1.543383 2.983873 41.996808 113 113 113 0
-1.438115 2.978952 41.927550 117 117 117 0
-1.334805 2.977643 41.909115 118 118 118 0
-1.229885 2.972223 41.832834 120 120 120 0
-1.125238 2.966538 41.752818 119 119 119 0
-1.022228 2.964460 41.723579 119 119 119 0
-0.919040 2.961351 41.679818 118 118 118 0
-0.815498 2.956179 41.607018 117 117 117 0
-0.713863 2.957432 41.624655 114 114 114 0
-0.612384 2.959854 41.658750 107 107 107 0
-0.510747 2.962335 41.693671 100 100 100 0
-0.409144 2.966295 41.749398 94 94 94 0
-0.307879 2.976162 41.888278 92 92 92 0
-0.205790 2.983962 41.998051 87 87 87 0
-0.103262 2.994612 42.147957 84 84 84 0
1.077572 3.472177 48.869483 82 82 82 0
1.192141 3.457209 48.658824 89 89 89 0
1.311829 3.458459 48.676414 96 96 96 0
1.429903 3.455598 48.636142 102 102 102 0
1.545048 3.446647 48.510155 104 104 104 0
1.663741 3.446320 48.505558 106 106 106 0
1.781208 3.443670 48.468256 107 107 107 0
1.894562 3.433894 48.330674 107 107 107 0
2.011950 3.432150 48.306124 108 108 108 0
2.128906 3.429905 48.274521 108 108 108 0
2.243666 3.424543 48.199059 109 109 109 0
2.362464 3.425573 48.213558 109 109 109 0
2.484687 3.431235 48.293240 110 110 110 0
2.606897 3.436364 48.365436 111 111 111 0
2.731458 3.444013 48.473088 113 113 113 0
2.852679 3.446987 48.514942 110 110 110 0
2.970439 3.445709 48.496957 110 110 110 0
3.204115 3.573820 50.300073 110 110 110 0
2.959854 3.179102 44.744576 107 107 107 0
3.049464 3.158373 44.452828 106 106 106 0
3.134558 3.134558 44.117640 107 107 107 0
3.225245 3.117736 43.880880 109 109 109 0
3.313972 3.100168 43.633605 108 108 108 0
3.413674 3.093642 43.541762 108 108 108 0
3.509693 3.084275 43.409927 111 111 111 0
3.612529 3.081275 43.367701 112 112 112 0
3.719622 3.081973 43.377516 112 112 112 0
3.822436 3.079184 43.338275 110 110 110 0
3.926174 3.077272 43.311355 106 106 106 0
4.039449 3.082737 43.388280 105 105 105 0
4.145674 3.082680 43.387480 104 104 104 0
4.258236 3.087221 43.451384 101 101 101 0
4.367945 3.089522 43.483773 98 98 98 0
4.490854 3.100828 43.642900 91 91 91 0
4.609008 3.108400 43.749479 87 87 87 0
4.745542 3.127744 44.021728 86 86 86 0
4.870250 3.138606 44.174605 83 83 83 0
4.975276 3.136587 44.146190 84 84 84 0
7.001739 3.904816 54.958704 78 78 78 0
7.135589 3.904379 54.952552 93 93 93 0
7.270449 3.904500 54.954261 96 96 96 0
7.404821 3.904360 54.952291 101 101 101 0
7.539060 3.904156 54.949415 103 103 103 0
7.673795 3.904212 54.950198 106 106 106 0
7.808286 3.904143 54.949232 107 107 107 0
7.942601 3.903990 54.947084 110 110 110 0
8.077407 3.904080 54.948346 109 109 109 0
8.211874 3.904006 54.947300 113 113 113 0
8.346458 3.903989 54.947059 115 115 115 0
8.481125 3.904010 54.947358 116 116 116 0
8.615674 3.903977 54.946902 117 117 117 0
8.750432 3.904039 54.947769 118 118 118 0
8.885061 3.904042 54.947808 120 120 120 0
9.019490 3.903958 54.946635 122 122 122 0
9.154404 3.904084 54.948406 123 123 123 0
9.289006 3.904075 54.948273 123 123 123 0
9.423406 3.903982 54.946972 117 117 117 0
9.558241 3.904070 54.948210 109 109 109 0
9.692486 3.903918 54.946064 92 92 92 0
10.085417 3.899695 54.886625 95 95 95 0
10.222538 3.900705 54.900850 115 115 115 0
10.353232 3.899269 54.880639 117 117 117 0
10.519027 3.910920 55.044620 119 119 119 0
10.653887 3.910921 55.044625 122 122 122 0
-9.250021 3.468758 47.193982 143 143 143 0
-5.539553 2.103628 28.620785 141 141 141 0
-6.021308 2.315888 31.508675 144 144 144 0
-9.767258 3.805425 51.774493 141 141 141 0
-9.699957 3.828930 52.094291 141 141 141 0
-10.098293 4.039317 54.956697 137 137 137 0
-9.571389 3.880293 52.793102 141 141 141 0
-9.828126 4.038956 54.951782 138 138 138 0
-9.693113 4.038797 54.949620 136 136 136 0
-9.558456 4.038784 54.949444 137 137 137 0
-9.424226 4.038954 54.951756 138 138 138 0
-9.289669 4.038986 54.952197 137 137 137 0
-9.155234 4.039074 54.953384 134 134 134 0
-9.020904 4.039211 54.955246 135 135 135 0
-8.886249 4.039204 54.955159 131 131 131 0
-8.752014 4.039391 54.957700 127 127 127 0
-8.617693 4.039544 54.959778 128 128 128 0
-8.163822 3.887534 52.891624 118 118 118 0
-8.001183 3.871540 52.674014 112 112 112 0
-7.232305 3.556871 48.392808 108 108 108 0
-7.084941 3.542470 48.196877 107 107 107 0
-6.936853 3.527213 47.989297 107 107 107 0
-6.807105 3.520917 47.903628 107 107 107 0
-6.677626 3.514540 47.816872 107 107 107 0
-6.544416 3.505937 47.699827 106 106 106 0
-6.413563 3.498307 47.596016 107 107 107 0
-6.280278 3.489043 47.469975 108 108 108 0
-5.535320 3.133200 42.628571 110 110 110 0
-5.365939 3.095734 42.118829 112 112 112 0
-5.232708 3.078063 41.878415 114 114 114 0
-5.111234 3.066741 41.724363 115 115 115 0
-5.001888 3.062380 41.665040 115 115 115 0
-4.884856 3.053035 41.537895 114 114 114 0
-4.778578 3.050156 41.498726 113 113 113 0
-4.678760 3.051365 41.515169 111 111 111 0
-4.571360 3.047573 41.463582 112 112 112 0
-4.469191 3.047176 41.458173 112 112 112 0
-4.372251 3.050408 41.502145 111 111 111 0
-4.271881 3.051344 41.514882 109 109 109 0
-4.169962 3.051192 41.512812 108 108 108 0
-4.072584 3.054438 41.556982 106 106 106 0
-3.974273 3.057133 41.593652 105 105 105 0
-3.874183 3.058565 41.613133 103 103 103 0
-3.778936 3.064002 41.687105 99 99 99 0
-3.685909 3.071591 41.790355 98 98 98 0
-3.586300 3.073971 41.822741 99 99 99 0
-3.487550 3.077250 41.867341 100 100 100 0
-3.392427 3.084025 41.959518 98 98 98 0
-3.295326 3.089368 42.032221 96 96 96 0
-3.197881 3.094723 42.105077 92 92 92 0
-3.105687 3.105687 42.254238 90 90 90 0
-3.013283 3.117189 42.410734 90 90 90 0
-2.920339 3.128934 42.570533 85 85 85 0
-2.416599 3.295363 44.834866 87 87 87 0
-2.303707 3.291010 44.775650 98 98 98 0
-2.183014 3.274521 44.551308 97 97 97 0
-2.026644 3.199964 43.536920 103 103 103 0
-1.901984 3.169974 43.128893 106 106 106 0
-1.786939 3.153421 42.903687 107 107 107 0
-1.668999 3.129374 42.576510 106 106 106 0
-1.555580 3.111160 42.328710 105 105 105 0
-1.446974 3.100659 42.185838 105 105 105 0
-1.342288 3.097587 42.144045 107 107 107 0
-1.235339 3.088348 42.018344 108 108 108 0
-1.130671 3.083649 41.954414 109 109 109 0
-1.027133 3.081399 41.923791 107 107 107 0
-0.923170 3.077235 41.867139 108 108 108 0
-0.819794 3.074229 41.826244 104 104 104 0
-0.717370 3.074444 41.829175 99 99 99 0
-0.615162 3.075808 41.847727 99 99 99 0
-0.513353 3.080116 41.906345 93 93 93 0
-0.411742 3.088064 42.014471 89 89 89 0
-0.309850 3.098497 42.156425 86 86 86 0
-0.207635 3.114521 42.374429 84 84 84 0
-0.116859 3.505778 47.697662 84 84 84 0
0.000000 3.583093 48.749571 88 88 88 0
0.120279 3.608363 49.093376 88 88 88 0
0.241231 3.618458 49.230719 89 89 89 0
0.361325 3.613248 49.159835 90 90 90 0
0.483122 3.623414 49.298149 89 89 89 0
0.602974 3.617843 49.222352 93 93 93 0
0.723373 3.616863 49.209018 93 93 93 0
0.844565 3.619563 49.245758 99 99 99 0
0.965204 3.619515 49.245105 99 99 99 0
1.083725 3.612418 49.148543 101 101 101 0
1.203160 3.609481 49.108590 103 103 103 0
1.320013 3.600035 48.980070 103 103 103 0
1.436752 3.591880 48.869110 103 103 103 0
1.552998 3.583842 48.759754 102 102 102 0
1.670844 3.580381 48.712661 105 105 105 0
1.788163 3.576327 48.657505 105 105 105 0
1.902761 3.567677 48.539817 107 107 107 0
2.020038 3.564773 48.500309 108 108 108 0
2.137200 3.562000 48.462590 108 108 108 0
2.253018 3.557397 48.399959 108 108 108 0
2.370259 3.555388 48.372627 107 107 107 0
2.490878 3.558396 48.413557 108 108 108 0
2.609439 3.558327 48.412606 107 107 107 0
2.734265 3.566433 48.522892 109 109 109 0
2.857796 3.572245 48.601968 113 113 113 0
2.978111 3.573733 48.622220 111 111 111 0
3.107043 3.585050 48.776185 117 117 117 0
3.239461 3.599401 48.971448 118 118 118 0
3.024906 3.240970 44.094836 105 105 105 0
3.161625 3.270646 44.498589 104 104 104 0
3.252576 3.252576 44.252730 104 104 104 0
3.350104 3.242036 44.109330 103 103 103 0
3.442285 3.227142 43.906693 101 101 101 0
3.531595 3.210541 43.680834 102 102 102 0
3.631260 3.204053 43.592554 102 102 102 0
3.740537 3.206174 43.621418 98 98 98 0
3.842723 3.202269 43.568286 96 96 96 0
3.954991 3.206749 43.629239 96 96 96 0
4.067433 3.211131 43.688863 92 92 92 0
4.178329 3.214099 43.729241 91 91 91 0
4.294138 3.220603 43.817734 89 89 89 0
4.417229 3.232119 43.974408 90 90 90 0
4.534760 3.239114 44.069581 87 87 87 0
4.656908 3.249006 44.204159 85 85 85 0
4.741111 3.232576 43.980620 85 85 85 0
5.568783 3.712522 50.510502 84 84 84 0
5.671882 3.699053 50.327255 85 85 85 0
5.754811 3.673284 49.976650 83 83 83 0
5.828698 3.642936 49.563757 81 81 81 0
6.597576 4.039332 54.956901 87 87 87 0
6.731798 4.039079 54.953457 92 92 92 0
6.866118 4.038893 54.950925 97 97 97 0
7.000875 4.038966 54.951923 100 100 100 0
7.135179 4.038780 54.949393 103 103 103 0
7.269925 4.038847 54.950301 104 104 104 0
7.404308 4.038713 54.948479 108 108 108 0
7.538834 4.038661 54.947767 109 109 109 0
7.673574 4.038723 54.948614 110 110 110 0
7.808097 4.038671 54.947905 114 114 114 0
7.942427 4.038522 54.945877 113 113 113 0
8.077274 4.038637 54.947445 116 116 116 0
8.211707 4.038544 54.946180 118 118 118 0
8.346252 4.038509 54.945703 118 118 118 0
8.481119 4.038628 54.947321 118 118 118 0
8.615274 4.038410 54.944349 121 121 121 0
8.750204 4.038556 54.946337 121 121 121 0
8.884970 4.038623 54.947248 122 122 122 0
9.019185 4.038441 54.944778 122 122 122 0
9.154215 4.038624 54.947272 120 120 120 0
9.288764 4.038593 54.946842 115 115 115 0
9.422981 4.038420 54.944495 108 108 108 0
9.557313 4.038301 54.942876 84 84 84 0
9.816521 4.034187 54.886894 77 77 77 0
9.950733 4.034081 54.885455 113 113 113 0
10.084996 4.033998 54.884333 118 118 118 0
10.222330 4.035130 54.899730 115 115 115 0
10.357074 4.035224 54.901002 119 119 119 0
10.518950 4.045750 55.044217 120 120 120 0
10.662517 4.049057 55.089212 123 123 123 0
-10.480304 4.061118 53.470937 141 141 141 0
-9.363691 3.674360 48.378666 144 144 144 0
-10.504424 4.174835 54.968206 142 142 142 0
-9.570348 3.852997 50.730706 138 138 138 0
-10.235924 4.175179 54.972738 139 139 139 0
-10.104934 4.176706 54.992841 143 143 143 0
-9.963976 4.174098 54.958500 139 139 139 0
-9.828232 4.173633 54.952376 138 138 138 0
-9.693081 4.173410 54.949436 136 136 136 0
-9.558372 4.173374 54.948960 137 137 137 0
-9.424076 4.173519 54.950882 135 135 135 0
-9.289546 4.173564 54.951468 139 139 139 0
-9.155167 4.173679 54.952980 137 137 137 0
-9.020764 4.173786 54.954396 134 134 134 0
-8.886160 4.173803 54.954609 136 136 136 0
-8.751964 4.174014 54.957390 132 132 132 0
-8.617415 4.174060 54.958001 132 132 132 0
-8.482959 4.174155 54.959245 132 132 132 0
-8.348572 4.174286 54.960974 129 129 129 0
-8.214256 4.174458 54.963239 124 124 124 0
-7.745588 4.001887 52.691072 115 115 115 0
-7.580856 3.983161 52.444522 109 109 109 0
-6.862514 3.667895 48.293554 108 108 108 0
-6.719718 3.654583 48.118279 106 106 106 0
-6.582203 3.643719 47.975238 106 106 106 0
-6.455692 3.638663 47.908657 106 106 106 0
-6.327828 3.632642 47.829389 107 107 107 0
-6.197816 3.625138 47.730582 108 108 108 0
-5.546386 3.306499 43.535211 108 108 108 0
-5.275693 3.206794 42.222433 110 110 110 0
-5.148613 3.192140 42.029494 109 109 109 0
-5.030115 3.182317 41.900164 110 110 110 0
-4.913515 3.173312 41.781591 112 112 112 0
-4.799667 3.165738 41.681864 111 111 111 0
-4.699702 3.167190 41.700991 109 109 109 0
-4.592592 3.163785 41.656159 109 109 109 0
-4.486119 3.160675 41.615209 107 107 107 0
-4.392832 3.166926 41.697507 105 105 105 0
-4.289655 3.166174 41.687611 103 103 103 0
-4.187481 3.166145 41.687222 102 102 102 0
-4.091629 3.171013 41.751320 98 98 98 0
-3.996088 3.176377 41.821952 96 96 96 0
-3.896808 3.178975 41.856151 94 94 94 0
-3.806124 3.188915 41.987026 91 91 91 0
-3.714598 3.198682 42.115629 90 90 90 0
-3.611761 3.198988 42.119661 91 91 91 0
-3.516564 3.206279 42.215655 95 95 95 0
-3.418622 3.211433 42.283514 92 92 92 0
-3.322641 3.218808 42.380625 91 91 91 0
-3.221334 3.221334 42.413877 90 90 90 0
-3.126464 3.230679 42.536921 85 85 85 0
-3.026821 3.235567 42.601278 83 83 83 0
-2.942417 3.257676 42.892370 80 80 80 0
-2.651900 3.425371 45.100346 85 85 85 0
-2.533098 3.414176 44.952937 92 92 92 0
-2.408252 3.393446 44.679998 94 94 94 0
-2.511644 3.707665 48.817184 100 100 100 0
-2.372549 3.677451 48.419369 104 104 104 0
-2.249488 3.670218 48.324132 111 111 111 0
-2.124397 3.658684 48.172270 112 112 112 0
-2.000300 3.647607 48.026421 110 110 110 0
-1.876766 3.636233 47.876672 107 107 107 0
-1.582223 3.269928 43.053690 104 104 104 0
-1.468386 3.251426 42.810089 105 105 105 0
-1.356697 3.235201 42.596462 103 103 103 0
-1.246499 3.220122 42.397916 103 103 103 0
-1.139585 3.211559 42.285176 104 104 104 0
-1.034138 3.205827 42.209705 103 103 103 0
-0.928782 3.199138 42.121637 101 101 101 0
-0.825526 3.198915 42.118694 97 97 97 0
-0.723582 3.204434 42.191363 96 96 96 0
-0.620465 3.205737 42.208519 89 89 89 0
-0.517594 3.209081 42.252542 88 88 88 0
-0.417078 3.232356 42.559002 87 87 87 0
-0.318946 3.295780 43.394078 87 87 87 0
-0.239349 3.709907 48.846703 86 86 86 0
-0.120704 3.741823 49.266931 93 93 93 0
0.000000 3.757866 49.478154 92 92 92 0
0.121619 3.770192 49.640452 89 89 89 0
0.243374 3.772296 49.668152 93 93 93 0
0.365377 3.775557 49.711089 96 96 96 0
0.488503 3.785897 49.847234 95 95 95 0
0.610101 3.782629 49.804201 97 97 97 0
0.730443 3.773954 49.689978 95 95 95 0
0.852542 3.775542 49.710889 96 96 96 0
0.972283 3.767597 49.606280 100 100 100 0
1.092351 3.762544 49.539745 100 100 100 0
1.210822 3.753550 49.421326 100 100 100 0
1.330504 3.749602 49.369351 98 98 98 0
1.449089 3.743479 49.288731 100 100 100 0
1.569367 3.742336 49.273679 99 99 99 0
1.683651 3.728085 49.086045 100 100 100 0
1.799915 3.719825 48.977286 101 101 101 0
1.913921 3.708222 48.824512 103 103 103 0
2.029354 3.700587 48.723992 105 105 105 0
2.147798 3.698985 48.702900 105 105 105 0
2.261840 3.690371 48.589476 106 106 106 0
2.381475 3.691285 48.601521 104 104 104 0
2.500073 3.690584 48.592285 100 100 100 0
2.618270 3.689380 48.576436 101 101 101 0
2.743784 3.698144 48.691822 103 103 103 0
2.863612 3.698832 48.700886 107 107 107 0
2.984153 3.700350 48.720864 108 108 108 0
3.108291 3.706040 48.795784 111 111 111 0
3.232137 3.710972 48.860727 110 110 110 0
3.354847 3.714295 48.904473 107 107 107 0
3.492417 3.733273 49.154352 104 104 104 0
3.652830 3.774591 49.698371 103 103 103 0
3.352032 3.352032 44.134718 97 97 97 0
3.467745 3.359378 44.231435 98 98 98 0
3.577043 3.360252 44.242953 96 96 96 0
3.682675 3.357733 44.209781 93 93 93 0
3.786131 3.353430 44.153133 91 91 91 0
3.895844 3.354754 44.170566 92 92 92 0
3.996921 3.348772 44.091791 88 88 88 0
4.124851 3.365010 44.305593 88 88 88 0
4.227028 3.359945 44.238908 89 89 89 0
4.342569 3.365491 44.311930 89 89 89 0
4.452651 3.366639 44.327039 88 88 88 0
5.227928 3.858709 50.805908 85 85 85 0
5.313490 3.830656 50.436548 88 88 88 0
5.403153 3.806767 50.122016 92 92 92 0
6.058267 4.173473 54.950271 97 97 97 0
6.193195 4.173675 54.952925 100 100 100 0
6.327605 4.173527 54.950978 101 101 101 0
6.462165 4.173482 54.950387 102 102 102 0
6.596661 4.173398 54.949276 104 104 104 0
6.731224 4.173359 54.948770 105 105 105 0
6.865833 4.173349 54.948643 107 107 107 0
7.000344 4.173282 54.947756 109 109 109 0
7.134825 4.173200 54.946669 109 109 109 0
7.269469 4.173214 54.946859 111 111 111 0
7.404021 4.173176 54.946355 114 114 114 0
7.538447 4.173069 54.944948 112 112 112 0
7.673247 4.173170 54.946276 115 115 115 0
7.807684 4.173072 54.944995 115 115 115 0
7.942229 4.173036 54.944510 118 118 118 0
8.077013 4.173124 54.945669 117 117 117 0
8.211522 4.173069 54.944947 120 120 120 0
8.346196 4.173098 54.945330 120 120 120 0
8.480996 4.173188 54.946521 123 123 123 0
8.615331 4.173051 54.944711 121 121 121 0
8.749917 4.173037 54.944532 122 122 122 0
8.884839 4.173182 54.946437 119 119 119 0
9.018884 4.172916 54.942941 118 118 118 0
9.153934 4.173117 54.945584 112 112 112 0
9.288438 4.173066 54.944914 99 99 99 0
9.421717 4.172475 54.937124 76 76 76 0
9.681765 4.168538 54.885290 96 96 96 0
9.815949 4.168417 54.883696 116 116 116 0
9.950457 4.168435 54.883934 119 119 119 0
10.084921 4.168434 54.883921 116 116 116 0
10.222329 4.169634 54.899726 116 116 116 0
10.353571 4.168321 54.882432 119 119 119 0
10.519021 4.180637 55.044592 120 120 120 0
10.653863 4.180630 55.044500 121 121 121 0
-10.479260 4.191704 53.465612 144 144 144 0
-10.421450 4.221347 53.843708 141 141 141 0
-9.825736 4.031071 51.416724 144 144 144 0
-9.504813 3.950052 50.383319 140 140 140 0
-9.697411 4.083120 52.080616 140 140 140 0
-10.104379 4.311202 54.989818 138 138 138 0
-9.607978 4.154801 52.994915 136 136 136 0
-9.828143 4.308227 54.951875 138 138 138 0
-9.693130 4.308058 54.949715 138 138 138 0
-9.558418 4.308019 54.949228 136 136 136 0
-9.424042 4.308134 54.950684 134 134 134 0
-9.289546 4.308195 54.951468 135 135 135 0
-9.155030 4.308249 54.952162 135 135 135 0
-9.020696 4.308392 54.953978 136 136 136 0
-8.886073 4.308399 54.954072 135 135 135 0
-8.751795 4.308576 54.956327 130 130 130 0
-8.617348 4.308674 54.957573 132 132 132 0
-8.482809 4.308729 54.958272 133 133 133 0
-8.348455 4.308880 54.960207 131 131 131 0
-8.214001 4.308984 54.961531 132 132 132 0
-8.079614 4.309127 54.963360 127 127 127 0
-7.945225 4.309275 54.965240 124 124 124 0
-7.810622 4.309309 54.965672 122 122 122 0
-7.331961 4.116189 52.502405 112 112 112 0
-6.635339 3.791622 48.362530 107 107 107 0
-6.504481 3.784425 48.270728 105 105 105 0
-6.369571 3.774561 48.144908 106 106 106 0
-6.234566 3.764266 48.013602 105 105 105 0
-6.111174 3.760722 47.968397 105 105 105 0
-5.985383 3.755535 47.902228 108 108 108 0
-5.320773 3.405295 43.434880 107 107 107 0
-5.072160 3.312431 42.250397 106 106 106 0
-4.945659 3.297106 42.054921 106 106 106 0
-4.837914 3.293899 42.014016 105 105 105 0
-4.727908 3.288980 41.951271 105 105 105 0
-4.618885 3.284541 41.894652 104 104 104 0
-4.511325 3.280963 41.849023 103 103 103 0
-4.414051 3.284875 41.898918 101 101 101 0
-4.314590 3.287307 41.929932 99 99 99 0
-4.212903 3.288119 41.940297 96 96 96 0
-4.116378 3.293102 42.003855 95 95 95 0
-4.023456 3.301297 42.108386 91 91 91 0
-3.924077 3.304486 42.149057 90 90 90 0
-3.834619 3.316427 42.301366 88 88 88 0
-3.736323 3.321176 42.361934 87 87 87 0
-3.648535 3.335804 42.548517 86 86 86 0
-3.538983 3.330808 42.484795 84 84 84 0
-3.456156 3.351424 42.747749 81 81 81 0
-3.685066 3.685066 47.003394 82 82 82 0
-3.583896 3.699506 47.187576 82 82 82 0
-3.547526 3.784027 48.265654 86 86 86 0
-3.445758 3.802216 48.497649 86 86 86 0
-3.329941 3.805647 48.541421 89 89 89 0
-3.204059 3.797403 48.436263 94 94 94 0
-3.078898 3.789413 48.334355 102 102 102 0
-2.961904 3.791237 48.357615 103 103 103 0
-2.840622 3.787496 48.309893 104 104 104 0
-2.721704 3.786718 48.299977 105 105 105 0
-2.603962 3.787581 48.310976 108 108 108 0
-2.484924 3.786552 48.297852 108 108 108 0
-2.364665 3.783463 48.258462 109 109 109 0
-2.246687 3.783894 48.263956 109 109 109 0
-2.128360 3.783751 48.262128 105 105 105 0
-2.010013 3.783555 48.259627 101 101 101 0
-1.893903 3.787806 48.313857 97 97 97 0
-1.777791 3.792622 48.375275 95 95 95 0
-1.658055 3.789841 48.339806 97 97 97 0
-1.537442 3.784472 48.271329 96 96 96 0
-1.276837 3.404898 43.429822 98 98 98 0
-1.167273 3.395704 43.312553 96 96 96 0
-1.059581 3.390658 43.248193 94 94 94 0
-0.954161 3.392572 43.272602 90 90 90 0
-0.948590 3.794360 48.397444 92 92 92 0
-0.838670 3.833922 48.902067 88 88 88 0
-0.719704 3.838419 48.959427 88 88 88 0
-0.603495 3.862365 49.264861 86 86 86 0
-0.485191 3.881527 49.509274 89 89 89 0
-0.363873 3.881310 49.506499 90 90 90 0
-0.243621 3.897930 49.718498 90 90 90 0
-0.122050 3.905584 49.816123 93 93 93 0
0.000000 3.910835 49.883096 93 93 93 0
0.122702 3.926464 50.082447 93 93 93 0
0.245298 3.924766 50.060795 93 93 93 0
0.368420 3.929814 50.125183 89 89 89 0
0.492477 3.939812 50.252707 95 95 95 0
0.615733 3.940693 50.263936 95 95 95 0
0.740742 3.950624 50.390607 96 96 96 0
0.862184 3.941411 50.273096 99 99 99 0
0.985287 3.941150 50.269769 100 100 100 0
1.104865 3.928408 50.107248 98 98 98 0
1.226379 3.924412 50.056281 98 98 98 0
1.346584 3.917336 49.966025 98 98 98 0
1.464720 3.905920 49.820411 98 98 98 0
1.580500 3.890461 49.623233 97 97 97 0
1.700882 3.887731 49.588403 98 98 98 0
1.821499 3.885865 49.564607 98 98 98 0
1.935411 3.870823 49.372737 102 102 102 0
2.045655 3.850645 49.115375 100 100 100 0
2.161242 3.842208 49.007753 98 98 98 0
2.276659 3.834373 48.907824 98 98 98 0
2.400345 3.840552 48.986637 98 98 98 0
2.516794 3.835114 48.917273 95 95 95 0
2.636649 3.835126 48.917429 95 95 95 0
2.754043 3.831712 48.873881 97 97 97 0
2.876756 3.835675 48.924427 100 100 100 0
2.997857 3.837257 48.944605 97 97 97 0
3.122628 3.843234 49.020847 99 99 99 0
3.243120 3.843698 49.026761 98 98 98 0
3.363229 3.843690 49.026663 99 99 99 0
3.490800 3.851917 49.131600 98 98 98 0
3.615256 3.856274 49.187163 98 98 98 0
3.743164 3.863911 49.284576 98 98 98 0
3.869428 3.869428 49.354950 96 96 96 0
4.010795 3.889256 49.607856 92 92 92 0
4.154609 3.910220 49.875257 89 89 89 0
4.273366 3.907077 49.835168 89 89 89 0
4.420994 3.929772 50.124645 89 89 89 0
4.566941 3.949787 50.379930 88 88 88 0
4.703059 3.960470 50.516203 89 89 89 0
4.803831 3.941605 50.275573 89 89 89 0
5.385027 4.308022 54.949260 90 90 90 0
5.051751 3.942830 50.291203 94 94 94 0
5.654403 4.308116 54.950464 96 96 96 0
5.789168 4.308218 54.951762 100 100 100 0
5.923575 4.308055 54.949678 103 103 103 0
6.058063 4.307956 54.948416 101 101 101 0
6.192789 4.308027 54.949322 102 102 102 0
6.327265 4.307925 54.948027 106 106 106 0
6.461763 4.307842 54.946968 105 105 105 0
6.596382 4.307842 54.946958 107 107 107 0
6.730943 4.307804 54.946473 109 109 109 0
6.865438 4.307726 54.945484 110 110 110 0
7.000103 4.307756 54.945865 112 112 112 0
7.134533 4.307643 54.944424 113 113 113 0
7.269180 4.307662 54.944674 114 114 114 0
7.403721 4.307620 54.944127 116 116 116 0
7.538240 4.307566 54.943438 119 119 119 0
7.672986 4.307641 54.944403 117 117 117 0
7.807657 4.307673 54.944807 122 122 122 0
7.941931 4.307488 54.942447 121 121 121 0
8.076790 4.307622 54.944152 121 121 121 0
8.211421 4.307631 54.944267 124 124 124 0
8.345930 4.307577 54.943581 122 122 122 0
8.480795 4.307706 54.945224 122 122 122 0
8.615251 4.307626 54.944204 121 121 121 0
8.749864 4.307625 54.944201 118 118 118 0
8.884605 4.307688 54.944994 114 114 114 0
9.018793 4.307483 54.942390 106 106 106 0
9.153519 4.307538 54.943093 88 88 88 0
9.412773 4.302982 54.884972 89 89 89 0
9.547149 4.302940 54.884444 110 110 110 0
9.681528 4.302901 54.883947 119 119 119 0
9.815727 4.302785 54.882455 120 120 120 0
9.950226 4.302801 54.882660 121 121 121 0
10.084581 4.302755 54.882076 119 119 119 0
10.222142 4.304060 54.898724 119 119 119 0
10.357031 4.304221 54.900774 122 122 122 0
10.519115 4.315534 55.045081 121 121 121 0
10.655333 4.316084 55.052095 122 122 122 0
-8.675363 3.578587 44.262054 141 141 141 0
-9.695016 4.049817 50.090497 141 141 141 0
-10.507988 4.445687 54.986855 141 141 141 0
-10.374557 4.446239 54.993674 142 142 142 0
-9.433977 4.096332 50.665829 143 143 143 0
-9.546377 4.200406 51.953073 139 139 139 0
-9.835254 4.385991 54.248503 138 138 138 0
-9.828233 4.442900 54.952379 135 135 135 0
-9.693006 4.442628 54.949012 134 134 134 0
-9.558348 4.442613 54.948827 135 135 135 0
-9.423939 4.442714 54.950080 135 135 135 0
-9.289428 4.442770 54.950772 135 135 135 0
-9.154943 4.442840 54.951637 135 135 135 0
-9.020612 4.442988 54.953472 132 132 132 0
-8.886003 4.443002 54.953639 135 135 135 0
-8.751696 4.443169 54.955707 132 132 132 0
-8.617085 4.443184 54.955897 132 132 132 0
-8.482702 4.443320 54.957579 129 129 129 0
-8.348281 4.443440 54.959057 131 131 131 0
-8.213816 4.443540 54.960296 131 131 131 0
-8.079398 4.443669 54.961890 128 128 128 0
-7.945041 4.443836 54.963961 128 128 128 0
-7.810552 4.443935 54.965182 126 126 126 0
-7.676217 4.444126 54.967543 124 124 124 0
-7.541653 4.444189 54.968318 120 120 120 0
-7.066425 4.239855 52.441004 116 116 116 0
-6.939200 4.240622 52.450493 109 109 109 0
-6.278237 3.909091 48.349920 106 106 106 0
-6.149888 3.902814 48.272278 107 107 107 0
-6.015766 3.892554 48.145385 105 105 105 0
-5.889761 3.887243 48.079686 105 105 105 0
-5.766778 3.883748 48.036466 102 102 102 0
-5.620200 3.863887 47.790813 103 103 103 0
-4.863453 3.414765 42.235803 102 102 102 0
-4.766551 3.419483 42.294156 101 101 101 0
-4.655566 3.414082 42.227358 100 100 100 0
-4.551187 3.413390 42.218799 99 99 99 0
-4.450259 3.415315 42.242610 96 96 96 0
-4.343410 3.412679 42.210005 94 94 94 0
-4.244723 3.416484 42.257071 94 94 94 0
-4.153255 3.426435 42.380153 90 90 90 0
-4.055929 3.431940 42.448233 86 86 86 0
-3.961098 3.439901 42.546708 86 86 86 0
-3.890983 3.470336 42.923143 83 83 83 0
-4.271742 3.915764 48.432450 80 80 80 0
-4.031194 3.912629 48.393685 84 84 84 0
-3.919245 3.919245 48.475513 89 89 89 0
-3.789697 3.908125 48.337966 95 95 95 0
-3.680028 3.917449 48.453299 100 100 100 0
-3.560391 3.916430 48.440688 101 101 101 0
-3.438614 3.912905 48.397095 99 99 99 0
-3.324035 3.917613 48.455324 101 101 101 0
-3.205627 3.917988 48.459963 100 100 100 0
-3.084892 3.915439 48.428438 100 100 100 0
-2.970739 3.921375 48.501860 100 100 100 0
-2.853388 3.923408 48.526999 98 98 98 0
-2.732716 3.920853 48.495399 98 98 98 0
-2.616138 3.924206 48.536875 99 99 99 0
-2.498531 3.926262 48.562306 99 99 99 0
-2.376616 3.921417 48.502374 99 99 99 0
-2.258301 3.922312 48.513442 97 97 97 0
-2.141378 3.925860 48.557324 95 95 95 0
-2.025151 3.931176 48.623079 95 95 95 0
-1.909537 3.938421 48.712685 96 96 96 0
-1.789207 3.936255 48.685902 96 96 96 0
-1.672842 3.943128 48.770907 94 94 94 0
-1.558697 3.956691 48.938670 94 94 94 0
-1.439032 3.957338 48.946662 94 94 94 0
-1.319366 3.958098 48.956068 96 96 96 0
-1.201556 3.965134 49.043095 92 92 92 0
-1.084011 3.974709 49.161516 87 87 87 0
-0.966560 3.987059 49.314279 90 90 90 0
-0.852895 4.020791 49.731493 86 86 86 0
-0.733882 4.036353 49.923972 89 89 89 0
-0.612916 4.045243 50.033923 87 87 87 0
-0.492788 4.065504 50.284528 88 88 88 0
-0.369873 4.068602 50.322839 93 93 93 0
-0.247301 4.080467 50.469603 93 93 93 0
-0.123395 4.072026 50.365193 94 94 94 0
0.000000 4.090235 50.590415 93 93 93 0
0.124227 4.099481 50.704776 92 92 92 0
0.248842 4.105894 50.784095 95 95 95 0
0.374324 4.117562 50.928405 96 96 96 0
0.499699 4.122513 50.989646 93 93 93 0
0.623149 4.112781 50.869270 97 97 97 0
0.748807 4.118436 50.939218 95 95 95 0
0.872223 4.111909 50.858495 97 97 97 0
0.996834 4.111939 50.858861 97 97 97 0
1.119473 4.104734 50.769745 96 96 96 0
1.241937 4.098391 50.691287 96 96 96 0
1.366635 4.099905 50.710023 97 97 97 0
1.487454 4.090499 50.593676 94 94 94 0
1.606156 4.077165 50.428751 96 96 96 0
1.726877 4.070496 50.346270 97 97 97 0
2.020376 4.444828 54.976229 97 97 97 0
1.964607 4.052003 50.117535 98 98 98 0
2.082890 4.043257 50.009360 99 99 99 0
2.192782 4.020100 49.722940 94 94 94 0
2.315460 4.021588 49.741346 97 97 97 0
2.428008 4.006213 49.551182 97 97 97 0
2.549992 4.007130 49.562521 96 96 96 0
2.666199 3.999299 49.465661 95 95 95 0
2.781893 3.991411 49.368104 97 97 97 0
2.908439 3.999103 49.463241 95 95 95 0
3.021040 3.987772 49.323095 95 95 95 0
3.148090 3.995652 49.420559 96 96 96 0
3.264336 3.989744 49.347484 96 96 96 0
3.384722 3.989137 49.339969 96 96 96 0
3.514063 3.998761 49.459015 93 93 93 0
3.637273 4.001001 49.486713 92 92 92 0
3.766588 4.009594 49.593000 89 89 89 0
3.899970 4.021844 49.744512 88 88 88 0
4.055260 4.055260 50.157818 85 85 85 0
4.184103 4.061041 50.229329 88 88 88 0
4.712497 4.443212 54.956238 94 94 94 0
4.846614 4.442730 54.950273 92 92 92 0
4.981441 4.442907 54.952468 97 97 97 0
5.116031 4.442869 54.952001 99 99 99 0
5.250564 4.442785 54.950955 102 102 102 0
5.384982 4.442610 54.948792 102 102 102 0
5.519708 4.442692 54.949802 104 104 104 0
5.654103 4.442509 54.947550 103 103 103 0
5.788755 4.442533 54.947838 105 105 105 0
5.923342 4.442506 54.947512 105 105 105 0
6.057784 4.442375 54.945889 108 108 108 0
6.192585 4.442507 54.947515 107 107 107 0
6.326969 4.442340 54.945455 109 109 109 0
6.461500 4.442281 54.944730 111 111 111 0
6.596145 4.442302 54.944979 112 112 112 0
6.730667 4.442240 54.944224 113 113 113 0
6.865152 4.442157 54.943194 113 113 113 0
6.999861 4.442220 54.943968 116 116 116 0
7.134319 4.442123 54.942769 116 116 116 0
7.268959 4.442142 54.943002 118 118 118 0
7.403586 4.442152 54.943124 119 119 119 0
7.538107 4.442099 54.942472 120 120 120 0
7.672832 4.442166 54.943298 121 121 121 0
7.807290 4.442079 54.942225 122 122 122 0
7.941925 4.442094 54.942410 121 121 121 0
8.076751 4.442213 54.943885 123 123 123 0
8.211295 4.442176 54.943427 123 123 123 0
8.345843 4.442142 54.943007 122 122 122 0
8.480550 4.442193 54.943632 120 120 120 0
8.615120 4.442171 54.943365 113 113 113 0
8.749261 4.441933 54.940415 104 104 104 0
8.884058 4.442029 54.941611 96 96 96 0
9.015182 4.440313 54.920388 84 84 84 0
9.144079 4.437568 54.886427 97 97 97 0
9.278356 4.437474 54.885275 110 110 110 0
9.412514 4.437328 54.883461 115 115 115 0
9.546566 4.437136 54.881090 119 119 119 0
9.681451 4.437332 54.883508 121 121 121 0
9.815549 4.437166 54.881460 121 121 121 0
9.950072 4.437194 54.881809 120 120 120 0
10.084753 4.437291 54.883007 120 120 120 0
10.222237 4.438603 54.899235 122 122 122 0
10.353401 4.437172 54.881530 122 122 122 0
10.519017 4.450353 55.044568 120 120 120 0
10.662572 4.453986 55.089495 121 121 121 0
-10.593988 4.502445 54.050961 139 139 139 0
-9.977987 4.294324 51.552504 142 142 142 0
-6.026805 2.627069 31.537443 140 140 140 0
-10.375264 4.581286 54.997425 140 140 140 0
-10.230729 4.576905 54.944841 144 144 144 0
-9.546633 4.327807 51.954465 143 143 143 0
-9.660723 4.438711 53.285843 139 139 139 0
-9.828211 4.577523 54.952257 137 137 137 0
-9.693054 4.577275 54.949285 138 138 138 0
-9.558238 4.577184 54.948191 141 141 141 0
-9.423917 4.577331 54.949952 139 139 139 0
-9.289443 4.577407 54.950862 135 135 135 0
-9.154789 4.577395 54.950717 135 135 135 0
-9.020460 4.577547 54.952542 132 132 132 0
-8.885907 4.577588 54.953041 134 134 134 0
-8.751637 4.577780 54.955337 132 132 132 0
-8.617028 4.577796 54.955536 135 135 135 0
-8.482522 4.577869 54.956411 133 133 133 0
-8.348213 4.578052 54.958608 133 133 133 0
-8.213617 4.578081 54.958960 130 130 130 0
-8.079194 4.578210 54.960505 130 130 130 0
-7.944880 4.578406 54.962852 127 127 127 0
-7.810348 4.578480 54.963744 125 125 125 0
-7.675897 4.578605 54.965251 125 125 125 0
-7.541521 4.578780 54.967352 123 123 123 0
-7.407007 4.578877 54.968512 122 122 122 0
-7.272581 4.579033 54.970381 122 122 122 0
-7.137933 4.579051 54.970601 120 120 120 0
-7.003157 4.578987 54.969837 115 115 115 0
-6.537162 4.358108 52.318223 111 111 111 0
-6.416270 4.363064 52.377715 106 106 106 0
-6.293375 4.366832 52.422948 103 103 103 0
-5.683094 4.025525 48.325632 100 100 100 0
-5.560093 4.022195 48.285658 100 100 100 0
-5.447057 4.026085 48.332358 102 102 102 0
-5.335941 4.031600 48.398562 98 98 98 0
-5.207891 4.024280 48.310680 99 99 99 0
-5.101406 4.033670 48.423411 98 98 98 0
