ply
format ascii 1.0
element vertex 1130
property float x
property float y
property float z
property uchar red
property uchar green
property uchar blue
property uchar alpha
end_header
1.436178 1.128426 41.871080 137 137 137 0
1.535412 1.125968 41.779905 142 142 142 0
1.635007 1.124068 41.709374 149 149 149 0
1.737840 1.124485 41.724856 142 142 142 0
1.841859 1.125580 41.765508 138 138 138 0
1.942675 1.124707 41.733080 134 134 134 0
2.047335 1.126034 41.782339 135 135 135 0
2.152477 1.127488 41.836282 134 134 134 0
2.253589 1.126794 41.810554 132 132 132 0
2.356739 1.127136 41.823232 135 135 135 0
2.462393 1.128597 41.877437 132 132 132 0
2.561180 1.126919 41.815187 130 130 130 0
2.663625 1.126918 41.815152 126 126 126 0
2.779096 1.132224 42.012030 135 135 135 0
2.890984 1.135744 42.142627 143 143 143 0
3.002461 1.138865 42.258423 136 136 136 0
3.097592 1.135784 42.144102 140 140 140 0
3.185520 1.130346 41.942326 140 140 140 0
3.283168 1.128589 41.877141 136 136 136 0
3.384500 1.128167 41.861477 137 137 137 0
3.486707 1.128052 41.857232 137 137 137 0
3.587501 1.127500 41.836750 132 132 132 0
3.689762 1.127427 41.834039 130 130 130 0
3.798121 1.129171 41.898743 133 133 133 0
3.901246 1.129308 41.903819 132 132 132 0
4.008009 1.130464 41.946722 131 131 131 0
4.117273 1.132250 42.012994 126 126 126 0
4.215456 1.130976 41.965710 127 127 127 0
4.315966 1.130372 41.943303 121 121 121 0
4.440821 1.136024 42.153019 126 126 126 0
4.549716 1.137429 42.205159 132 132 132 0
4.649114 1.136450 42.168834 136 136 136 0
4.755769 1.137249 42.198487 133 133 133 0
4.870031 1.139795 42.292932 129 129 129 0
4.967029 1.138277 42.236637 123 123 123 0
5.046623 1.132915 42.037679 123 123 123 0
5.188435 1.141456 42.354575 129 129 129 0
5.339786 1.151719 42.735381 150 150 150 0
5.444660 1.151755 42.736734 143 143 143 0
5.538161 1.149430 42.650449 144 144 144 0
5.634770 1.147824 42.590855 144 144 144 0
5.711115 1.142223 42.383044 146 146 146 0
5.825687 1.144331 42.461278 147 147 147 0
5.912276 1.140966 42.336386 144 144 144 0
6.009757 1.139782 42.292449 147 147 147 0
6.135665 1.143937 42.446659 146 146 146 0
6.210254 1.138547 42.246625 143 143 143 0
6.314636 1.138705 42.252500 145 145 145 0
6.409536 1.137176 42.195762 143 143 143 0
6.488860 1.132976 42.039911 143 143 143 0
6.584662 1.131739 41.994018 141 141 141 0
6.663257 1.127628 41.841490 142 142 142 0
6.752493 1.125416 41.759389 142 142 142 0
6.839679 1.122932 41.667252 141 141 141 0
6.942000 1.122971 41.668667 141 141 141 0
7.030601 1.120820 41.588882 136 136 136 0
7.129945 1.120420 41.574022 130 130 130 0
7.238202 1.121412 41.610819 123 123 123 0
6.777294 1.035420 38.420032 114 114 114 0
7.188700 1.083229 40.194015 108 108 108 0
7.288012 1.083353 40.198630 111 111 111 0
7.552246 1.107663 41.100659 107 107 107 0
7.653431 1.107733 41.103281 111 111 111 0
7.925679 1.132240 42.012611 120 120 120 0
7.857752 1.108145 41.118537 126 126 126 0
8.829640 1.229444 45.619427 129 129 129 0
-9.250021 1.387503 47.193982 140 140 140 0
-10.417298 1.582374 53.822256 134 134 134 0
-10.460751 1.609346 54.739669 137 137 137 0
-9.678746 1.508376 51.305304 139 139 139 0
-9.966299 1.573626 53.524699 143 143 143 0
-8.581594 1.373055 46.702552 140 140 140 0
-7.274196 1.179599 40.122429 124 124 124 0
-7.159146 1.176846 40.028770 112 112 112 0
-7.041636 1.173606 39.918571 104 104 104 0
-6.936951 1.172442 39.878996 102 102 102 0
-6.837484 1.172140 39.868713 102 102 102 0
-6.734881 1.171284 39.839582 99 99 99 0
-6.647245 1.173043 39.899429 97 97 97 0
-6.559594 1.174853 39.960976 98 98 98 0
-6.465759 1.175593 39.986143 92 92 92 0
-6.380206 1.177884 40.064086 91 91 91 0
-6.299075 1.181077 40.172675 89 89 89 0
-6.226032 1.185911 40.337107 88 88 88 0
-6.132056 1.186849 40.369030 85 85 85 0
-6.056302 1.191404 40.523932 85 85 85 0
-5.994639 1.198928 40.779859 86 86 86 0
-5.911561 1.202351 40.896305 87 87 87 0
-5.829036 1.206007 41.020662 82 82 82 0
-5.889294 1.239851 42.171817 83 83 83 0
-4.932158 1.345134 45.752860 88 88 88 0
-4.816582 1.344162 45.719811 107 107 107 0
-4.704707 1.344202 45.721154 121 121 121 0
-4.585760 1.342174 45.652162 123 123 123 0
-4.475885 1.342766 45.672297 122 122 122 0
-4.365247 1.343153 45.685469 125 125 125 0
-4.248335 1.341579 45.631950 124 124 124 0
-4.134486 1.340914 45.609335 121 121 121 0
-3.656949 1.218983 41.462004 117 117 117 0
-3.510530 1.203610 40.939123 114 114 114 0
-3.391844 1.197121 40.718415 120 120 120 0
-3.283729 1.194083 40.615082 126 126 126 0
-3.172993 1.189872 40.471852 132 132 132 0
-3.063891 1.186022 40.340893 137 137 137 0
-2.964367 1.185747 40.331523 140 140 140 0
-2.858276 1.182735 40.229076 143 143 143 0
-2.756504 1.181359 40.182271 142 142 142 0
-2.657066 1.180918 40.167280 140 140 140 0
-2.554740 1.179111 40.105807 141 141 141 0
-2.453165 1.177519 40.051672 141 141 141 0
-2.350285 1.175143 39.970840 142 142 142 0
-2.249857 1.173838 39.926475 140 140 140 0
-2.150963 1.173253 39.906557 145 145 145 0
-2.050605 1.171774 39.856261 148 148 148 0
-1.953026 1.171816 39.857678 144 144 144 0
-1.856086 1.172265 39.872950 135 135 135 0
-1.760264 1.173510 39.915292 129 129 129 0
-1.663521 1.174250 39.940482 121 121 121 0
-1.570588 1.177941 40.066033 113 113 113 0
-1.475154 1.180123 40.140238 107 107 107 0
-1.238074 1.061206 36.095448 107 107 107 0
-1.152220 1.063587 36.176441 110 110 110 0
-1.066773 1.066773 36.284790 112 112 112 0
-1.091820 1.191077 40.512807 116 116 116 0
-0.994675 1.193610 40.598989 120 120 120 0
-0.897365 1.196487 40.696831 121 121 121 0
-0.798634 1.197952 40.746650 125 125 125 0
-0.698790 1.197926 40.745793 130 130 130 0
-0.600093 1.200185 40.822630 135 135 135 0
-0.500780 1.201873 40.880022 136 136 136 0
-0.400305 1.200916 40.847500 132 132 132 0
-0.300627 1.202507 40.901583 124 124 124 0
-0.179081 1.074485 36.547111 111 111 111 0
-0.089745 1.076934 36.630412 105 105 105 0
0.000000 1.078940 36.698626 111 111 111 0
0.101239 1.214873 41.322209 120 120 120 0
0.202613 1.215677 41.349550 117 117 117 0
0.271983 1.087931 37.004473 108 108 108 0
0.367611 1.102833 37.511331 87 87 87 0
1.143605 1.247569 42.434325 105 105 105 0
1.243443 1.243443 42.293981 119 119 119 0
1.340144 1.237056 42.076719 126 126 126 0
1.436549 1.231328 41.881908 133 133 133 0
1.534326 1.227461 41.750375 143 143 143 0
1.635257 1.226443 41.715737 147 147 147 0
1.738244 1.226996 41.734561 147 147 147 0
1.840570 1.227046 41.736271 140 140 140 0
1.941942 1.226490 41.717342 138 138 138 0
2.047749 1.228649 41.790799 135 135 135 0
2.150324 1.228757 41.794448 132 132 132 0
2.254062 1.229488 41.819331 135 135 135 0
2.355606 1.229012 41.803117 132 132 132 0
2.460220 1.230110 41.840477 133 133 133 0
2.560482 1.229031 41.803789 128 128 128 0
2.662865 1.229014 41.803213 127 127 127 0
2.783615 1.237162 42.080342 137 137 137 0
2.891002 1.239001 42.142881 138 138 138 0
2.989496 1.237033 42.075948 141 141 141 0
3.087639 1.235056 42.008695 141 141 141 0
3.181653 1.231608 41.891421 138 138 138 0
3.276642 1.228741 41.793905 138 138 138 0
3.380505 1.229274 41.812055 133 133 133 0
3.485923 1.230326 41.847817 133 133 133 0
3.576751 1.226315 41.711378 130 130 130 0
3.686406 1.228802 41.795989 129 129 129 0
3.792130 1.229880 41.832649 130 130 130 0
3.895344 1.230109 41.840429 129 129 129 0
3.999233 1.230533 41.854871 130 130 130 0
4.100009 1.230003 41.836826 129 129 129 0
4.206206 1.231085 41.873624 123 123 123 0
4.319764 1.234218 41.980209 121 121 121 0
4.429296 1.236083 42.043627 123 123 123 0
4.539333 1.238000 42.108838 130 130 130 0
4.651145 1.240305 42.187259 134 134 134 0
4.750411 1.239238 42.150940 129 129 129 0
4.857462 1.240203 42.183778 125 125 125 0
4.967931 1.241983 42.244315 122 122 122 0
5.046805 1.235952 42.039191 123 123 123 0
5.178817 1.242916 42.276058 128 128 128 0
5.327873 1.253617 42.640037 145 145 145 0
5.441748 1.255788 42.713875 145 145 145 0
5.527045 1.251406 42.564847 145 145 145 0
5.615525 1.247894 42.445391 143 143 143 0
5.716440 1.247223 42.422562 143 143 143 0
5.802416 1.243375 42.291664 144 144 144 0
5.909287 1.244060 42.314977 147 147 147 0
6.005138 1.242442 42.259945 146 146 146 0
6.128428 1.246460 42.396594 150 150 150 0
6.224831 1.244966 42.345788 149 149 149 0
6.310261 1.241363 42.223225 146 146 146 0
6.397393 1.238205 42.115818 145 145 145 0
6.486139 1.235455 42.022281 143 143 143 0
6.578935 1.233550 41.957496 145 145 145 0
6.657498 1.229077 41.805326 144 144 144 0
6.742279 1.225869 41.696224 142 142 142 0
6.828418 1.223000 41.598649 144 144 144 0
6.937886 1.224333 41.643975 146 146 146 0
7.028694 1.222382 41.577604 139 139 139 0
7.123557 1.221181 41.536773 132 132 132 0
7.238275 1.223370 41.611237 124 124 124 0
7.349560 1.224927 41.664170 115 115 115 0
7.346351 1.207619 41.075490 113 113 113 0
7.288999 1.182000 40.204078 109 109 109 0
7.715170 1.234427 41.987321 107 107 107 0
7.803591 1.232146 41.909728 109 109 109 0
7.754277 1.208459 41.104041 116 116 116 0
8.543186 1.314336 44.705318 123 123 123 0
8.132840 1.235368 42.019324 129 129 129 0
-9.810852 1.594264 50.055369 137 137 137 0
-9.977435 1.641856 51.549652 139 139 139 0
-9.650550 1.608425 50.500000 141 141 141 0
-9.767029 1.648979 51.773278 140 140 140 0
-9.786740 1.674048 52.560364 140 140 140 0
-9.719516 1.684716 52.895324 145 145 145 0
-9.224528 1.620525 50.879909 140 140 140 0
-7.759139 1.381764 43.383499 134 134 134 0
-8.249244 1.489447 46.764421 121 121 121 0
-7.562176 1.384624 43.473272 106 106 106 0
-6.917944 1.284761 40.337865 97 97 97 0
-6.808819 1.282821 40.276953 99 99 99 0
-6.708866 1.282577 40.269307 95 95 95 0
-6.617337 1.283961 40.312745 92 92 92 0
-6.530945 1.286398 40.389271 87 87 87 0
-6.441076 1.288215 40.446319 86 86 86 0
-6.362223 1.292327 40.575405 85 85 85 0
-6.286144 1.297141 40.726554 86 86 86 0
-6.187607 1.297401 40.734737 86 86 86 0
-6.556454 1.397277 43.870551 87 87 87 0
-6.827773 1.479351 46.447432 97 97 97 0
-6.686499 1.473296 46.257341 105 105 105 0
-6.578066 1.474394 46.291807 115 115 115 0
-6.453003 1.471738 46.208403 122 122 122 0
-6.327508 1.468886 46.118860 113 113 113 0
-6.211972 1.468284 46.099978 94 94 94 0
-6.082214 1.464237 45.972892 82 82 82 0
-5.970835 1.464544 45.982556 78 78 78 0
-5.854963 1.463741 45.957322 78 78 78 0
-5.413278 1.466096 46.031277 80 80 80 0
-5.296599 1.465017 45.997382 96 96 96 0
-5.179343 1.463727 45.956906 107 107 107 0
-5.065467 1.463357 45.945278 113 113 113 0
-4.945988 1.461315 45.881150 116 116 116 0
-4.829054 1.459946 45.838192 118 118 118 0
-4.717179 1.460079 45.842361 119 119 119 0
-4.599370 1.458337 45.787658 118 118 118 0
-4.487472 1.458428 45.790532 120 120 120 0
-4.373394 1.457798 45.770741 123 123 123 0
-4.258659 1.456910 45.742848 124 124 124 0
-4.143857 1.455950 45.712707 122 122 122 0
-4.034255 1.456814 45.739851 123 123 123 0
-3.915377 1.454283 45.660372 115 115 115 0
-3.436421 1.313926 41.253554 113 113 113 0
-3.302815 1.301109 40.851148 113 113 113 0
-3.182449 1.292870 40.592465 117 117 117 0
-3.069379 1.287159 40.413147 124 124 124 0
-2.966984 1.285693 40.367128 133 133 133 0
-2.859214 1.281717 40.242287 138 138 138 0
-2.755548 1.279362 40.168343 142 142 142 0
-2.654613 1.278147 40.130206 143 143 143 0
-2.552945 1.276473 40.077633 144 144 144 0
-2.450324 1.274168 40.005287 142 142 142 0
-2.349633 1.272718 39.959747 142 142 142 0
-2.248663 1.270984 39.905292 147 147 147 0
-2.150243 1.270598 39.893195 151 151 151 0
-2.049804 1.268926 39.840704 149 149 149 0
-1.952944 1.269414 39.855998 143 143 143 0
-1.855966 1.269872 39.870381 136 136 136 0
-1.759167 1.270510 39.890415 127 127 127 0
-1.662926 1.271649 39.926194 120 120 120 0
-1.568712 1.274578 40.018153 113 113 113 0
-1.323727 1.147230 36.019785 110 110 110 0
-1.237527 1.149133 36.079518 108 108 108 0
-1.153648 1.153648 36.221296 110 110 110 0
-1.188079 1.287086 40.410862 111 111 111 0
-0.977546 1.155281 36.272574 118 118 118 0
-0.994478 1.292822 40.590946 120 120 120 0
-0.896435 1.294851 40.654670 120 120 120 0
-0.797412 1.295795 40.684297 124 124 124 0
-0.698011 1.296307 40.700366 128 128 128 0
-0.599896 1.299775 40.809277 129 129 129 0
-0.500369 1.300958 40.846420 131 131 131 0
-0.400185 1.300602 40.835231 127 127 127 0
-0.300725 1.303140 40.914913 118 118 118 0
-0.179164 1.164568 36.564145 110 110 110 0
-0.089749 1.166737 36.632231 107 107 107 0
0.000000 1.169621 36.722799 113 113 113 0
0.090082 1.171066 36.768179 119 119 119 0
0.202715 1.317650 41.370480 110 110 110 0
0.272504 1.180852 37.075421 93 93 93 0
1.149536 1.358543 42.654401 91 91 91 0
1.244358 1.348054 42.325090 119 119 119 0
1.342579 1.342579 42.153173 123 123 123 0
1.438639 1.335879 41.942836 130 130 130 0
1.536060 1.331252 41.797555 138 138 138 0
1.635777 1.329069 41.728998 147 147 147 0
1.738623 1.329535 41.743651 150 150 150 0
1.841081 1.329670 41.747873 140 140 140 0
1.941071 1.328101 41.698621 139 139 139 0
2.045605 1.329643 41.747048 133 133 133 0
2.151331 1.331776 41.814005 134 134 134 0
2.254104 1.331970 41.820103 133 133 133 0
2.355988 1.331645 41.809898 135 135 135 0
2.461457 1.333289 41.861511 138 138 138 0
2.561281 1.331866 41.816831 128 128 128 0
2.670428 1.335214 41.921948 132 132 132 0
2.779516 1.338285 42.018381 135 135 135 0
2.877088 1.335791 41.940060 137 137 137 0
2.973087 1.332763 41.845000 138 138 138 0
3.074049 1.332088 41.823801 138 138 138 0
3.172217 1.330285 41.767180 139 139 139 0
3.270951 1.328824 41.721311 138 138 138 0
3.371670 1.328234 41.702782 137 137 137 0
3.477967 1.329811 41.752301 133 133 133 0
3.573088 1.327147 41.668662 130 130 130 0
3.681625 1.329476 41.741775 128 128 128 0
3.788594 1.331128 41.793651 128 128 128 0
3.887386 1.329895 41.754954 132 132 132 0
3.992982 1.330994 41.789450 128 128 128 0
4.102846 1.333425 41.865779 131 131 131 0
4.201863 1.332298 41.830392 126 126 126 0
4.304864 1.332458 41.835417 121 121 121 0
4.422641 1.337077 41.980455 119 119 119 0
4.527318 1.337617 41.997381 130 130 130 0
4.635527 1.339152 42.045594 130 130 130 0
4.749252 1.342180 42.140657 133 133 133 0
4.851474 1.341897 42.131776 127 127 127 0
4.955863 1.342213 42.141695 120 120 120 0
5.043242 1.338003 42.009512 120 120 120 0
5.169474 1.344063 42.199786 135 135 135 0
5.318494 1.355694 42.564975 146 146 146 0
5.427451 1.356863 42.601659 144 144 144 0
5.526944 1.355665 42.564064 142 142 142 0
5.616882 1.352212 42.455648 141 141 141 0
5.698254 1.346860 42.287596 141 141 141 0
5.795909 1.345479 42.244238 138 138 138 0
5.898679 1.345313 42.239021 141 141 141 0
5.992461 1.343138 42.170731 142 142 142 0
6.121965 1.348908 42.351887 149 149 149 0
6.230441 1.349929 42.383949 145 145 145 0
6.314480 1.345709 42.251457 144 144 144 0
6.402088 1.342373 42.146726 142 142 142 0
6.493130 1.339852 42.067576 141 141 141 0
6.564957 1.333507 41.868346 140 140 140 0
6.651481 1.330296 41.767539 143 143 143 0
6.738596 1.327299 41.673442 142 142 142 0
6.833748 1.325951 41.631119 143 143 143 0
6.936231 1.326044 41.634041 145 145 145 0
7.023075 1.323188 41.544367 143 143 143 0
7.121982 1.322654 41.527592 136 136 136 0
7.226605 1.323181 41.544152 126 126 126 0
7.343762 1.325957 41.631306 117 117 117 0
7.346048 1.308200 41.073792 112 112 112 0
7.288607 1.280431 40.201913 111 111 111 0
7.225071 1.252346 39.320114 110 110 110 0
7.651299 1.308775 41.091832 108 108 108 0
7.933343 1.339396 42.053236 109 109 109 0
8.026397 1.337733 42.001033 120 120 120 0
7.959656 1.309817 41.124547 125 125 125 0
-10.779745 1.886455 54.998697 135 135 135 0
-10.416271 1.845921 53.816951 138 138 138 0
-9.737879 1.747824 50.956979 138 138 138 0
-9.678746 1.759772 51.305304 140 140 140 0
-10.147130 1.869208 54.495863 140 140 140 0
-10.103378 1.885964 54.984371 140 140 140 0
-9.967336 1.885712 54.977031 142 142 142 0
-9.587380 1.838676 53.605704 141 141 141 0
-9.692305 1.884615 54.945040 143 143 143 0
-9.557224 1.884523 54.942361 132 132 132 0
-9.259854 1.851971 53.993316 125 125 125 0
-9.134126 1.853301 54.032100 118 118 118 0
-8.990854 1.851058 53.966709 113 113 113 0
-8.837024 1.846542 53.835051 106 106 106 0
-8.611503 1.826682 53.256048 102 102 102 0
-7.742551 1.667626 48.618842 94 94 94 0
-7.472082 1.634518 47.653584 91 91 91 0
-7.235701 1.607934 46.878531 97 97 97 0
-7.082622 1.599302 46.626872 101 101 101 0
-6.955484 1.596340 46.540539 110 110 110 0
-6.830252 1.593725 46.464299 114 114 114 0
-6.705119 1.591045 46.386154 116 116 116 0
-6.594091 1.591677 46.404581 117 117 117 0
-6.463349 1.587489 46.282487 120 120 120 0
-6.338306 1.584577 46.197567 125 125 125 0
-6.216116 1.582284 46.130728 121 121 121 0
-6.095199 1.580237 46.071040 117 117 117 0
-5.978369 1.579192 46.040579 112 112 112 0
-5.868476 1.579974 46.063389 113 113 113 0
-5.758429 1.580745 46.085868 108 108 108 0
-5.646789 1.581101 46.096234 98 98 98 0
-5.543389 1.583826 46.175671 97 97 97 0
-5.438502 1.586230 46.245765 105 105 105 0
-5.320400 1.584800 46.204078 112 112 112 0
-5.202106 1.583250 46.158885 112 112 112 0
-5.082515 1.581227 46.099912 114 114 114 0
-4.963070 1.579159 46.039614 114 114 114 0
-4.845539 1.577617 45.994678 113 113 113 0
-4.730897 1.576966 45.975677 114 114 114 0
-4.614218 1.575587 45.935467 115 115 115 0
-4.499645 1.574876 45.914740 117 117 117 0
-4.385293 1.574208 45.895269 118 118 118 0
-4.271089 1.573559 45.876362 118 118 118 0
-4.156828 1.572854 45.855793 121 121 121 0
-4.043166 1.572342 45.840880 121 121 121 0
-3.931127 1.572451 45.844042 120 120 120 0
-3.816293 1.571415 45.813838 120 120 120 0
-3.696966 1.568410 45.726235 114 114 114 0
-3.221796 1.409536 41.094333 112 112 112 0
-3.086784 1.394031 40.642316 113 113 113 0
-2.976937 1.389237 40.502541 121 121 121 0
-2.863160 1.382215 40.297820 127 127 127 0
-2.756046 1.378023 40.175602 135 135 135 0
-2.653614 1.375948 40.115097 139 139 139 0
-2.551032 1.373633 40.047595 142 142 142 0
-2.449009 1.371445 39.983827 143 143 143 0
-2.348134 1.369745 39.934257 145 145 145 0
-2.247585 1.368095 39.886151 148 148 148 0
-2.149627 1.367944 39.881755 150 150 150 0
-2.050338 1.366892 39.851080 146 146 146 0
-1.952192 1.366534 39.840650 142 142 142 0
-1.857416 1.368622 39.901529 134 134 134 0
-1.760033 1.368914 39.910041 126 126 126 0
-1.664106 1.370440 39.954529 121 121 121 0
-1.570038 1.373783 40.051997 115 115 115 0
-1.474442 1.376145 40.120858 110 110 110 0
-1.237211 1.237211 36.070284 109 109 109 0
-1.284057 1.382831 40.315769 111 111 111 0
-1.188007 1.386009 40.408412 117 117 117 0
-1.090849 1.388353 40.476772 118 118 118 0
-0.992836 1.389971 40.523936 119 119 119 0
-0.895786 1.393445 40.625219 121 121 121 0
-0.796347 1.393607 40.629931 122 122 122 0
-0.697909 1.395818 40.694407 126 126 126 0
-0.599187 1.398103 40.761011 126 126 126 0
-0.500295 1.400827 40.840423 123 123 123 0
-0.400360 1.401259 40.853034 120 120 120 0
-0.268276 1.251954 36.500107 112 112 112 0
-0.178819 1.251731 36.493620 110 110 110 0
-0.100712 1.409968 41.106930 108 108 108 0
0.000000 1.414810 41.248105 112 112 112 0
0.090116 1.261630 36.782229 112 112 112 0
0.180851 1.265956 36.908329 102 102 102 0
0.275358 1.285002 37.463610 79 79 79 0
1.168537 1.487229 43.359459 75 75 75 0
1.247471 1.455383 42.430996 116 116 116 0
1.344622 1.448054 42.217319 123 123 123 0
1.439540 1.439540 41.969093 129 129 129 0
1.537318 1.434830 41.831769 136 136 136 0
1.636103 1.431590 41.737315 144 144 144 0
1.737834 1.431157 41.724707 149 149 149 0
1.840248 1.431304 41.728984 142 142 142 0
1.940383 1.429756 41.683853 136 136 136 0
1.795743 1.257020 36.647817 135 135 135 0
2.147937 1.431958 41.748055 135 135 135 0
2.251605 1.432840 41.773748 133 133 133 0
2.355420 1.433734 41.799814 138 138 138 0
2.459752 1.434855 41.832515 140 140 140 0
2.562730 1.435129 41.840483 138 138 138 0
2.669853 1.437613 41.912927 140 140 140 0
2.769910 1.436250 41.873165 142 142 142 0
2.872618 1.436309 41.874897 140 140 140 0
2.969171 1.433393 41.789877 138 138 138 0
3.069134 1.432262 41.756923 139 139 139 0
3.166948 1.430235 41.697803 139 139 139 0
3.263824 1.427923 41.630409 137 137 137 0
3.360744 1.425770 41.567639 135 135 135 0
3.470682 1.429104 41.664849 131 131 131 0
3.569722 1.427889 41.629409 128 128 128 0
3.671356 1.427750 41.625352 127 127 127 0
3.781025 1.430658 41.710151 127 127 127 0
3.885010 1.431319 41.729428 128 128 128 0
3.983034 1.429807 41.685340 127 127 127 0
4.088245 1.430886 41.716785 125 125 125 0
4.199711 1.434048 41.808968 121 121 121 0
4.310028 1.436676 41.885600 121 121 121 0
4.422397 1.439850 41.978144 122 122 122 0
4.523096 1.439167 41.958216 123 123 123 0
4.633566 1.441554 42.027808 132 132 132 0
4.744194 1.443885 42.095775 133 133 133 0
4.849905 1.444652 42.118147 131 131 131 0
4.952181 1.444386 42.110382 121 121 121 0
5.045689 1.441625 42.029897 123 123 123 0
5.168719 1.447241 42.193628 130 130 130 0
5.311687 1.458110 42.510503 145 145 145 0
5.418457 1.458815 42.531063 144 144 144 0
5.519257 1.457917 42.504867 141 141 141 0
5.619766 1.456976 42.477446 143 143 143 0
5.698123 1.450431 42.286628 140 140 140 0
5.787945 1.446986 42.186190 140 140 140 0
5.890643 1.446825 42.181474 142 142 142 0
5.986769 1.445082 42.130674 137 137 137 0
6.106986 1.449115 42.248258 145 145 145 0
6.218538 1.450992 42.302980 147 147 147 0
6.324039 1.451419 42.315416 146 146 146 0
6.421197 1.449948 42.272529 143 143 143 0
6.485451 1.441211 42.017822 141 141 141 0
6.582544 1.439931 41.980508 142 142 142 0
6.668798 1.436356 41.876281 141 141 141 0
6.739183 1.429524 41.677072 142 142 142 0
6.828418 1.426834 41.598649 144 144 144 0
6.936545 1.428112 41.635926 145 145 145 0
7.021991 1.424752 41.537951 144 144 144 0
7.113011 1.422602 41.475282 136 136 136 0
7.224171 1.424484 41.530160 129 129 129 0
7.333480 1.425955 41.573018 120 120 120 0
7.502978 1.438927 41.951235 115 115 115 0
7.285518 1.378341 40.184874 111 111 111 0
7.548772 1.409104 41.081753 109 109 109 0
7.484598 1.378742 40.196551 105 105 105 0
7.583564 1.378830 40.199117 109 109 109 0
7.684974 1.379354 40.214410 115 115 115 0
8.150392 1.444373 42.110006 124 124 124 0
-9.956396 1.866824 50.797938 137 137 137 0
-10.437463 1.981797 53.926444 132 132 132 0
-9.643902 1.854597 50.465212 136 136 136 0
-10.284477 2.003470 54.516178 136 136 136 0
-9.659730 1.906526 51.878248 137 137 137 0
-10.102388 2.020478 54.978983 138 138 138 0
-9.962986 2.019524 54.953038 139 139 139 0
-9.586925 1.969916 53.603157 139 139 139 0
-9.692370 2.019244 54.945409 142 142 142 0
-9.557351 2.019159 54.943095 138 138 138 0
-9.422838 2.019180 54.943663 137 137 137 0
-9.288375 2.019212 54.944541 142 142 142 0
-9.153942 2.019252 54.945630 136 136 136 0
-9.019634 2.019321 54.947512 132 132 132 0
-8.885184 2.019360 54.948571 133 133 133 0
-8.750864 2.019430 54.950483 133 133 133 0
-8.616719 2.019544 54.953565 128 128 128 0
-8.219783 1.957091 53.254183 113 113 113 0
-7.778620 1.881924 51.208823 106 106 106 0
-7.020601 1.726377 46.976256 103 103 103 0
-6.875293 1.718823 46.770701 106 106 106 0
-6.738408 1.713155 46.616454 104 104 104 0
-6.619990 1.712066 46.586842 107 107 107 0
-6.495197 1.709262 46.510541 111 111 111 0
-6.361268 1.703911 46.364928 111 111 111 0
-6.238063 1.701290 46.293604 109 109 109 0
-6.113558 1.698211 46.209811 106 106 106 0
-6.000711 1.698314 46.212636 105 105 105 0
-5.895267 1.700558 46.273681 104 104 104 0
-5.780550 1.700162 46.262909 98 98 98 0
-5.666817 1.700045 46.259732 96 96 96 0
-5.571442 1.705543 46.409344 99 99 99 0
-5.463533 1.707354 46.458615 105 105 105 0
-5.346585 1.706357 46.431478 105 105 105 0
-5.225653 1.704017 46.367820 106 106 106 0
-5.106467 1.702156 46.317158 107 107 107 0
-4.981516 1.698244 46.210720 105 105 105 0
-4.866849 1.697738 46.196955 106 106 106 0
-4.751656 1.697020 46.177412 110 110 110 0
-4.627341 1.692930 46.066112 113 113 113 0
-4.518114 1.694293 46.103209 112 112 112 0
-4.399524 1.692125 46.044205 112 112 112 0
-4.282600 1.690500 46.000000 115 115 115 0
-4.167056 1.689347 45.968627 115 115 115 0
-4.053940 1.689142 45.963039 117 117 117 0
-3.939570 1.688387 45.942508 120 120 120 0
-3.825972 1.687929 45.930037 124 124 124 0
-3.712724 1.687602 45.921134 121 121 121 0
-3.597884 1.686508 45.891372 119 119 119 0
-3.138777 1.518763 41.326883 117 117 117 0
-2.998711 1.499355 40.798784 114 114 114 0
-2.878647 1.488955 40.515786 119 119 119 0
-2.762504 1.479913 40.269736 122 122 122 0
-2.656986 1.476103 40.166076 131 131 131 0
-2.552940 1.472850 40.077545 137 137 137 0
-2.449736 1.469841 39.995683 140 140 140 0
-2.348997 1.468123 39.948935 143 143 143 0
-2.248125 1.466168 39.895737 143 143 143 0
-2.150537 1.466275 39.898649 143 143 143 0
-2.051157 1.465112 39.867000 141 141 141 0
-1.953509 1.465131 39.867524 138 138 138 0
-1.857237 1.466240 39.897686 132 132 132 0
-1.759936 1.466614 39.907855 127 127 127 0
-1.663903 1.468150 39.949654 120 120 120 0
-1.570575 1.472414 40.065685 114 114 114 0
-1.474442 1.474442 40.120858 110 110 110 0
-1.379033 1.477535 40.205047 111 111 111 0
-1.283594 1.481070 40.301233 114 114 114 0
-1.187108 1.483885 40.377831 119 119 119 0
-1.089361 1.485493 40.421568 118 118 118 0
-0.992469 1.488703 40.508926 123 123 123 0
-0.895510 1.492516 40.612691 121 121 121 0
-0.795712 1.491959 40.597527 123 123 123 0
-0.696897 1.493351 40.635410 123 123 123 0
-0.598916 1.497289 40.742557 119 119 119 0
-0.499963 1.499888 40.813286 113 113 113 0
-0.400451 1.501690 40.862326 111 111 111 0
-0.301332 1.506661 40.997569 104 104 104 0
-0.179628 1.347210 36.658774 105 105 105 0
-0.100903 1.513549 41.185002 108 108 108 0
0.000000 1.350678 36.753155 108 108 108 0
0.101529 1.522933 41.440341 101 101 101 0
0.182050 1.365373 37.153012 86 86 86 0
1.214634 1.656319 45.069899 75 75 75 0
1.253920 1.567400 42.650340 111 111 111 0
1.346111 1.553205 42.264071 118 118 118 0
1.440226 1.543099 41.989100 128 128 128 0
1.537836 1.537836 41.845889 135 135 135 0
1.636845 1.534542 41.756238 140 140 140 0
1.738992 1.534405 41.752507 145 145 145 0
1.840527 1.533772 41.735305 142 142 142 0
1.940465 1.531946 41.685601 136 136 136 0
2.045901 1.534426 41.753089 134 134 134 0
2.149414 1.535296 41.776755 133 133 133 0
2.252532 1.535818 41.790953 135 135 135 0
2.352912 1.534508 41.755318 139 139 139 0
2.459844 1.537402 41.834076 141 141 141 0
2.561809 1.537086 41.825460 140 140 140 0
2.662987 1.536338 41.805129 143 143 143 0
2.771315 1.539620 41.894413 142 142 142 0
2.868336 1.536609 41.812480 144 144 144 0
2.959440 1.530745 41.652917 141 141 141 0
3.061581 1.530791 41.654165 139 139 139 0
3.162570 1.530276 41.640158 140 140 140 0
3.257522 1.526963 41.550025 138 138 138 0
3.359539 1.527063 41.552741 134 134 134 0
3.462888 1.527745 41.571289 131 131 131 0
3.564613 1.527691 41.569825 131 131 131 0
3.662213 1.525922 41.521684 127 127 127 0
3.774170 1.530069 41.634533 127 127 127 0
3.870932 1.527999 41.578215 126 126 126 0
3.980977 1.531145 41.663812 128 128 128 0
4.085936 1.532226 41.693227 122 122 122 0
4.195153 1.534812 41.763596 120 120 120 0
4.292755 1.533127 41.717735 123 123 123 0
4.408390 1.537810 41.845178 120 120 120 0
4.514633 1.539080 41.879715 125 125 125 0
4.628519 1.542840 41.982032 130 130 130 0
4.740026 1.545661 42.058797 133 133 133 0
4.845875 1.546556 42.083150 129 129 129 0
4.942262 1.544457 42.026040 125 125 125 0
5.042697 1.543683 42.004973 120 120 120 0
5.176070 1.552821 42.253634 129 129 129 0
5.307318 1.560976 42.475535 143 143 143 0
5.413760 1.561662 42.494195 147 147 147 0
5.506911 1.558560 42.409790 141 141 141 0
5.613430 1.559286 42.429552 142 142 142 0
5.685293 1.550535 42.191417 140 140 140 0
5.786441 1.549940 42.175229 139 139 139 0
5.891711 1.550450 42.189126 138 138 138 0
5.971710 1.544408 42.024699 143 143 143 0
6.072489 1.543853 42.009609 145 145 145 0
6.206640 1.551660 42.222041 143 143 143 0
6.314177 1.552666 42.249426 144 144 144 0
6.420283 1.553294 42.266512 146 146 146 0
6.500958 1.547847 42.118292 144 144 144 0
6.577437 1.541587 41.947942 142 142 142 0
6.650466 1.534723 41.761166 145 145 145 0
6.732982 1.530223 41.638728 142 142 142 0
6.821487 1.527199 41.556423 143 143 143 0
6.935001 1.529780 41.626655 146 146 146 0
7.019137 1.525899 41.521072 148 148 148 0
7.111343 1.523859 41.465559 139 139 139 0
7.218813 1.525101 41.499355 134 134 134 0
7.330326 1.527151 41.555138 123 123 123 0
7.342689 1.508772 41.055013 116 116 116 0
7.123496 1.443952 39.291209 112 112 112 0
7.221129 1.444226 39.298661 109 109 109 0
6.987224 1.379057 37.525369 102 102 102 0
8.087262 1.575441 42.869135 108 108 108 0
7.855326 1.510640 41.105842 114 114 114 0
8.826460 1.675910 45.602996 122 122 122 0
-9.774393 1.954879 49.869351 135 135 135 0
-9.796859 1.984174 50.616681 135 135 135 0
-9.737585 1.997453 50.955440 134 134 134 0
-10.033341 2.084850 53.184948 135 135 135 0
-9.788010 2.060634 52.567186 138 138 138 0
-9.457841 2.017673 51.471242 141 141 141 0
-9.483828 2.050557 52.310138 143 143 143 0
-9.551230 2.093420 53.403578 138 138 138 0
-9.692420 2.153871 54.945694 139 139 139 0
-9.557366 2.153773 54.943182 140 140 140 0
-9.422857 2.153796 54.943772 143 143 143 0
-9.288330 2.153816 54.944277 139 139 139 0
-9.153898 2.153858 54.945368 136 136 136 0
-9.019524 2.153916 54.946838 140 140 140 0
-8.885019 2.153944 54.947551 138 138 138 0
-8.750770 2.154036 54.949892 138 138 138 0
-8.616616 2.154154 54.952910 132 132 132 0
-8.482476 2.154280 54.956110 136 136 136 0
-8.351379 2.155194 54.979452 124 124 124 0
-8.217116 2.155309 54.982376 115 115 115 0
-7.606109 2.028296 51.742238 111 111 111 0
-7.441224 2.017959 51.478549 106 106 106 0
-7.268367 2.005067 51.149665 104 104 104 0
-6.550923 1.838856 46.909580 105 105 105 0
-6.409007 1.831145 46.712877 103 103 103 0
-6.288298 1.829323 46.666404 106 106 106 0
-6.167018 1.827265 46.613893 102 102 102 0
-6.041351 1.823804 46.525612 98 98 98 0
-5.937815 1.827020 46.607653 97 97 97 0
-5.828376 1.828510 46.645662 95 95 95 0
-5.711851 1.827792 46.627359 94 94 94 0
-5.607269 1.830945 46.707777 97 97 97 0
-5.500592 1.833531 46.773744 98 98 98 0
-5.384805 1.833125 46.763394 97 97 97 0
-5.272991 1.834084 46.787853 100 100 100 0
-5.150701 1.831360 46.718376 99 99 99 0
-5.030623 1.829317 46.666261 102 102 102 0
-4.911298 1.827460 46.618869 103 103 103 0
-4.791181 1.825212 46.561529 103 103 103 0
-4.659278 1.818255 46.384052 108 108 108 0
-4.539600 1.815840 46.322449 105 105 105 0
-4.418957 1.812906 46.247590 108 108 108 0
-4.301459 1.811140 46.202562 109 109 109 0
-4.186544 1.810397 46.183606 110 110 110 0
-4.069017 1.808452 46.133979 112 112 112 0
-3.951678 1.806481 46.083707 116 116 116 0
-3.837844 1.806044 46.072552 120 120 120 0
-3.723112 1.805145 46.049619 123 123 123 0
-3.607157 1.803578 46.009652 122 122 122 0
-3.493905 1.803306 46.002705 123 123 123 0
-3.053300 1.628427 41.541499 119 119 119 0
-2.905763 1.603179 40.897434 114 114 114 0
-2.778580 1.587760 40.504088 117 117 117 0
-2.665054 1.579291 40.288040 119 119 119 0
-2.558838 1.574670 40.170142 124 124 124 0
-2.453677 1.570353 40.060034 130 130 130 0
-2.351007 1.567338 39.983106 134 134 134 0
-2.250323 1.565442 39.934740 136 136 136 0
-2.152374 1.565363 39.932730 135 135 135 0
-2.052860 1.564084 39.900097 136 136 136 0
-1.954845 1.563876 39.894790 133 133 133 0
-1.859288 1.565716 39.941735 130 130 130 0
-1.761931 1.566161 39.953087 125 125 125 0
-1.664846 1.566914 39.972301 117 117 117 0
-1.571197 1.571197 40.081548 111 111 111 0
-1.475438 1.573800 40.147965 110 110 110 0
-1.379249 1.576284 40.211339 113 113 113 0
-1.285360 1.581982 40.356676 118 118 118 0
-1.187830 1.583774 40.402392 120 120 120 0
-1.089066 1.584095 40.410597 123 123 123 0
-0.991693 1.586709 40.477262 123 123 123 0
-0.895011 1.591131 40.590075 123 123 123 0
-0.795529 1.591058 40.588209 121 121 121 0
-0.623381 1.424870 36.348733 118 118 118 0
-0.599306 1.598149 40.769110 113 113 113 0
-0.447005 1.430417 36.490217 107 107 107 0
-0.358160 1.432640 36.546943 102 102 102 0
-0.301609 1.608579 41.035191 103 103 103 0
-0.201524 1.612191 41.127320 105 105 105 0
-0.101121 1.617939 41.273955 103 103 103 0
0.000000 1.623845 41.424609 96 96 96 0
0.101732 1.627720 41.523462 78 78 78 0
1.003776 1.784490 45.522709 75 75 75 0
1.115875 1.785400 45.545914 94 94 94 0
1.232555 1.792807 45.734866 115 115 115 0
1.197362 1.596482 40.726585 116 116 116 0
1.349708 1.661179 42.377008 118 118 118 0
1.441825 1.647800 42.035725 122 122 122 0
1.539829 1.642485 41.900122 132 132 132 0
1.638578 1.638578 41.800455 139 139 139 0
1.738997 1.636703 41.752627 145 145 145 0
1.840981 1.636428 41.745601 144 144 144 0
1.941723 1.635135 41.712631 138 138 138 0
2.044718 1.635775 41.728944 139 139 139 0
2.150428 1.638421 41.796466 136 136 136 0
2.249703 1.636148 41.738466 140 140 140 0
2.352758 1.636701 41.752581 140 140 140 0
2.458110 1.638740 41.804593 142 142 142 0
2.560498 1.638718 41.804041 142 142 142 0
2.662745 1.638612 41.801333 142 142 142 0
2.766718 1.639537 41.824912 142 142 142 0
2.865465 1.637408 41.770622 141 141 141 0
2.956921 1.631405 41.617462 141 141 141 0
3.062629 1.633402 41.668420 143 143 143 0
3.154321 1.628037 41.531551 140 140 140 0
3.252305 1.626153 41.483483 140 140 140 0
3.350466 1.624468 41.440519 135 135 135 0
3.457481 1.627050 41.506379 130 130 130 0
3.552036 1.623788 41.423158 129 129 129 0
3.656082 1.624925 41.452172 127 127 127 0
3.765233 1.628209 41.535944 128 128 128 0
3.867299 1.628337 41.539199 127 127 127 0
3.970381 1.628874 41.552910 123 123 123 0
4.075924 1.630370 41.591064 125 125 125 0
4.187993 1.634339 41.692317 121 121 121 0
3.688706 1.405221 35.847479 118 118 118 0
4.407764 1.640098 41.839240 121 121 121 0
4.515222 1.641899 41.885172 123 123 123 0
4.621919 1.643349 41.922169 126 126 126 0
4.734905 1.646923 42.013354 131 131 131 0
4.835927 1.646273 41.996764 128 128 128 0
4.944840 1.648280 42.047957 123 123 123 0
5.046805 1.647936 42.039191 121 121 121 0
5.174309 1.655779 42.239260 128 128 128 0
5.293634 1.660748 42.366020 144 144 144 0
5.397684 1.660826 42.368002 144 144 144 0
5.503245 1.661357 42.381558 143 143 143 0
5.587838 1.655656 42.236114 142 142 142 0
5.678432 1.651908 42.140501 143 143 143 0
5.788624 1.653893 42.191136 141 141 141 0
5.877411 1.649800 42.086727 140 140 140 0
5.974067 1.648018 42.041288 139 139 139 0
6.077952 1.648258 42.047404 137 137 137 0
6.184148 1.649106 42.069032 143 143 143 0
6.297693 1.651854 42.139132 143 143 143 0
6.415525 1.655619 42.235186 146 146 146 0
6.503430 1.651665 42.134305 144 144 144 0
6.585600 1.646400 42.000000 143 143 143 0
6.662057 1.639891 41.833956 142 142 142 0
6.736934 1.633196 41.663165 141 141 141 0
6.823689 1.629538 41.569836 141 141 141 0
6.938064 1.632486 41.645040 145 145 145 0
7.016736 1.627069 41.506868 150 150 150 0
7.108080 1.624704 41.446533 147 147 147 0
7.220081 1.627060 41.506643 138 138 138 0
7.325795 1.627954 41.529449 126 126 126 0
7.414533 1.625103 41.456710 116 116 116 0
7.285031 1.575142 40.182192 111 111 111 0
7.661878 1.634534 41.697295 105 105 105 0
7.483162 1.575402 40.188839 101 101 101 0
7.582961 1.575680 40.195921 108 108 108 0
8.008155 1.642698 41.905573 116 116 116 0
8.134731 1.647540 42.029092 120 120 120 0
-9.758024 2.073580 49.785835 133 133 133 0
-9.695212 2.086311 50.091511 133 133 133 0
-10.368813 2.259870 54.258573 138 138 138 0
-9.855648 2.175922 52.243034 136 136 136 0
-10.236934 2.289841 54.978165 136 136 136 0
-9.597601 2.175456 52.231843 139 139 139 0
-9.783630 2.247591 53.963761 138 138 138 0
-9.827346 2.288560 54.947422 144 144 144 0
-9.692293 2.288458 54.944969 143 143 143 0
-9.557472 2.288409 54.943790 145 145 145 0
-9.422782 2.288390 54.943338 143 143 143 0
-9.288393 2.288445 54.944647 143 143 143 0
-9.153809 2.288452 54.944829 138 138 138 0
-9.019481 2.288525 54.946580 137 137 137 0
-8.884989 2.288558 54.947365 135 135 135 0
-8.750620 2.288624 54.948946 138 138 138 0
-8.616537 2.288768 54.952402 137 137 137 0
-8.482174 2.288841 54.954154 134 134 134 0
-8.348770 2.289179 54.962276 128 128 128 0
-8.216800 2.289928 54.980261 122 122 122 0
-8.082130 2.289937 54.980473 124 124 124 0
-7.947160 2.289860 54.978621 116 116 116 0
-7.812273 2.289804 54.977293 111 111 111 0
-7.266532 2.167211 52.033885 116 116 116 0
-7.135342 2.166086 52.006865 114 114 114 0
-6.991976 2.161156 51.888506 111 111 111 0
-6.864066 2.160910 51.882583 104 104 104 0
-6.695774 2.147701 51.565453 101 101 101 0
-6.574904 2.149488 51.608351 100 100 100 0
-6.471298 2.157099 51.791102 103 103 103 0
-6.362094 2.163112 51.935458 99 99 99 0
-6.236816 2.163793 51.951820 97 97 97 0
-6.117262 2.166530 52.017533 101 101 101 0
-5.981961 2.163688 51.949293 101 101 101 0
-5.818481 2.150308 51.628047 100 100 100 0
-5.673086 2.143166 51.456560 102 102 102 0
-5.536422 2.139072 51.358276 104 104 104 0
-4.957380 1.959895 47.056291 101 101 101 0
-4.832843 1.956151 46.966404 102 102 102 0
-4.708136 1.952154 46.870445 104 104 104 0
-4.576794 1.945138 46.701982 103 103 103 0
-4.453231 1.941152 46.606292 105 105 105 0
-4.324658 1.934716 46.451755 106 106 106 0
-4.206468 1.932702 46.403400 106 106 106 0
-4.087945 1.930418 46.348578 108 108 108 0
-3.968111 1.927368 46.275343 110 110 110 0
-3.850164 1.925082 46.220450 111 111 111 0
-3.733068 1.923096 46.172763 116 116 116 0
-3.615399 1.920681 46.114788 119 119 119 0
-3.503480 1.921263 46.128768 121 121 121 0
-3.391790 1.922014 46.146802 125 125 125 0
-2.964255 1.737666 41.720683 118 118 118 0
-2.806805 1.704132 40.915528 115 115 115 0
-2.682749 1.689138 40.555545 115 115 115 0
-2.573085 1.682402 40.393796 116 116 116 0
-2.460107 1.672873 40.165013 118 118 118 0
-2.357219 1.669697 40.088764 123 123 123 0
-2.255413 1.667044 40.025068 126 126 126 0
-2.155080 1.665289 39.982939 128 128 128 0
-2.055850 1.664259 39.958203 130 130 130 0
-1.958249 1.664511 39.964258 127 127 127 0
-1.861143 1.665233 39.981581 125 125 125 0
-1.763149 1.665196 39.980705 118 118 118 0
-1.668575 1.668575 40.061825 111 111 111 0
-1.573047 1.671362 40.128747 108 108 108 0
-1.476772 1.673675 40.184278 110 110 110 0
-1.380180 1.675933 40.238493 113 113 113 0
-1.285979 1.681665 40.376107 115 115 115 0
-1.187788 1.682699 40.400939 119 119 119 0
-1.089367 1.683567 40.421784 117 117 117 0
-0.992110 1.686587 40.494296 115 115 115 0
-0.895345 1.691208 40.605229 111 111 111 0
-0.797074 1.693781 40.667017 107 107 107 0
-0.697671 1.694344 40.680530 101 101 101 0
-0.536561 1.520255 36.500728 99 99 99 0
-0.502220 1.707549 40.997587 96 96 96 0
-0.401963 1.708341 41.016590 93 93 93 0
-0.303224 1.718269 41.254956 92 92 92 0
-0.202113 1.717957 41.247460 90 90 90 0
-0.101185 1.720138 41.299837 84 84 84 0
0.675130 1.912868 45.927210 85 85 85 0
0.788900 1.915900 46.000000 101 101 101 0
0.900171 1.912864 45.927098 114 114 114 0
1.011132 1.909915 45.856309 123 123 123 0
1.121599 1.906718 45.779550 127 127 127 0
1.234925 1.908520 45.822804 126 126 126 0
1.346464 1.907491 45.798105 118 118 118 0
1.357040 1.774591 42.607217 113 113 113 0
1.443756 1.753133 42.092024 124 124 124 0
1.540435 1.745827 41.916611 131 131 131 0
1.639310 1.741767 41.819130 136 136 136 0
1.739814 1.739814 41.772245 140 140 140 0
1.841208 1.738918 41.750742 144 144 144 0
1.941646 1.737263 41.710986 142 142 142 0
2.044884 1.738152 41.732335 140 140 140 0
2.149900 1.740396 41.786209 139 139 139 0
2.248060 1.737137 41.707980 139 139 139 0
2.350541 1.737356 41.713230 137 137 137 0
2.457635 1.740825 41.796517 140 140 140 0
2.558196 1.739573 41.766460 141 141 141 0
2.657872 1.737839 41.724838 142 142 142 0
2.764707 1.740741 41.794509 142 142 142 0
2.859825 1.736322 41.688411 140 140 140 0
2.953610 1.731426 41.570859 141 141 141 0
3.055490 1.731444 41.571287 141 141 141 0
3.151567 1.728279 41.495287 138 138 138 0
3.245775 1.724318 41.400189 139 139 139 0
3.345230 1.723300 41.375755 139 139 139 0
3.450590 1.725295 41.423643 131 131 131 0
3.552522 1.725511 41.428825 127 127 127 0
3.650699 1.723941 41.391145 126 126 126 0
3.757497 1.726417 41.450596 130 130 130 0
3.861866 1.727677 41.480840 127 127 127 0
3.961187 1.726671 41.456693 127 127 127 0
4.070446 1.729940 41.535167 122 122 122 0
4.180886 1.733538 41.621560 119 119 119 0
3.682116 1.490380 35.783443 116 116 116 0
4.404667 1.741380 41.809839 117 117 117 0
4.512040 1.743288 41.855656 125 125 125 0
4.622621 1.746323 41.928532 125 125 125 0
4.735111 1.749932 42.015185 124 124 124 0
4.839177 1.750341 42.024986 125 125 125 0
4.942555 1.750488 42.028526 124 124 124 0
5.022703 1.742571 41.838428 117 117 117 0
5.173620 1.759031 42.233630 134 134 134 0
5.292185 1.764062 42.354425 146 146 146 0
5.397672 1.764623 42.367910 146 146 146 0
5.499839 1.764099 42.355324 144 144 144 0
5.586675 1.758768 42.227322 147 147 147 0
5.674565 1.753956 42.111799 143 143 143 0
5.775377 1.753239 42.094583 142 142 142 0
5.872209 1.751361 42.049477 141 141 141 0
5.962643 1.747671 41.960897 140 140 140 0
6.073482 1.749986 42.016477 137 137 137 0
6.181151 1.751326 42.048648 139 139 139 0
6.283208 1.751058 42.042208 140 140 140 0
6.402238 1.755452 42.147719 145 145 145 0
6.507027 1.755864 42.157611 145 145 145 0
6.586030 1.749414 42.002745 142 142 142 0
6.665155 1.743194 41.853409 144 144 144 0
6.741825 1.736531 41.693413 141 141 141 0
6.835713 1.734435 41.643086 140 140 140 0
6.935113 1.733778 41.627326 141 141 141 0
7.015303 1.728408 41.498391 145 145 145 0
7.109931 1.726697 41.457322 149 149 149 0
7.217182 1.728058 41.489983 142 142 142 0
7.316920 1.727606 41.479139 130 130 130 0
7.416679 1.727172 41.468709 118 118 118 0
7.283359 1.673204 40.172969 110 110 110 0
7.653341 1.734757 41.650836 108 108 108 0
7.483367 1.673911 40.189939 101 101 101 0
7.581317 1.673797 40.187211 107 107 107 0
7.682586 1.674410 40.201913 115 115 115 0
8.128364 1.749142 41.996200 120 120 120 0
-10.596471 2.384206 54.063625 133 133 133 0
-10.159780 2.314887 52.491760 131 131 131 0
-9.913410 2.287710 51.875513 134 134 134 0
-10.339830 2.417103 54.809592 137 137 137 0
-9.348299 2.214071 50.205688 135 135 135 0
-10.103378 2.424811 54.984371 135 135 135 0
-9.260501 2.252554 51.078330 138 138 138 0
-9.828117 2.423371 54.951731 140 140 140 0
-9.692571 2.423143 54.946545 142 142 142 0
-9.557431 2.423011 54.943551 141 141 141 0
-9.422838 2.423016 54.943664 142 142 142 0
-9.288365 2.423052 54.944486 142 142 142 0
-9.153810 2.423067 54.944837 140 140 140 0
-9.019487 2.423146 54.946614 137 137 137 0
-8.884904 2.423156 54.946842 137 137 137 0
-8.750590 2.423240 54.948761 140 140 140 0
-8.616304 2.423335 54.950917 137 137 137 0
-8.481894 2.423398 54.952344 134 134 134 0
-8.347884 2.423579 54.956446 131 131 131 0
-8.215665 2.424295 54.972670 126 126 126 0
-8.081974 2.424592 54.979418 125 125 125 0
-7.947184 2.424565 54.978791 123 123 123 0
-7.812209 2.424479 54.976838 113 113 113 0
-7.677313 2.424415 54.975386 115 115 115 0
-7.542445 2.424357 54.974089 113 113 113 0
-7.407578 2.424298 54.972749 115 115 115 0
-7.272690 2.424230 54.971200 112 112 112 0
-7.137634 2.424102 54.968301 110 110 110 0
-7.002671 2.424001 54.966019 111 111 111 0
-6.867971 2.423990 54.965751 114 114 114 0
-6.732782 2.423802 54.961488 114 114 114 0
-6.598004 2.423756 54.960463 116 116 116 0
-6.463252 2.423720 54.959628 119 119 119 0
-6.328414 2.423648 54.958001 120 120 120 0
-6.193629 2.423594 54.956776 119 119 119 0
-6.058886 2.423554 54.955882 118 118 118 0
-5.923971 2.423443 54.953347 117 117 117 0
-5.789558 2.423536 54.955460 116 116 116 0
-5.423284 2.324264 52.704409 111 111 111 0
-5.241026 2.300938 52.175471 106 106 106 0
-5.064438 2.278997 51.677941 103 103 103 0
-4.498169 2.076078 47.076603 104 104 104 0
-4.362048 2.066233 46.853357 102 102 102 0
-4.240278 2.062838 46.776374 105 105 105 0
-4.115666 2.057833 46.662882 103 103 103 0
-3.992394 2.053231 46.558531 106 106 106 0
-3.873218 2.050527 46.497221 108 108 108 0
-3.755772 2.048603 46.453586 109 109 109 0
-3.628066 2.040787 46.276352 113 113 113 0
-3.511866 2.039148 46.239186 114 114 114 0
-3.402242 2.041345 46.289010 114 114 114 0
-3.285798 2.039461 46.246273 116 116 116 0
-2.865947 1.842394 41.777652 116 116 116 0
-2.707313 1.804875 40.926878 116 116 116 0
-2.590568 1.793470 40.668253 114 114 114 0
-2.477741 1.783973 40.452909 113 113 113 0
-2.368882 1.776662 40.287111 111 111 111 0
-2.265213 1.772776 40.198993 113 113 113 0
-2.161707 1.768669 40.105879 115 115 115 0
-2.060655 1.766276 40.051608 118 118 118 0
-1.963065 1.766759 40.062559 116 116 116 0
-1.864693 1.766552 40.057862 113 113 113 0
-1.767097 1.767097 40.070218 110 110 110 0
-1.672748 1.771145 40.162014 104 104 104 0
-1.577613 1.774814 40.245219 103 103 103 0
-1.480340 1.776408 40.281349 106 106 106 0
-1.383407 1.778666 40.332566 107 107 107 0
-1.288248 1.783727 40.447333 108 108 108 0
-1.190839 1.786258 40.504713 106 106 106 0
-1.091545 1.786165 40.502608 101 101 101 0
-0.995262 1.791472 40.622940 97 97 97 0
-0.898887 1.797775 40.765869 93 93 93 0
-0.799020 1.797795 40.766335 89 89 89 0
-0.702079 1.805346 40.937547 88 88 88 0
-0.604116 1.812349 41.096344 84 84 84 0
-0.505342 1.819233 41.252441 79 79 79 0
0.225163 2.026467 45.951634 83 83 83 0
0.338483 2.030898 46.052098 99 99 99 0
0.451757 2.032905 46.097608 109 109 109 0
0.564489 2.032161 46.080738 116 116 116 0
0.677898 2.033693 46.115481 122 122 122 0
0.790280 2.032150 46.080489 124 124 124 0
0.902030 2.029567 46.021919 125 125 125 0
1.012951 2.025901 45.938808 130 130 130 0
1.124816 2.024669 45.910851 129 129 129 0
1.236811 2.023872 45.892796 125 125 125 0
1.349292 2.023938 45.894291 116 116 116 0
1.372649 1.900590 43.097285 116 116 116 0
1.447925 1.861618 42.213562 118 118 118 0
1.542981 1.851577 41.985866 125 125 125 0
1.641705 1.846918 41.880230 133 133 133 0
1.741577 1.844023 41.814575 140 140 140 0
1.843018 1.843018 41.791793 143 143 143 0
1.941061 1.838900 41.698412 145 145 145 0
2.045222 1.840699 41.739218 144 144 144 0
2.147757 1.840935 41.744547 141 141 141 0
2.246178 1.837782 41.673054 141 141 141 0
2.348805 1.838195 41.682425 140 140 140 0
2.455957 1.841968 41.767977 140 140 140 0
2.554788 1.839448 41.710830 141 141 141 0
2.654357 1.837632 41.669649 140 140 140 0
2.757158 1.838105 41.680389 140 140 140 0
2.856560 1.836360 41.640816 140 140 140 0
2.945870 1.828471 41.461923 140 140 140 0
3.048596 1.829157 41.477494 141 141 141 0
3.147818 1.827765 41.445926 141 141 141 0
3.242409 1.823855 41.357254 140 140 140 0
3.344329 1.824179 41.364609 138 138 138 0
3.443270 1.822908 41.335778 132 132 132 0
3.545825 1.823567 41.350727 128 128 128 0
3.646001 1.823000 41.337874 126 126 126 0
3.754744 1.826632 41.420234 127 127 127 0
3.860489 1.828653 41.466048 127 127 127 0
3.959436 1.827432 41.438371 123 123 123 0
4.066151 1.829768 41.491339 121 121 121 0
4.178663 1.834535 41.599435 114 114 114 0
4.283992 1.835997 41.632577 112 112 112 0
4.397119 1.840654 41.738196 116 116 116 0
4.513644 1.846491 41.870541 123 123 123 0
4.619593 1.847837 41.901070 127 127 127 0
4.724903 1.848875 41.924605 128 128 128 0
4.834342 1.851450 41.982993 126 126 126 0
4.926392 1.847397 41.891091 123 123 123 0
5.026548 1.846487 41.870455 120 120 120 0
5.169533 1.861032 42.200270 131 131 131 0
5.283663 1.864822 42.286221 149 149 149 0
5.392661 1.866690 42.328578 150 150 150 0
5.504422 1.869426 42.390617 146 146 146 0
5.578661 1.859554 42.166747 145 145 145 0
5.669004 1.855310 42.070533 146 146 146 0
5.773892 1.855894 42.083757 144 144 144 0
5.873410 1.854761 42.058073 142 142 142 0
5.966884 1.851792 41.990739 141 141 141 0
6.071534 1.852332 42.003000 140 140 140 0
6.175214 1.852564 42.008262 141 141 141 0
6.279567 1.852987 42.017845 145 145 145 0
6.384730 1.853631 42.032455 141 141 141 0
6.489243 1.854069 42.042390 141 141 141 0
6.588043 1.852887 42.015580 144 144 144 0
6.660509 1.844449 41.824234 142 142 142 0
6.753025 1.841734 41.762678 140 140 140 0
6.831821 1.835415 41.619378 141 141 141 0
6.932141 1.834978 41.609488 141 141 141 0
7.014826 1.829955 41.495572 144 144 144 0
7.103293 1.826561 41.418616 147 147 147 0
7.214599 1.829053 41.475133 146 146 146 0
7.317457 1.829364 41.482183 134 134 134 0
7.407755 1.826570 41.418813 122 122 122 0
7.528470 1.831249 41.524932 110 110 110 0
7.546693 1.811206 41.070439 106 106 106 0
7.318351 1.733294 39.303710 102 102 102 0
7.412338 1.732754 39.291479 108 108 108 0
8.008503 1.848116 41.907394 113 113 113 0
8.476276 1.931303 43.793730 118 118 118 0
-10.410507 2.472495 53.114831 131 131 131 0
-10.425813 2.507474 53.866249 130 130 130 0
-9.137537 2.225810 47.815474 128 128 128 0
-8.988249 2.217880 47.645107 134 134 134 0
-10.148619 2.537155 54.503860 134 134 134 0
-9.580275 2.427003 52.137551 134 134 134 0
