ply
format ascii 1.0
element vertex 1123
property float x
property float y
property float z
property uchar red
property uchar green
property uchar blue
property uchar alpha
end_header
-8.351352 0.872529 50.876347 120 120 120 0
-8.195733 0.869244 50.684806 118 118 118 0
-8.057456 0.867726 50.596271 118 118 118 0
-7.905804 0.864697 50.419666 115 115 115 0
-7.766230 0.862914 50.315710 117 117 117 0
-7.627513 0.861171 50.214040 117 117 117 0
-7.486526 0.859110 50.093851 114 114 114 0
-7.352253 0.857763 50.015324 113 113 113 0
-7.209873 0.855409 49.878055 113 113 113 0
-7.078069 0.854250 49.810482 116 116 116 0
-6.949357 0.853430 49.762670 118 118 118 0
-6.808513 0.851064 49.624731 115 115 115 0
-6.688924 0.851318 49.639511 111 111 111 0
-6.563181 0.850783 49.608320 115 115 115 0
-6.434881 0.849890 49.556267 114 114 114 0
-6.306205 0.848912 49.499256 113 113 113 0
-6.183882 0.848768 49.490850 115 115 115 0
-6.049953 0.846993 49.387375 115 115 115 0
-5.932610 0.847516 49.417829 115 115 115 0
-5.808639 0.847093 49.393187 114 114 114 0
-5.679125 0.845827 49.319368 119 119 119 0
-5.555611 0.845419 49.295576 117 117 117 0
-5.433668 0.845237 49.284974 115 115 115 0
-5.306253 0.844177 49.223123 115 115 115 0
-5.187895 0.844541 49.244374 117 117 117 0
-5.059123 0.843187 49.165432 115 115 115 0
-4.936948 0.842894 49.148309 114 114 114 0
-4.813534 0.842368 49.117695 115 115 115 0
-4.691655 0.842092 49.101568 116 116 116 0
-4.567951 0.841465 49.064992 115 115 115 0
-4.443461 0.840655 49.017773 117 117 117 0
-4.326988 0.841359 49.058822 116 116 116 0
-4.202125 0.840425 49.004369 114 114 114 0
-4.084779 0.840984 49.036967 113 113 113 0
-3.959937 0.839987 48.978807 114 114 114 0
-3.842595 0.840568 49.012685 115 115 115 0
-3.724833 0.841091 49.043224 113 113 113 0
-3.603868 0.840903 49.032222 114 114 114 0
-3.488347 0.842015 49.097070 116 116 116 0
-3.365866 0.841467 49.065105 115 115 115 0
-3.245783 0.841499 49.067017 115 115 115 0
-3.127442 0.842004 49.096427 115 115 115 0
-3.009897 0.842771 49.141178 115 115 115 0
-2.889072 0.842646 49.133885 116 116 116 0
-2.767626 0.842321 49.114916 115 115 115 0
-2.649725 0.843094 49.160023 117 117 117 0
-2.527931 0.842644 49.133741 116 116 116 0
-2.408302 0.842906 49.149019 120 120 120 0
-2.287768 0.842862 49.146458 119 119 119 0
-2.165763 0.842241 49.110266 119 119 119 0
-2.046681 0.842751 49.140002 118 118 118 0
-1.926559 0.842869 49.146907 118 118 118 0
-1.806178 0.842883 49.147694 119 119 119 0
-1.686108 0.843054 49.157669 120 120 120 0
-1.564809 0.842590 49.130595 120 120 120 0
-1.444453 0.842598 49.131064 120 120 120 0
-1.324119 0.842621 49.132415 119 119 119 0
-1.203051 0.842136 49.104116 120 120 120 0
-1.082701 0.842101 49.102090 120 120 120 0
-0.962645 0.842315 49.114559 119 119 119 0
-0.842362 0.842362 49.117337 118 118 118 0
-0.721770 0.842065 49.100001 118 118 118 0
-0.601162 0.841627 49.074479 118 118 118 0
-0.481178 0.842062 49.099825 119 119 119 0
-0.360762 0.841777 49.083224 117 117 117 0
-0.240349 0.841220 49.050720 117 117 117 0
-0.120266 0.841862 49.088141 116 116 116 0
0.000000 0.841138 49.045971 116 116 116 0
0.120057 0.840400 49.002888 116 116 116 0
0.240100 0.840350 49.000000 117 117 117 0
0.360289 0.840675 49.018977 117 117 117 0
0.479573 0.839254 48.936066 117 117 117 0
0.600367 0.840514 49.009539 120 120 120 0
0.719752 0.839711 48.962751 117 117 117 0
0.839632 0.839632 48.958108 118 118 118 0
0.959169 0.839273 48.937201 119 119 119 0
1.078835 0.839094 48.926761 116 116 116 0
1.196799 0.837759 48.848922 115 115 115 0
1.317260 0.838257 48.877937 118 118 118 0
1.437400 0.838483 48.891149 114 114 114 0
1.554809 0.837205 48.816598 116 116 116 0
1.674210 0.837105 48.810797 116 116 116 0
1.794962 0.837649 48.842499 115 115 115 0
1.911846 0.836433 48.771579 113 113 113 0
2.036384 0.838511 48.892784 111 111 111 0
2.156903 0.838796 48.909372 115 115 115 0
2.278006 0.839266 48.936764 111 111 111 0
2.398159 0.839356 48.942013 110 110 110 0
2.519059 0.839686 48.961299 110 110 110 0
2.643502 0.841114 49.044558 113 113 113 0
2.763977 0.841210 49.050175 110 110 110 0
2.884412 0.841287 49.054623 110 110 110 0
2.650372 0.742104 43.271372 112 112 112 0
3.133564 0.843652 49.192532 107 107 107 0
2.855477 0.740309 43.166691 107 107 107 0
3.380527 0.845132 49.278817 111 111 111 0
3.068979 0.740788 43.194636 109 109 109 0
3.621340 0.844979 49.269927 112 112 112 0
3.747129 0.846126 49.336789 109 109 109 0
3.870638 0.846702 49.370387 111 111 111 0
3.999213 0.848318 49.464606 109 109 109 0
4.126815 0.849638 49.541591 110 110 110 0
3.711846 0.742369 43.286837 110 110 110 0
3.817356 0.742264 43.280678 105 105 105 0
3.914191 0.740523 43.179164 109 109 109 0
4.624843 0.851945 49.676077 108 108 108 0
4.747833 0.852175 49.689515 109 109 109 0
4.883619 0.854633 49.832842 108 108 108 0
4.350397 0.742751 43.309079 106 106 106 0
5.143399 0.857233 49.984444 106 106 106 0
5.278271 0.859253 50.102243 106 106 106 0
5.400434 0.859160 50.096790 106 106 106 0
5.525168 0.859471 50.114905 106 106 106 0
5.660752 0.861419 50.228499 107 107 107 0
4.988519 0.742971 43.321916 106 106 106 0
5.106258 0.744663 43.420565 107 107 107 0
5.213930 0.744847 43.431317 107 107 107 0
5.311260 0.743576 43.357225 106 106 106 0
6.340619 0.870281 50.745247 108 108 108 0
5.540235 0.745801 43.486931 107 107 107 0
5.645763 0.745667 43.479116 107 107 107 0
6.729341 0.872322 50.864255 106 106 106 0
5.879441 0.748292 43.632215 105 105 105 0
5.979913 0.747489 43.585371 103 103 103 0
7.170572 0.880597 51.346740 104 104 104 0
6.210601 0.749555 43.705846 101 101 101 0
7.447377 0.883587 51.521114 106 106 106 0
7.583687 0.884763 51.589705 108 108 108 0
7.721923 0.886122 51.668943 110 110 110 0
7.854228 0.886768 51.706569 110 110 110 0
7.987449 0.887494 51.748943 111 111 111 0
8.135776 0.889851 51.886327 110 110 110 0
8.259683 0.889504 51.866139 114 114 114 0
8.389934 0.889841 51.885800 115 115 115 0
8.527674 0.890951 51.950497 115 115 115 0
8.656061 0.891065 51.957147 113 113 113 0
8.797288 0.892478 52.039560 114 114 114 0
8.920328 0.892033 52.013572 115 115 115 0
9.061666 0.893404 52.093510 115 115 115 0
9.199484 0.894394 52.151269 114 114 114 0
9.332694 0.894916 52.181680 112 112 112 0
9.464630 0.895303 52.204249 111 111 111 0
9.608991 0.896839 52.293830 114 114 114 0
9.740201 0.897124 52.310422 114 114 114 0
9.876778 0.897889 52.355040 117 117 117 0
10.019585 0.899194 52.431109 117 117 117 0
10.138625 0.898359 52.382459 119 119 119 0
-10.663765 1.066376 54.406962 131 131 131 0
-10.489469 1.062225 54.195140 133 133 133 0
-10.292898 1.055682 53.861317 128 128 128 0
-10.117887 1.051209 53.633114 126 126 126 0
-9.943285 1.046662 53.401101 127 127 127 0
-9.761287 1.041204 53.122648 124 124 124 0
-9.581315 1.035818 52.847846 124 124 124 0
-9.400015 1.030139 52.558094 122 122 122 0
-9.239836 1.026648 52.380024 124 124 124 0
-9.070132 1.021987 52.142176 125 125 125 0
-8.897936 1.016907 51.883011 121 121 121 0
-8.738090 1.013112 51.689382 119 119 119 0
-8.582546 1.009711 51.515880 121 121 121 0
-8.417967 1.005130 51.282162 119 119 119 0
-8.271242 1.002575 51.151775 119 119 119 0
-8.124328 0.999917 51.016190 116 116 116 0
-7.965524 0.995691 50.800537 117 117 117 0
-7.833917 0.994783 50.754239 118 118 118 0
-7.674675 0.990281 50.524521 114 114 114 0
-7.541381 0.989034 50.460897 115 115 115 0
-7.406711 0.987561 50.385789 117 117 117 0
-7.257123 0.984017 50.204931 112 112 112 0
-7.118769 0.981899 50.096894 117 117 117 0
-6.995053 0.981762 50.089890 115 115 115 0
-6.858784 0.979826 49.991135 116 116 116 0
-6.727859 0.978598 49.928452 116 116 116 0
-6.596742 0.977295 49.861993 113 113 113 0
-6.465453 0.975917 49.791706 114 114 114 0
-6.343943 0.975991 49.795471 113 113 113 0
-6.214615 0.974842 49.736813 114 114 114 0
-6.083603 0.973377 49.662068 117 117 117 0
-5.958517 0.972819 49.633631 117 117 117 0
-5.832779 0.972130 49.598462 116 116 116 0
-5.702519 0.970642 49.522527 116 116 116 0
-5.579101 0.970278 49.504003 116 116 116 0
-5.454769 0.969737 49.476365 118 118 118 0
-5.326406 0.968438 49.410078 115 115 115 0
-5.209504 0.969210 49.449493 115 115 115 0
-5.078576 0.967348 49.354484 115 115 115 0
-4.952274 0.966297 49.300885 117 117 117 0
-4.831159 0.966232 49.297545 115 115 115 0
-4.704196 0.964963 49.232820 114 114 114 0
-4.584708 0.965202 49.244987 115 115 115 0
-4.462956 0.964963 49.232828 115 115 115 0
-4.342591 0.965020 49.235728 116 116 116 0
-4.219486 0.964454 49.206834 116 116 116 0
-4.098374 0.964323 49.200164 115 115 115 0
-3.976964 0.964112 49.189409 115 115 115 0
-3.859302 0.964826 49.225794 115 115 115 0
-3.735952 0.964117 49.189621 115 115 115 0
-3.615404 0.964108 49.189165 114 114 114 0
-3.497301 0.964773 49.223099 114 114 114 0
-3.377811 0.965089 49.239222 115 115 115 0
-3.256791 0.964975 49.233423 116 116 116 0
-3.135807 0.964864 49.227746 116 116 116 0
-3.018669 0.965974 49.284399 114 114 114 0
-2.894870 0.964957 49.232477 114 114 114 0
-2.775706 0.965463 49.258313 116 116 116 0
-2.656104 0.965856 49.278359 115 115 115 0
-2.534351 0.965467 49.258523 116 116 116 0
-2.414921 0.965968 49.284103 117 117 117 0
-2.295601 0.966569 49.314734 118 118 118 0
-2.170645 0.964731 49.220969 116 116 116 0
-2.053609 0.966404 49.306343 119 119 119 0
-1.933145 0.966573 49.314930 119 119 119 0
-1.808336 0.964446 49.206430 120 120 120 0
-1.689823 0.965613 49.265968 119 119 119 0
-1.569676 0.965955 49.283398 120 120 120 0
-1.447354 0.964903 49.229737 119 119 119 0
-1.327236 0.965263 49.248089 119 119 119 0
-1.206848 0.965479 49.259108 120 120 120 0
-1.085974 0.965310 49.250502 118 118 118 0
-0.965400 0.965400 49.255080 119 119 119 0
-0.844535 0.965183 49.244024 117 117 117 0
-0.723410 0.964547 49.211596 118 118 118 0
-0.603110 0.964975 49.233429 117 117 117 0
-0.482669 0.965338 49.251929 120 120 120 0
-0.361815 0.964839 49.226474 116 116 116 0
-0.240928 0.963710 49.168894 117 117 117 0
-0.120583 0.964667 49.217697 114 114 114 0
0.000000 0.964302 49.199071 117 117 117 0
0.120532 0.964260 49.196917 115 115 115 0
0.241001 0.964006 49.183971 114 114 114 0
0.361077 0.962871 49.126083 115 115 115 0
0.481458 0.962916 49.128355 115 115 115 0
0.601582 0.962530 49.108695 119 119 119 0
0.721804 0.962405 49.102308 118 118 118 0
0.842294 0.962622 49.113357 119 119 119 0
0.962351 0.962351 49.099529 115 115 115 0
1.081614 0.961435 49.052798 116 116 116 0
1.201632 0.961306 49.046217 119 119 119 0
1.321087 0.960791 49.019925 119 119 119 0
1.441641 0.961094 49.035396 116 116 116 0
1.559614 0.959763 48.967475 114 114 114 0
1.681614 0.960922 49.026649 113 113 113 0
1.800129 0.960069 48.983096 111 111 111 0
1.922394 0.961197 49.040675 112 112 112 0
2.043276 0.961542 49.058249 111 111 111 0
2.165727 0.962546 49.109466 109 109 109 0
2.285929 0.962496 49.106963 112 112 112 0
2.405021 0.962008 49.082064 111 111 111 0
2.529484 0.963613 49.163926 110 110 110 0
2.653819 0.965025 49.235974 112 112 112 0
2.773749 0.964782 49.223585 109 109 109 0
2.892784 0.964261 49.197011 111 111 111 0
3.015162 0.964852 49.227132 110 110 110 0
2.764199 0.850523 43.394012 107 107 107 0
3.262273 0.966599 49.316298 111 111 111 0
3.390484 0.968710 49.423964 110 110 110 0
3.518876 0.970724 49.526759 110 110 110 0
3.185246 0.849399 43.336687 110 110 110 0
3.763879 0.971323 49.557321 108 108 108 0
3.880966 0.970241 49.502114 111 111 111 0
4.007547 0.971526 49.567678 109 109 109 0
4.136684 0.973337 49.660071 110 110 110 0
4.257460 0.973134 49.649679 106 106 106 0
4.388059 0.975124 49.751234 110 110 110 0
4.521498 0.977621 49.878634 108 108 108 0
4.645114 0.977919 49.893816 111 111 111 0
4.772658 0.979007 49.949326 111 111 111 0
4.247416 0.849483 43.340976 107 107 107 0
5.025905 0.980664 50.033893 110 110 110 0
5.149607 0.980878 50.044772 108 108 108 0
5.292018 0.984561 50.232729 108 108 108 0
4.678281 0.850597 43.397786 107 107 107 0
5.549228 0.986529 50.333136 109 109 109 0
4.892573 0.850882 43.412359 107 107 107 0
5.001970 0.851399 43.438731 106 106 106 0
5.115135 0.852522 43.496042 107 107 107 0
5.219098 0.852098 43.474371 105 105 105 0
6.215505 0.994481 50.738820 107 107 107 0
6.349707 0.996033 50.817985 105 105 105 0
6.484783 0.997659 50.900966 105 105 105 0
6.626448 1.000219 51.031559 103 103 103 0
5.773911 0.855394 43.642560 105 105 105 0
5.896116 0.857617 43.755965 107 107 107 0
7.044559 1.006366 51.345185 107 107 107 0
6.123320 0.859413 43.847617 106 106 106 0
7.322500 1.010000 51.530614 108 108 108 0
7.460195 1.011552 51.609790 107 107 107 0
7.593854 1.012514 51.658873 112 112 112 0
7.727154 1.013397 51.703940 110 110 110 0
7.870222 1.015513 51.811865 111 111 111 0
8.018109 1.018173 51.947580 111 111 111 0
8.127660 1.015957 51.834564 114 114 114 0
8.276381 1.018632 51.970997 113 113 113 0
8.403137 1.018562 51.967451 116 116 116 0
8.544507 1.020240 52.053044 115 115 115 0
8.679590 1.021128 52.098378 114 114 114 0
8.812624 1.021753 52.130279 118 118 118 0
8.940239 1.021742 52.129676 115 115 115 0
9.089402 1.024158 52.252958 115 115 115 0
9.221643 1.024627 52.276885 113 113 113 0
9.361386 1.025905 52.342110 114 114 114 0
9.497534 1.026760 52.385734 114 114 114 0
9.615311 1.025633 52.328224 115 115 115 0
9.752803 1.026611 52.378106 116 116 116 0
9.893537 1.027900 52.443875 117 117 117 0
10.028917 1.028607 52.479945 117 117 117 0
10.159768 1.028837 52.491697 121 121 121 0
-10.719519 1.205946 54.691423 135 135 135 0
-10.535649 1.200264 54.433735 132 132 132 0
-10.355529 1.194869 54.189058 133 133 133 0
-10.180751 1.189958 53.966345 131 131 131 0
-10.003527 1.184628 53.724635 125 125 125 0
-9.824278 1.178913 53.465458 128 128 128 0
-9.651340 1.173812 53.234085 125 125 125 0
-9.469936 1.167526 52.949042 125 125 125 0
-9.302211 1.162776 52.733623 123 123 123 0
-9.131820 1.157555 52.496811 125 125 125 0
-8.959592 1.151948 52.242521 119 119 119 0
-8.808803 1.148974 52.107678 122 122 122 0
-8.636949 1.143126 51.842434 121 121 121 0
-8.484624 1.139726 51.688237 120 120 120 0
-8.339274 1.137174 51.572508 119 119 119 0
-8.188474 1.133789 51.418988 118 118 118 0
-8.031654 1.129451 51.222282 121 121 121 0
-7.893747 1.127678 51.141869 116 116 116 0
-7.744470 1.124197 50.984000 118 118 118 0
-7.597426 1.120932 50.835907 118 118 118 0
-7.449711 1.117457 50.678303 113 113 113 0
-7.304579 1.114258 50.533231 117 117 117 0
-7.177124 1.113692 50.507558 117 117 117 0
-7.041788 1.111861 50.424550 116 116 116 0
-6.893374 1.107864 50.243248 115 115 115 0
-6.767887 1.107472 50.225506 114 114 114 0
-6.631583 1.105264 50.125345 116 116 116 0
-6.493401 1.102653 50.006941 114 114 114 0
-6.370539 1.102593 50.004227 113 113 113 0
-6.240422 1.101251 49.943357 113 113 113 0
-6.105931 1.099068 49.844334 117 117 117 0
-5.983015 1.098921 49.837697 114 114 114 0
-5.856658 1.098123 49.801514 114 114 114 0
-5.726907 1.096642 49.734321 118 118 118 0
-5.603643 1.096365 49.721763 115 115 115 0
-5.480074 1.096015 49.705889 117 117 117 0
-5.344484 1.093190 49.577775 117 117 117 0
-5.222848 1.093154 49.576158 116 116 116 0
-5.097095 1.092235 49.534449 118 118 118 0
-4.973051 1.091645 49.507726 117 117 117 0
-4.849905 1.091229 49.488831 114 114 114 0
-4.725294 1.090453 49.453630 116 116 116 0
-4.602812 1.090140 49.439439 114 114 114 0
-4.480969 1.089965 49.431541 116 116 116 0
-4.353394 1.088348 49.358204 115 115 115 0
-4.228661 1.087370 49.313829 114 114 114 0
-4.114347 1.089092 49.391915 114 114 114 0
-3.992531 1.088872 49.381950 114 114 114 0
-3.866045 1.087325 49.311796 114 114 114 0
-3.753008 1.089583 49.414188 114 114 114 0
-3.629540 1.088862 49.381501 112 112 112 0
-3.508032 1.088700 49.374131 115 115 115 0
-3.391467 1.090114 49.438291 114 114 114 0
-3.269000 1.089667 49.417997 112 112 112 0
-3.146077 1.089027 49.388966 114 114 114 0
-3.028663 1.090319 49.447558 113 113 113 0
-2.907541 1.090328 49.447976 114 114 114 0
-2.784165 1.089456 49.408437 115 115 115 0
-2.665168 1.090296 49.446535 115 115 115 0
-2.541925 1.089397 49.405742 115 115 115 0
-2.421166 1.089525 49.411549 118 118 118 0
-2.301806 1.090329 49.448044 117 117 117 0
-2.178441 1.089220 49.397750 118 118 118 0
-2.058385 1.089733 49.421010 120 120 120 0
-1.937722 1.089969 49.431696 118 118 118 0
-1.813932 1.088359 49.358683 120 120 120 0
-1.693709 1.088813 49.379264 118 118 118 0
-1.572388 1.088577 49.368551 118 118 118 0
-1.450842 1.088132 49.348379 121 121 121 0
-1.330608 1.088679 49.373196 118 118 118 0
-1.210294 1.089265 49.399767 120 120 120 0
-1.087814 1.087814 49.333978 118 118 118 0
-0.967907 1.088895 49.383015 118 118 118 0
-0.847020 1.089025 49.388895 119 119 119 0
-0.725431 1.088146 49.349030 117 117 117 0
-0.604508 1.088114 49.347572 117 117 117 0
-0.483941 1.088868 49.381780 114 114 114 0
-0.362695 1.088085 49.346280 116 116 116 0
-0.241863 1.088385 49.359881 116 116 116 0
-0.121028 1.089255 49.399306 116 116 116 0
0.000000 1.088536 49.366706 116 116 116 0
0.120821 1.087393 49.314883 116 116 116 0
0.241529 1.086880 49.291612 116 116 116 0
0.362518 1.087555 49.322219 120 120 120 0
0.482798 1.086296 49.265131 116 116 116 0
0.603812 1.086862 49.290800 117 117 117 0
0.722898 1.084346 49.176705 116 116 116 0
0.845155 1.086627 49.280153 117 117 117 0
0.964785 1.085384 49.223742 117 117 117 0
1.083870 1.083870 49.155104 115 115 115 0
1.205378 1.084841 49.199117 115 115 115 0
1.326222 1.085091 49.210476 116 116 116 0
1.445603 1.084202 49.170163 116 116 116 0
1.565438 1.083764 49.150316 116 116 116 0
1.686297 1.084048 49.163181 112 112 112 0
1.806036 1.083622 49.143838 111 111 111 0
1.928469 1.084764 49.195628 112 112 112 0
2.049146 1.084842 49.199196 112 112 112 0
2.171259 1.085630 49.234901 110 110 110 0
2.289840 1.084661 49.190982 109 109 109 0
2.414720 1.086624 49.280000 110 110 110 0
2.538216 1.087807 49.333650 110 110 110 0
2.658477 1.087559 49.322387 112 112 112 0
2.783534 1.089209 49.397232 111 111 111 0
2.907189 1.090196 49.441990 108 108 108 0
3.028108 1.090119 49.438503 112 112 112 0
3.150985 1.090726 49.466009 110 110 110 0
3.274030 1.091343 49.494021 112 112 112 0
3.401298 1.093274 49.581608 111 111 111 0
3.523344 1.093452 49.589640 109 109 109 0
3.644539 1.093362 49.585567 112 112 112 0
3.300496 0.958209 43.456169 108 108 108 0
3.900663 1.097061 49.753354 107 107 107 0
4.018217 1.095877 49.699648 108 108 108 0
4.146685 1.097652 49.780133 111 111 111 0
3.727337 0.958458 43.467484 110 110 110 0
3.835723 0.958931 43.488928 108 108 108 0
4.535619 1.103259 50.034403 108 108 108 0
4.665483 1.104983 50.112598 110 110 110 0
4.787574 1.104825 50.105432 108 108 108 0
4.923277 1.107737 50.237519 108 108 108 0
4.369146 0.959081 43.495725 107 107 107 0
4.482276 0.960488 43.559530 109 109 109 0
5.299289 1.109154 50.301746 111 111 111 0
5.438929 1.112508 50.453888 107 107 107 0
5.568057 1.113611 50.503921 107 107 107 0
4.918873 0.962388 43.645719 107 107 107 0
5.025559 0.962341 43.643590 106 106 106 0
5.133070 0.962451 43.648554 107 107 107 0
5.229502 0.960521 43.561032 107 107 107 0
5.346056 0.962290 43.641272 107 107 107 0
5.478069 0.966718 43.842091 106 106 106 0
5.583086 0.966303 43.823278 106 106 106 0
6.638298 1.127258 51.122815 106 106 106 0
5.795846 0.965974 43.808357 105 105 105 0
6.922055 1.132700 51.369613 109 109 109 0
6.011196 0.966085 43.813380 108 108 108 0
7.207722 1.138061 51.612760 107 107 107 0
7.350720 1.140629 51.729206 111 111 111 0
7.485390 1.141839 51.784090 108 108 108 0
7.622140 1.143321 51.851295 110 110 110 0
7.754503 1.144107 51.886937 112 112 112 0
7.892537 1.145691 51.958771 117 117 117 0
8.012824 1.144689 51.913339 113 113 113 0
8.156909 1.147065 52.021101 115 115 115 0
8.291596 1.148067 52.066538 117 117 117 0
8.430578 1.149624 52.137156 115 115 115 0
8.564643 1.150474 52.175710 117 117 117 0
8.693729 1.150641 52.183249 115 115 115 0
8.830828 1.151847 52.237968 115 115 115 0
8.973991 1.153799 52.326479 113 113 113 0
9.098460 1.153326 52.305030 115 115 115 0
9.220658 1.152582 52.271301 114 114 114 0
9.369984 1.155204 52.390182 115 115 115 0
9.511396 1.156791 52.462193 116 116 116 0
9.642723 1.157127 52.477404 116 116 116 0
9.780648 1.158235 52.527645 118 118 118 0
9.912085 1.158555 52.542196 119 119 119 0
10.045512 1.159097 52.566780 120 120 120 0
10.178226 1.159545 52.587064 123 123 123 0
-10.754200 1.344275 54.868367 135 135 135 0
-10.597227 1.341421 54.751882 132 132 132 0
-10.402621 1.333669 54.435482 136 136 136 0
-10.249717 1.331132 54.331922 132 132 132 0
-10.049966 1.322364 53.974036 135 135 135 0
-9.878504 1.317134 53.760565 134 134 134 0
-9.721225 1.313679 53.619554 127 127 127 0
-9.537987 1.306574 53.329535 126 126 126 0
-9.352759 1.298994 53.020177 126 126 126 0
-9.199194 1.295661 52.884129 122 122 122 0
-9.018746 1.288392 52.587439 130 130 130 0
-8.862202 1.284377 52.423554 121 121 121 0
-8.695327 1.278725 52.192837 122 122 122 0
-8.536738 1.274140 52.005714 119 119 119 0
-8.377655 1.269342 51.809863 118 118 118 0
-8.237792 1.267353 51.728676 114 114 114 0
-8.091018 1.264222 51.600878 115 115 115 0
-7.939799 1.260286 51.440226 118 118 118 0
-7.791808 1.256743 51.295643 118 118 118 0
-7.643399 1.253016 51.143519 119 119 119 0
-7.504990 1.250832 51.054357 117 117 117 0
-7.366481 1.248556 50.961475 117 117 117 0
-7.215171 1.243995 50.775307 115 115 115 0
-7.084979 1.242979 50.733829 113 113 113 0
-6.940130 1.239309 50.584038 115 115 115 0
-6.808143 1.237844 50.524254 118 118 118 0
-6.674519 1.236022 50.449876 116 116 116 0
-6.533563 1.232748 50.316232 113 113 113 0
-6.406816 1.232080 50.288982 116 116 116 0
-6.274267 1.230248 50.214221 115 115 115 0
-6.137764 1.227553 50.104193 115 115 115 0
-6.010287 1.226589 50.064866 115 115 115 0
-5.878044 1.224593 49.983371 116 116 116 0
-5.748153 1.223011 49.918824 116 116 116 0
-5.628668 1.223624 49.943819 117 117 117 0
-5.499750 1.222167 49.884352 116 116 116 0
-5.373450 1.221239 49.846478 116 116 116 0
-5.241509 1.218956 49.753287 117 117 117 0
-5.114525 1.217744 49.703843 114 114 114 0
-4.986120 1.216127 49.637829 117 117 117 0
-4.867532 1.216883 49.668690 116 116 116 0
-4.742608 1.216053 49.634829 118 118 118 0
-4.615248 1.214539 49.573016 117 117 117 0
-4.494807 1.214813 49.584189 114 114 114 0
-4.372081 1.214467 49.570078 114 114 114 0
-4.245780 1.213080 49.513474 116 116 116 0
-4.130319 1.214800 49.583657 116 116 116 0
-4.005898 1.213908 49.547279 116 116 116 0
-3.880983 1.212807 49.502337 116 116 116 0
-3.763339 1.213980 49.550212 114 114 114 0
-3.641200 1.213733 49.540140 114 114 114 0
-3.518886 1.213409 49.526897 114 114 114 0
-3.401235 1.214727 49.580686 113 113 113 0
-3.278627 1.214306 49.563519 114 114 114 0
-3.155737 1.213745 49.540614 115 115 115 0
-3.037527 1.215011 49.592285 114 114 114 0
-2.914283 1.214285 49.562637 116 116 116 0
-2.791367 1.213638 49.536237 117 117 117 0
-2.673474 1.215215 49.600628 117 117 117 0
-2.550223 1.214392 49.567019 116 116 116 0
-2.429358 1.214679 49.578745 117 117 117 0
-2.309715 1.215640 49.617940 116 116 116 0
-2.183648 1.213138 49.515825 118 118 118 0
-2.063346 1.213733 49.540121 117 117 117 0
-1.943203 1.214502 49.571516 119 119 119 0
-1.820013 1.213342 49.524169 118 118 118 0
-1.697777 1.212698 49.497863 119 119 119 0
-1.578503 1.214233 49.560545 118 118 118 0
-1.455059 1.212549 49.491799 118 118 118 0
-1.333357 1.212143 49.475209 118 118 118 0
-1.213707 1.213707 49.539052 119 119 119 0
-1.090786 1.211984 49.468731 117 117 117 0
-0.969571 1.211964 49.467928 117 117 117 0
-0.849230 1.213186 49.517776 118 118 118 0
-0.727421 1.212368 49.484412 117 117 117 0
-0.606375 1.212750 49.500000 116 116 116 0
-0.485529 1.213822 49.543771 116 116 116 0
-0.363634 1.212113 49.473984 115 115 115 0
-0.242551 1.212753 49.500127 115 115 115 0
-0.121372 1.213716 49.539445 117 117 117 0
0.000000 1.211979 49.468547 117 117 117 0
0.121126 1.211263 49.439317 115 115 115 0
0.242527 1.212636 49.495332 116 116 116 0
0.363456 1.211519 49.449767 117 117 117 0
0.484376 1.210940 49.426115 118 118 118 0
0.605657 1.211313 49.441351 117 117 117 0
0.725807 1.209678 49.374623 115 115 115 0
0.846729 1.209612 49.371935 117 117 117 0
0.968175 1.210218 49.396661 117 117 117 0
1.088252 1.209169 49.353827 118 118 118 0
1.209066 1.209066 49.349635 116 116 116 0
1.328879 1.208072 49.309043 117 117 117 0
1.449465 1.207887 49.301514 117 117 117 0
1.570099 1.207769 49.296686 114 114 114 0
1.691327 1.208090 49.309814 114 114 114 0
1.811797 1.207865 49.300611 113 113 113 0
1.932031 1.207520 49.286511 112 112 112 0
2.056219 1.209541 49.369014 111 111 111 0
2.179357 1.210754 49.418534 109 109 109 0
2.301195 1.211155 49.434902 112 112 112 0
2.423968 1.211984 49.468742 112 112 112 0
2.543790 1.211329 49.441990 110 110 110 0
2.667344 1.212429 49.486897 110 110 110 0
2.792961 1.214331 49.564524 110 110 110 0
2.914018 1.214174 49.558125 110 110 110 0
2.675338 1.070135 43.678990 112 112 112 0
3.162100 1.216192 49.640504 110 110 110 0
3.288580 1.217993 49.713985 115 115 115 0
2.991685 1.068459 43.610574 109 109 109 0
3.535044 1.218981 49.754319 110 110 110 0
3.662245 1.220748 49.826457 112 112 112 0
3.789613 1.222456 49.896149 109 109 109 0
3.912286 1.222589 49.901602 115 115 115 0
4.035785 1.222965 49.916950 110 110 110 0
4.161384 1.223937 49.956596 108 108 108 0
4.288459 1.225274 50.011180 109 109 109 0
3.852481 1.070134 43.678921 111 111 111 0
4.544066 1.228126 50.127584 109 109 109 0
4.680281 1.231653 50.271543 110 110 110 0
4.796651 1.229911 50.200433 109 109 109 0
4.275754 1.068938 43.630142 108 108 108 0
4.388625 1.070396 43.689643 107 107 107 0
4.500043 1.071439 43.732194 106 106 106 0
5.325348 1.238453 50.549104 109 109 109 0
4.702903 1.068842 43.626184 107 107 107 0
5.590328 1.242295 50.705927 108 108 108 0
4.926684 1.071018 43.715034 108 108 108 0
5.033836 1.071029 43.715468 109 109 109 0
5.982057 1.246262 50.867835 105 105 105 0
5.273687 1.076263 43.929089 106 106 106 0
6.244223 1.248845 50.973247 107 107 107 0
5.499059 1.078247 44.010077 106 106 106 0
6.542064 1.258089 51.350578 107 107 107 0
5.716133 1.078516 44.021045 105 105 105 0
5.838522 1.081208 44.130931 108 108 108 0
6.944957 1.262720 51.539573 105 105 105 0
7.084205 1.265037 51.634144 108 108 108 0
6.157152 1.080202 44.089880 109 109 109 0
7.367044 1.270180 51.844080 111 111 111 0
7.505434 1.272107 51.922755 111 111 111 0
7.628849 1.271475 51.896933 114 114 114 0
7.766849 1.273254 51.969545 114 114 114 0
7.901256 1.274396 52.016167 114 114 114 0
8.030558 1.274692 52.028236 115 115 115 0
8.185388 1.278967 52.202732 115 115 115 0
8.301770 1.277195 52.130424 118 118 118 0
8.435717 1.278139 52.168934 116 116 116 0
8.580130 1.280616 52.270058 115 115 115 0
8.712368 1.281231 52.295125 118 118 118 0
8.842928 1.281584 52.309543 116 116 116 0
8.982193 1.283170 52.374301 115 115 115 0
9.108029 1.282821 52.360041 116 116 116 0
9.251389 1.284915 52.445515 115 115 115 0
9.393975 1.286846 52.524320 116 116 116 0
9.512355 1.285453 52.467483 119 119 119 0
9.656697 1.287560 52.553454 119 119 119 0
9.793455 1.288612 52.596428 120 120 120 0
9.931810 1.289845 52.646753 121 121 121 0
10.056874 1.289343 52.626239 124 124 124 0
10.181429 1.288788 52.603609 125 125 125 0
-10.767806 1.480573 54.937783 133 133 133 0
-10.635146 1.480843 54.947796 133 133 133 0
-10.451656 1.473952 54.692079 132 132 132 0
-10.288445 1.469778 54.537210 133 133 133 0
-10.111234 1.463468 54.303082 133 133 133 0
-9.936620 1.457371 54.076846 129 129 129 0
-9.768444 1.452066 53.880002 129 129 129 0
-9.587947 1.444759 53.608873 129 129 129 0
-9.412600 1.438036 53.359412 125 125 125 0
-9.236155 1.430954 53.096610 127 127 127 0
-9.074810 1.426042 52.914343 126 126 126 0
-8.913559 1.421002 52.727353 123 123 123 0
-8.740552 1.413913 52.464300 125 125 125 0
-8.583408 1.409216 52.290026 124 124 124 0
-8.437508 1.406251 52.180010 123 123 123 0
-8.276572 1.400651 51.972195 122 122 122 0
-8.127721 1.396952 51.834956 121 121 121 0
-7.992659 1.395544 51.782697 119 119 119 0
-7.844070 1.391690 51.639698 121 121 121 0
-7.696980 1.387980 51.502040 120 120 120 0
-7.558014 1.385636 51.415058 115 115 115 0
-7.408031 1.381158 51.248919 117 117 117 0
-7.255798 1.376100 51.061210 118 118 118 0
-7.131314 1.376219 51.065624 118 118 118 0
-6.982340 1.371531 50.891692 117 117 117 0
-6.842170 1.368434 50.776772 115 115 115 0
-6.708550 1.366557 50.707108 116 116 116 0
-6.571226 1.363839 50.606283 118 118 118 0
-6.445818 1.363538 50.595115 114 114 114 0
-6.311595 1.361324 50.512961 118 118 118 0
-6.169507 1.357292 50.363326 116 116 116 0
-6.040863 1.356112 50.319557 115 115 115 0
-5.912473 1.354942 50.276135 115 115 115 0
-5.780294 1.352835 50.197954 117 117 117 0
-5.653026 1.351811 50.159948 113 113 113 0
-5.524151 1.350348 50.105675 116 116 116 0
-5.391714 1.347928 50.015898 115 115 115 0
-5.265743 1.347051 49.983322 116 116 116 0
-5.137203 1.345458 49.924225 115 115 115 0
-5.009049 1.343891 49.866089 117 117 117 0
-4.885585 1.343536 49.852905 117 117 117 0
-4.758536 1.342151 49.801529 116 116 116 0
-4.633229 1.341198 49.766149 116 116 116 0
-4.516042 1.342607 49.818445 116 116 116 0
-4.387905 1.340749 49.749492 115 115 115 0
-4.259155 1.338592 49.669443 116 116 116 0
-4.142687 1.340281 49.732135 116 116 116 0
-4.021104 1.340368 49.735362 114 114 114 0
-3.896238 1.339332 49.696910 115 115 115 0
-3.776783 1.340149 49.727231 115 115 115 0
-3.653602 1.339654 49.708868 117 117 117 0
-3.532423 1.339885 49.717426 116 116 116 0
-3.410740 1.339933 49.719238 114 114 114 0
-3.288282 1.339670 49.709477 114 114 114 0
-3.167447 1.340074 49.724436 116 116 116 0
-3.046046 1.340260 49.731362 117 117 117 0
-2.924960 1.340607 49.744221 115 115 115 0
-2.800097 1.339177 49.691163 116 116 116 0
-2.680631 1.340316 49.733418 120 120 120 0
-2.557974 1.339891 49.717667 118 118 118 0
-2.432876 1.338082 49.650536 118 118 118 0
-2.314805 1.340151 49.727293 118 118 118 0
-2.191628 1.339328 49.696789 118 118 118 0
-2.067523 1.337809 49.640410 116 116 116 0
-1.949002 1.339939 49.719434 118 118 118 0
-1.825485 1.338689 49.673062 118 118 118 0
-1.703085 1.338138 49.652616 118 118 118 0
-1.581884 1.338517 49.666685 116 116 116 0
-1.458256 1.336734 49.600532 119 119 119 0
-1.336050 1.336050 49.575133 117 117 117 0
-1.216731 1.338404 49.662479 117 117 117 0
-1.094094 1.337226 49.618777 118 118 118 0
-0.972639 1.337378 49.624416 116 116 116 0
-0.851653 1.338312 49.659080 115 115 115 0
-0.729239 1.336938 49.608087 115 115 115 0
-0.607909 1.337399 49.625184 117 117 117 0
-0.486788 1.338668 49.672280 118 118 118 0
-0.364812 1.337644 49.634268 117 117 117 0
-0.243270 1.337983 49.646876 116 116 116 0
-0.121696 1.338652 49.671691 116 116 116 0
0.000000 1.337236 49.619148 116 116 116 0
0.121525 1.336772 49.601914 117 117 117 0
0.243198 1.337588 49.632220 119 119 119 0
0.364420 1.336206 49.580934 116 116 116 0
0.486245 1.337173 49.616819 119 119 119 0
0.607208 1.335857 49.567966 116 116 116 0
0.728306 1.335229 49.544657 116 116 116 0
0.849773 1.335358 49.549463 115 115 115 0
0.969842 1.333532 49.481721 117 117 117 0
1.091391 1.333923 49.496201 114 114 114 0
1.212746 1.334020 49.499818 119 119 119 0
1.332895 1.332895 49.458084 115 115 115 0
1.453374 1.332259 49.434481 116 116 116 0
1.575940 1.333487 49.480055 116 116 116 0
1.696388 1.332876 49.457367 113 113 113 0
1.817974 1.333181 49.468679 110 110 110 0
1.941165 1.334551 49.519520 113 113 113 0
2.063712 1.335343 49.548918 111 111 111 0
2.182202 1.333568 49.483048 109 109 109 0
2.308854 1.336705 49.599436 110 110 110 0
2.433450 1.338398 49.662254 113 113 113 0
2.553445 1.337519 49.629648 109 109 109 0
2.675477 1.337738 49.637784 113 113 113 0
2.799339 1.338814 49.677717 112 112 112 0
2.925282 1.340754 49.749687 112 112 112 0
3.048992 1.341556 49.779458 112 112 112 0
3.172739 1.342312 49.807512 113 113 113 0
3.290017 1.340377 49.735713 111 111 111 0
3.426133 1.345981 49.943633 110 110 110 0
3.544717 1.344548 49.890460 109 109 109 0
3.673370 1.346902 49.977827 111 111 111 0
3.328315 1.181015 43.822454 109 109 109 0
3.433151 1.180146 43.790193 109 109 109 0
4.056067 1.352022 50.167801 111 111 111 0
4.181275 1.352765 50.195374 110 110 110 0
4.305723 1.353227 50.212508 110 110 110 0
4.428157 1.353048 50.205863 112 112 112 0
4.553021 1.353601 50.226371 111 111 111 0
4.691491 1.358063 50.391952 109 109 109 0
4.182397 1.179650 43.771818 109 109 109 0
4.287356 1.179023 43.748530 109 109 109 0
5.069427 1.360090 50.467163 108 108 108 0
5.200510 1.362038 50.539460 109 109 109 0
4.618065 1.181366 43.835458 107 107 107 0
4.723954 1.180989 43.821468 106 106 106 0
5.603536 1.369753 50.825726 110 110 110 0
5.737025 1.371897 50.905283 107 107 107 0
5.060927 1.184472 43.950737 107 107 107 0
5.160625 1.182643 43.882864 109 109 109 0
6.144189 1.379308 51.180249 108 108 108 0
6.305724 1.387259 51.475294 107 107 107 0
5.503231 1.186971 44.043467 106 106 106 0
5.611448 1.187037 44.045904 110 110 110 0
6.686607 1.387786 51.494853 107 107 107 0
6.830355 1.391369 51.627779 109 109 109 0
6.975544 1.395109 51.766564 112 112 112 0
6.067298 1.191791 44.222291 109 109 109 0
7.234373 1.396107 51.803602 111 111 111 0
7.378186 1.399311 51.922490 111 111 111 0
7.524039 1.402787 52.051466 111 111 111 0
7.656662 1.403721 52.086133 113 113 113 0
7.782958 1.403484 52.077337 115 115 115 0
7.924179 1.405903 52.167077 114 114 114 0
8.047918 1.405192 52.140707 117 117 117 0
8.186124 1.406990 52.207424 117 117 117 0
8.325410 1.408916 52.278870 116 116 116 0
8.459523 1.409920 52.316157 117 117 117 0
8.593869 1.410934 52.353754 116 116 116 0
8.730093 1.412221 52.401519 117 117 117 0
8.855950 1.411818 52.386571 114 114 114 0
9.003116 1.414775 52.496300 115 115 115 0
9.124958 1.413726 52.457364 117 117 117 0
9.263928 1.415322 52.516598 118 118 118 0
9.412823 1.418371 52.629704 119 119 119 0
9.542002 1.418406 52.631011 120 120 120 0
9.670486 1.418338 52.628495 119 119 119 0
9.806814 1.419407 52.668173 121 121 121 0
9.942277 1.420325 52.702238 124 124 124 0
10.062568 1.419080 52.656032 126 126 126 0
10.202652 1.420622 52.713262 127 127 127 0
-10.755523 1.613328 54.875118 140 140 140 0
-10.644855 1.616940 54.997957 137 137 137 0
-10.496378 1.614827 54.926103 134 134 134 0
-10.334011 1.610495 54.778751 139 139 139 0
-10.151853 1.602924 54.521232 133 133 133 0
-9.971704 1.595473 54.267779 133 133 133 0
-9.817004 1.591947 54.147845 131 131 131 0
-9.641722 1.584941 53.909544 127 127 127 0
-9.471031 1.578505 53.690652 128 128 128 0
-9.297063 1.571335 53.446754 123 123 123 0
-9.113495 1.562313 53.139912 126 126 126 0
-8.958006 1.557914 52.990272 125 125 125 0
-8.799222 1.552804 52.816457 125 125 125 0
-8.629941 1.545661 52.573507 128 128 128 0
-8.473895 1.540708 52.405043 121 121 121 0
-8.320137 1.536025 52.245759 121 121 121 0
-8.172439 1.532332 52.120148 117 117 117 0
-8.022869 1.528166 51.978422 122 122 122 0
-7.880683 1.525294 51.880734 120 120 120 0
-7.739694 1.522563 51.787848 117 117 117 0
-7.593944 1.518789 51.659484 120 120 120 0
-7.452382 1.515739 51.555735 117 117 117 0
-7.305055 1.511391 51.407846 117 117 117 0
-7.164253 1.508264 51.301490 117 117 117 0
-7.019322 1.504140 51.161238 117 117 117 0
-6.887877 1.502810 51.115971 115 115 115 0
-6.746192 1.499154 50.991627 118 118 118 0
-6.614120 1.497537 50.936616 116 116 116 0
-6.478809 1.495110 50.854075 116 116 116 0
-6.347272 1.493476 50.798492 117 117 117 0
-6.204285 1.489028 50.647221 116 116 116 0
-6.071494 1.486896 50.574709 116 116 116 0
-5.946074 1.486519 50.561858 115 115 115 0
-5.803269 1.481686 50.397469 118 118 118 0
-5.684195 1.482834 50.436516 117 117 117 0
-5.540770 1.477539 50.256415 116 116 116 0
-5.414148 1.476586 50.224011 116 116 116 0
-5.291365 1.476660 50.226532 117 117 117 0
-5.157462 1.473561 50.121112 115 115 115 0
-5.031595 1.472662 50.090545 116 116 116 0
-4.903580 1.471074 50.036528 115 115 115 0
-4.776419 1.469667 49.988682 115 115 115 0
-4.652324 1.469155 49.971262 115 115 115 0
-4.530256 1.469272 49.975243 117 117 117 0
-4.404789 1.468263 49.940922 114 114 114 0
-4.279770 1.467350 49.909859 115 115 115 0
-4.156459 1.466986 49.897472 114 114 114 0
-4.032473 1.466354 49.875986 114 114 114 0
-3.912509 1.467191 49.904454 116 116 116 0
-3.787723 1.466215 49.871266 114 114 114 0
-3.662889 1.465156 49.835228 115 115 115 0
-3.544346 1.466626 49.885231 115 115 115 0
-3.424120 1.467480 49.914286 114 114 114 0
-3.303631 1.468281 49.941517 117 117 117 0
-3.177045 1.466329 49.875121 116 116 116 0
-3.056953 1.467337 49.909437 115 115 115 0
-2.932084 1.466042 49.865370 118 118 118 0
-2.808301 1.465201 49.836760 116 116 116 0
-2.686846 1.465552 49.848721 118 118 118 0
-2.563314 1.464751 49.821452 117 117 117 0
-2.443318 1.465991 49.863640 118 118 118 0
-2.321930 1.466482 49.880338 118 118 118 0
-2.197827 1.465218 49.837358 116 116 116 0
-2.075456 1.465027 49.830865 117 117 117 0
-1.953338 1.465003 49.830041 118 118 118 0
-1.830298 1.464238 49.804021 119 119 119 0
-1.705725 1.462050 49.729582 117 117 117 0
-1.585883 1.463892 49.792244 119 119 119 0
-1.462372 1.462372 49.740531 116 116 116 0
-1.340735 1.462620 49.748995 118 118 118 0
-1.220958 1.465150 49.835030 118 118 118 0
-1.097390 1.463186 49.768238 119 119 119 0
-0.975074 1.462612 49.748695 117 117 117 0
-0.853573 1.463269 49.771045 116 116 116 0
-0.731137 1.462275 49.737235 116 116 116 0
-0.609201 1.462083 49.730726 116 116 116 0
-0.487655 1.462964 49.760672 117 117 117 0
-0.365755 1.463019 49.762562 117 117 117 0
-0.243875 1.463249 49.770360 116 116 116 0
-0.122015 1.464174 49.801841 118 118 118 0
0.000000 1.464084 49.798776 116 116 116 0
0.121926 1.463118 49.765918 116 116 116 0
0.243839 1.463034 49.763072 117 117 117 0
0.365687 1.462749 49.753365 116 116 116 0
0.487332 1.461996 49.727743 119 119 119 0
0.609189 1.462053 49.729687 115 115 115 0
0.730207 1.460414 49.673961 119 119 119 0
0.851887 1.460377 49.672700 117 117 117 0
0.974134 1.461201 49.700709 115 115 115 0
1.094342 1.459122 49.630002 117 117 117 0
1.216052 1.459262 49.634768 115 115 115 0
1.337738 1.459351 49.637785 113 113 113 0
1.458539 1.458539 49.610165 112 112 112 0
1.581109 1.459485 49.642350 114 114 114 0
1.701411 1.458352 49.603815 113 113 113 0
1.821374 1.457099 49.561195 112 112 112 0
1.945671 1.459253 49.634461 111 111 111 0
2.068824 1.460346 49.671649 110 110 110 0
2.191649 1.461099 49.697247 108 108 108 0
2.050389 1.294983 44.047025 110 110 110 0
2.440846 1.464508 49.813181 112 112 112 0
2.562503 1.464288 49.805700 112 112 112 0
2.689153 1.466811 49.891515 113 113 113 0
2.810498 1.466347 49.875747 112 112 112 0
2.934969 1.467485 49.914439 111 111 111 0
3.059908 1.468756 49.957675 112 112 112 0
3.181158 1.468227 49.939692 113 113 113 0
2.903396 1.290398 43.891102 112 112 112 0
3.434266 1.471828 50.062181 111 111 111 0
3.556610 1.471701 50.057846 114 114 114 0
3.227383 1.290953 43.909977 111 111 111 0
3.812944 1.475978 50.203347 111 111 111 0
3.931098 1.474162 50.141561 111 111 111 0
4.064494 1.477998 50.272040 112 112 112 0
4.191989 1.479526 50.324001 109 109 109 0
4.310219 1.477789 50.264947 110 110 110 0
4.442670 1.480890 50.370414 110 110 110 0
4.573994 1.483458 50.457739 111 111 111 0
4.702272 1.484928 50.507757 109 109 109 0
4.194261 1.290542 43.895984 108 108 108 0
4.315619 1.294686 44.036927 108 108 108 0
5.089525 1.489617 50.667248 111 111 111 0
4.516959 1.290560 43.896592 107 107 107 0
5.355224 1.494481 50.832688 108 108 108 0
4.749365 1.295281 44.057189 109 109 109 0
4.848460 1.292923 43.976959 109 109 109 0
5.740085 1.497413 50.932428 106 106 106 0
5.899544 1.506267 51.233558 110 110 110 0
5.183193 1.295798 44.074769 108 108 108 0
6.149518 1.506004 51.224636 108 108 108 0
5.416948 1.300068 44.219985 108 108 108 0
5.518821 1.298546 44.168233 107 107 107 0
5.632710 1.299856 44.212798 107 107 107 0
6.710662 1.519395 51.680111 112 112 112 0
6.844222 1.520938 51.732590 112 112 112 0
6.979390 1.522776 51.795104 116 116 116 0
7.115001 1.524643 51.858608 112 112 112 0
7.261593 1.528756 51.998519 113 113 113 0
7.385938 1.528125 51.977041 113 113 113 0
7.536675 1.532883 52.138882 116 116 116 0
7.666079 1.533216 52.150195 115 115 115 0
7.791936 1.532840 52.137413 118 118 118 0
7.933500 1.535516 52.228439 116 116 116 0
8.069532 1.537054 52.280739 118 118 118 0
8.206409 1.538702 52.336795 117 117 117 0
8.339342 1.539571 52.366357 117 117 117 0
8.474542 1.540826 52.409041 115 115 115 0
8.584642 1.537548 52.297544 114 114 114 0
8.754150 1.544850 52.545921 114 114 114 0
8.876264 1.543698 52.506737 115 115 115 0
9.013359 1.545147 52.556031 117 117 117 0
9.141368 1.545020 52.551700 119 119 119 0
9.281167 1.546861 52.614323 118 118 118 0
9.409153 1.546710 52.609185 122 122 122 0
9.558149 1.549970 52.720074 121 121 121 0
9.680756 1.548921 52.684388 124 124 124 0
9.815934 1.549884 52.717151 124 124 124 0
9.951371 1.550863 52.750445 125 125 125 0
10.076501 1.550231 52.728942 126 126 126 0
10.212268 1.551231 52.762947 131 131 131 0
-10.779701 1.751701 54.998473 139 139 139 0
-10.644488 1.751625 54.996061 139 139 139 0
-10.510087 1.751681 54.997839 135 135 135 0
-10.367335 1.750329 54.955392 133 133 133 0
-10.183446 1.741905 54.690902 136 136 136 0
-10.013672 1.735703 54.496172 138 138 138 0
-9.842161 1.729028 54.286605 134 134 134 0
-9.669929 1.722042 54.067259 131 131 131 0
-9.515511 1.718078 53.942806 129 129 129 0
-9.352085 1.712354 53.763062 128 128 128 0
-9.174551 1.703845 53.495925 126 126 126 0
-8.999135 1.695489 53.233572 127 127 127 0
-8.826130 1.687348 52.977971 127 127 127 0
-8.663161 1.680912 52.775882 121 121 121 0
-8.511043 1.676417 52.634772 125 125 125 0
-8.358137 1.671627 52.484375 123 123 123 0
-8.205425 1.666727 52.330520 121 121 121 0
-8.070618 1.665366 52.287774 123 123 123 0
-7.910156 1.658581 52.074763 120 120 120 0
-7.775264 1.657023 52.025854 120 120 120 0
-7.629037 1.652958 51.898211 121 121 121 0
-7.485731 1.649398 51.786447 119 119 119 0
-7.343203 1.645890 51.676305 120 120 120 0
-7.208773 1.644106 51.620286 119 119 119 0
-7.051774 1.637019 51.397772 118 118 118 0
-6.921691 1.636036 51.366906 119 119 119 0
-6.784316 1.633261 51.279790 118 118 118 0
-6.640246 1.628739 51.137817 118 118 118 0
-6.513259 1.628315 51.124481 118 118 118 0
-6.366836 1.622919 50.955067 118 118 118 0
-6.234614 1.621000 50.894810 115 115 115 0
-6.099886 1.618337 50.811211 117 117 117 0
-5.973451 1.617810 50.794649 119 119 119 0
-5.837336 1.614582 50.693325 116 116 116 0
-5.704755 1.612213 50.618941 116 116 116 0
-5.579409 1.611829 50.606885 114 114 114 0
-5.438651 1.606874 50.451304 116 116 116 0
-5.318833 1.608019 50.487261 117 117 117 0
-5.180017 1.603339 50.340306 113 113 113 0
-5.053145 1.602217 50.305074 116 116 116 0
-4.928302 1.601698 50.288794 115 115 115 0
-4.799072 1.599691 50.225763 120 120 120 0
-4.674372 1.599127 50.208075 114 114 114 0
-4.552502 1.599528 50.220651 117 117 117 0
-4.415927 1.594640 50.067198 114 114 114 0
-4.294438 1.595077 50.080915 115 115 115 0
-4.173507 1.595753 50.102123 113 113 113 0
-4.045199 1.593563 50.033378 114 114 114 0
-3.929602 1.596401 50.122478 115 115 115 0
-3.800361 1.593700 50.037668 113 113 113 0
-3.675168 1.592573 50.002292 117 117 117 0
-3.558178 1.595046 50.079922 113 113 113 0
-3.433364 1.594062 50.049036 117 117 117 0
-3.311737 1.594540 50.064044 118 118 118 0
-3.189890 1.594945 50.076759 116 116 116 0
-3.063975 1.593267 50.024089 117 117 117 0
-2.940516 1.592780 50.008783 118 118 118 0
-2.819567 1.593669 50.036688 118 118 118 0
-2.693891 1.591845 49.979433 119 119 119 0
-2.571443 1.591846 49.979452 119 119 119 0
-2.449444 1.592139 49.988653 117 117 117 0
-2.327402 1.592433 49.997895 117 117 117 0
-2.203618 1.591502 49.968658 116 116 116 0
-2.080975 1.591334 49.963388 119 119 119 0
-1.958284 1.591106 49.956221 118 118 118 0
-1.834718 1.590089 49.924289 118 118 118 0
-1.712524 1.590201 49.927826 117 117 117 0
-1.590230 1.590230 49.928722 118 118 118 0
-1.466779 1.589011 49.890454 117 117 117 0
-1.345143 1.589715 49.912559 116 116 116 0
-1.223228 1.590197 49.927681 116 116 116 0
-1.098922 1.587332 49.837725 118 118 118 0
-0.979321 1.591397 49.965378 117 117 117 0
-0.855975 1.589668 49.911094 117 117 117 0
-0.733287 1.588788 49.883460 117 117 117 0
-0.612158 1.591610 49.972057 116 116 116 0
-0.489237 1.590019 49.922098 116 116 116 0
-0.367007 1.590364 49.932922 118 118 118 0
-0.244462 1.589001 49.890129 116 116 116 0
-0.122314 1.590079 49.923991 117 117 117 0
0.000000 1.587575 49.845359 120 120 120 0
0.122380 1.590943 49.951112 120 120 120 0
0.244565 1.589674 49.911286 121 121 121 0
0.366391 1.587695 49.849147 117 117 117 0
0.488965 1.589135 49.894363 119 119 119 0
0.610705 1.587833 49.853469 120 120 120 0
0.732105 1.586228 49.803066 119 119 119 0
0.854170 1.586315 49.805822 119 119 119 0
0.976802 1.587303 49.836837 116 116 116 0
1.096886 1.584391 49.745409 116 116 116 0
1.218668 1.584269 49.741558 117 117 117 0
1.340501 1.584228 49.740289 115 115 115 0
1.463894 1.585885 49.792318 114 114 114 0
1.587346 1.587346 49.838189 115 115 115 0
1.708006 1.586005 49.796081 113 113 113 0
1.828171 1.584415 49.746141 113 113 113 0
1.953874 1.587523 49.843727 113 113 113 0
2.077160 1.588416 49.871786 112 112 112 0
2.200225 1.589052 49.891728 113 113 113 0
2.323034 1.589445 49.904068 110 110 110 0
2.448255 1.591366 49.964391 110 110 110 0
2.571539 1.591905 49.981317 113 113 113 0
2.698620 1.594639 50.067167 111 111 111 0
2.819290 1.593512 50.031763 115 115 115 0
2.942542 1.593877 50.043235 114 114 114 0
3.067539 1.595120 50.082263 113 113 113 0
2.807409 1.403704 44.072351 112 112 112 0
3.318950 1.598013 50.173085 113 113 113 0
3.443723 1.598871 50.200038 108 108 108 0
3.565947 1.598528 50.189255 110 110 110 0
3.699207 1.602990 50.329346 111 111 111 0
3.824795 1.603946 50.359375 113 113 113 0
3.945852 1.603002 50.329747 108 108 108 0
4.082906 1.608418 50.499765 112 112 112 0
4.205779 1.608092 50.489541 113 113 113 0
3.779596 1.403850 44.076918 112 112 112 0
4.461483 1.611091 50.583708 109 109 109 0
4.588617 1.612217 50.619051 112 112 112 0
4.718926 1.614370 50.686643 108 108 108 0
4.212863 1.404288 44.090664 111 111 111 0
4.321130 1.404367 44.093165 108 108 108 0
5.116965 1.622452 50.940421 109 109 109 0
4.542853 1.406121 44.148232 108 108 108 0
4.646539 1.404768 44.105738 110 110 110 0
5.497167 1.624163 50.994131 108 108 108 0
5.641159 1.629668 51.166979 110 110 110 0
4.989881 1.410184 44.275786 106 106 106 0
5.904027 1.633029 51.272488 107 107 107 0
6.051878 1.639050 51.461548 108 108 108 0
6.180812 1.639807 51.485310 109 109 109 0
5.438497 1.414009 44.395891 108 108 108 0
6.461738 1.647110 51.714593 110 110 110 0
6.591661 1.647915 51.739881 109 109 109 0
5.742482 1.408533 44.223962 110 110 110 0
6.871143 1.654164 51.936075 112 112 112 0
7.003788 1.655441 51.976165 111 111 111 0
6.093023 1.414452 44.409790 111 111 111 0
7.275647 1.659358 52.099158 114 114 114 0
7.416945 1.662419 52.195246 115 115 115 0
7.547290 1.662962 52.212315 114 114 114 0
7.691472 1.666486 52.322939 116 116 116 0
7.813371 1.665145 52.280836 117 117 117 0
7.946057 1.666109 52.311104 116 116 116 0
8.095647 1.670530 52.449934 118 118 118 0
8.207417 1.667132 52.343220 115 115 115 0
8.355516 1.671103 52.467919 116 116 116 0
8.481066 1.670513 52.449387 117 117 117 0
8.612320 1.671047 52.466159 116 116 116 0
8.749083 1.672619 52.515502 116 116 116 0
8.886874 1.674338 52.569497 117 117 117 0
9.022992 1.675698 52.612198 119 119 119 0
9.172905 1.679546 52.732996 120 120 120 0
9.289483 1.677268 52.661469 120 120 120 0
9.430145 1.679341 52.726558 123 123 123 0
9.563956 1.680154 52.752101 125 125 125 0
9.698348 1.681047 52.780125 126 126 126 0
9.813313 1.678593 52.703077 125 125 125 0
9.953610 1.680480 52.762309 127 127 127 0
10.084434 1.680739 52.770453 130 130 130 0
10.219686 1.681720 52.801268 129 129 129 0
-9.918027 1.735655 50.602177 142 142 142 0
-10.644273 1.886327 54.994950 141 141 141 0
-10.509498 1.886320 54.994757 137 137 137 0
-10.375449 1.886445 54.998405 134 134 134 0
-10.221548 1.882917 54.895530 137 137 137 0
-10.046498 1.875346 54.674821 136 136 136 0
-9.876783 1.868581 54.477568 133 133 133 0
-9.700352 1.860342 54.237363 136 136 136 0
-9.532543 1.853550 54.039357 132 132 132 0
-9.383444 1.850257 53.943343 130 130 130 0
-9.214895 1.842979 53.731166 132 132 132 0
-9.052182 1.836675 53.547367 128 128 128 0
-8.880338 1.828305 53.303351 124 124 124 0
-8.712446 1.820511 53.076128 123 123 123 0
-8.547957 1.813203 52.863063 126 126 126 0
-8.406494 1.810630 52.788034 125 125 125 0
