ply
format ascii 1.0
element vertex 1132
property float x
property float y
property float z
property uchar red
property uchar green
property uchar blue
property uchar alpha
end_header
-4.751287 3.746207 37.294246 140 140 140 0
-4.661818 3.747736 37.309468 144 144 144 0
-4.570629 3.747916 37.311256 146 146 146 0
-4.482366 3.750551 37.337491 148 148 148 0
-4.394946 3.754017 37.371994 152 152 152 0
-4.299098 3.750277 37.334765 153 153 153 0
-4.203531 3.746626 37.298415 150 150 150 0
-4.117128 3.751161 37.343567 150 150 150 0
-4.020280 3.746170 37.293879 152 152 152 0
-3.924063 3.741549 37.247873 151 151 151 0
-3.829344 3.738169 37.214229 151 151 151 0
-3.737824 3.737824 37.210791 149 149 149 0
-3.642034 3.733085 37.163611 150 150 150 0
-3.546176 3.728031 37.113299 151 151 151 0
-3.454435 3.727153 37.104562 148 148 148 0
-3.360274 3.723546 37.068656 149 149 149 0
-3.269210 3.723267 37.065876 146 146 146 0
-3.181002 3.726316 37.096228 143 143 143 0
-3.090613 3.726915 37.102193 143 143 143 0
-3.000037 3.727319 37.106215 136 136 136 0
-2.910516 3.729098 37.123926 131 131 131 0
-2.818962 3.728305 37.116024 128 128 128 0
-2.738434 3.742526 37.257600 125 125 125 0
-2.653418 3.751384 37.345783 117 117 117 0
-2.570776 3.764350 37.474866 116 116 116 0
-2.252632 3.420664 34.053400 108 108 108 0
-2.215261 3.493296 34.776469 106 106 106 0
-2.198338 3.605274 35.891227 103 103 103 0
-2.155860 3.682927 36.664285 111 111 111 0
-2.111364 3.763735 37.468742 112 112 112 0
-2.056810 3.833146 38.159744 113 113 113 0
-1.989377 3.884021 38.666214 126 126 126 0
-1.911525 3.918627 39.010721 154 154 154 0
-1.814565 3.915640 38.980984 147 147 147 0
-1.706489 3.887003 38.695900 140 140 140 0
-1.590507 3.835930 38.187454 136 136 136 0
-1.482126 3.797947 37.809326 140 140 140 0
-1.377136 3.764173 37.473100 139 139 139 0
-1.278346 3.743727 37.269560 142 142 142 0
-1.183481 3.732518 37.157967 146 146 146 0
-1.086474 3.712119 36.954897 149 149 149 0
-0.992921 3.700888 36.843085 150 150 150 0
-0.899199 3.686715 36.701987 146 146 146 0
-0.806366 3.673446 36.569897 147 147 147 0
-0.716970 3.674473 36.580119 148 148 148 0
-0.624773 3.659384 36.429903 146 146 146 0
-0.534781 3.654338 36.379676 147 147 147 0
-0.445480 3.652939 36.365748 150 150 150 0
-0.355286 3.641682 36.253676 151 151 151 0
-0.266050 3.636018 36.197288 147 147 147 0
-0.177606 3.640913 36.246026 150 150 150 0
-0.088626 3.633648 36.173700 150 150 150 0
0.000000 3.627771 36.115195 149 149 149 0
0.088418 3.625120 36.088804 148 148 148 0
0.176903 3.626503 36.102573 149 149 149 0
0.264892 3.620193 36.039754 152 152 152 0
0.353330 3.621634 36.054092 152 152 152 0
0.441241 3.618175 36.019663 152 152 152 0
0.529236 3.616445 36.002439 150 150 150 0
0.617400 3.616200 36.000000 149 149 149 0
0.705679 3.616606 36.004039 142 142 142 0
0.793682 3.615662 35.994640 137 137 137 0
0.882411 3.617887 36.016791 134 134 134 0
0.971341 3.620453 36.042338 134 134 134 0
1.060270 3.622590 36.063618 129 129 129 0
1.150650 3.628974 36.127167 128 128 128 0
1.239426 3.629749 36.134878 127 127 127 0
1.330047 3.635462 36.191755 124 124 124 0
1.419746 3.638099 36.218006 118 118 118 0
1.513427 3.650029 36.336774 111 111 111 0
1.603671 3.652807 36.364431 102 102 102 0
1.482073 3.198157 31.838295 96 96 96 0
1.566024 3.210350 31.959679 93 93 93 0
1.643287 3.208322 31.939491 94 94 94 0
1.733671 3.230932 32.164576 101 101 101 0
1.818423 3.241537 32.270156 99 99 99 0
1.903140 3.251197 32.366319 102 102 102 0
2.285325 3.747933 37.311431 98 98 98 0
2.075094 3.272263 32.576042 97 97 97 0
2.166038 3.289169 32.744341 90 90 90 0
2.248473 3.292407 32.776579 94 94 94 0
2.361305 3.338397 33.234414 97 97 97 0
2.409539 3.293036 32.782842 90 90 90 0
3.054788 3.913947 38.964131 67 67 67 0
3.153531 3.918023 39.004708 73 73 73 0
3.305547 3.986101 39.682436 111 111 111 0
3.396965 3.979302 39.614752 127 127 127 0
3.495174 3.980615 39.627826 128 128 128 0
3.577332 3.964071 39.463126 134 134 134 0
3.653197 3.941608 39.239500 136 136 136 0
3.734975 3.926512 39.089217 138 138 138 0
3.817674 3.913116 38.955862 136 136 136 0
3.900662 3.900662 38.831877 141 141 141 0
3.989270 3.894287 38.768416 139 139 139 0
4.066148 3.877025 38.596562 141 141 141 0
4.164203 3.880280 38.628969 142 142 142 0
4.244689 3.867383 38.500579 140 140 140 0
4.324469 3.854418 38.371508 142 142 142 0
4.410010 3.847030 38.297956 144 144 144 0
4.491449 3.836446 38.192595 143 143 143 0
4.573169 3.826529 38.093867 145 145 145 0
4.657450 3.819109 38.019999 142 142 142 0
4.744314 3.814056 37.969698 146 146 146 0
4.832779 3.810460 37.933902 146 146 146 0
4.922429 3.807917 37.908583 146 146 146 0
5.011524 3.805046 37.880000 148 148 148 0
5.094202 3.797496 37.804840 149 149 149 0
5.180620 3.792954 37.759623 147 147 147 0
5.276309 3.795240 37.782377 149 149 149 0
5.352782 3.783863 37.669124 146 146 146 0
5.444616 3.783546 37.665968 148 148 148 0
5.543433 3.788013 37.710431 146 146 146 0
5.630292 3.784295 37.673419 144 144 144 0
5.716314 3.780143 37.632088 139 139 139 0
5.817009 3.785672 37.687130 138 138 138 0
5.914528 3.788995 37.720205 136 136 136 0
6.003020 3.786520 37.695572 133 133 133 0
5.855902 3.637757 36.214609 132 132 132 0
6.088478 3.725785 37.090944 129 129 129 0
6.473536 3.903161 38.856757 126 126 126 0
6.389005 3.796365 37.793580 123 123 123 0
6.816185 3.992337 39.744517 118 118 118 0
6.915214 3.993293 39.754033 116 116 116 0
6.701222 3.815973 37.988784 115 115 115 0
6.797440 3.817740 38.006374 110 110 110 0
6.895350 3.820397 38.032818 106 106 106 0
7.008635 3.831387 38.142234 100 100 100 0
7.191321 3.879528 38.621488 95 95 95 0
7.580894 4.036580 40.184966 92 92 92 0
7.347204 3.861992 38.446909 88 88 88 0
-7.334994 3.850872 37.423438 147 147 147 0
-7.234017 3.845933 37.375446 150 150 150 0
-7.136973 3.842986 37.346800 145 145 145 0
-7.055325 3.848359 37.399020 145 145 145 0
-6.969316 3.851464 37.429195 147 147 147 0
-6.876269 3.850711 37.421873 147 147 147 0
-6.781049 3.848704 37.402367 146 146 146 0
-6.697118 3.853136 37.445444 149 149 149 0
-6.604271 3.852491 37.439176 150 150 150 0
-6.503498 3.847140 37.387169 151 151 151 0
-6.416116 3.849669 37.411753 149 149 149 0
-6.328919 3.852386 37.438150 151 151 151 0
-6.227396 3.846333 37.379325 150 150 150 0
-6.131653 3.843723 37.353964 152 152 152 0
-6.045287 3.847001 37.385822 151 151 151 0
-5.944465 3.841039 37.327878 155 155 155 0
-5.840479 3.832815 37.247956 156 156 156 0
-5.749770 3.833180 37.251507 151 151 151 0
-5.651364 3.828343 37.204503 152 152 152 0
-5.551836 3.822575 37.148449 152 152 152 0
-5.455939 3.819157 37.115233 151 151 151 0
-5.370066 3.822759 37.150233 151 151 151 0
-5.273546 3.818775 37.111514 149 149 149 0
-5.187915 3.822674 37.149407 147 147 147 0
-5.094635 3.820977 37.132911 143 143 143 0
-5.010614 3.826287 37.184523 138 138 138 0
-4.917820 3.824971 37.171731 137 137 137 0
-4.833018 3.829939 37.220006 136 136 136 0
-4.750679 3.837087 37.289475 138 138 138 0
-4.658903 3.836744 37.286140 145 145 145 0
-4.568130 3.837229 37.290860 147 147 147 0
-4.479018 3.839159 37.309608 148 148 148 0
-4.391474 3.842540 37.342470 152 152 152 0
-4.296752 3.839651 37.314388 152 152 152 0
-4.198442 3.833360 37.253257 154 154 154 0
-4.110432 3.836403 37.282831 153 153 153 0
-4.013418 3.830990 37.230221 153 153 153 0
-3.919605 3.828452 37.205555 152 152 152 0
-3.826533 3.826533 37.186905 151 151 151 0
-3.734196 3.825274 37.174673 151 151 151 0
-3.638252 3.820164 37.125017 149 149 149 0
-3.542194 3.814670 37.071626 148 148 148 0
-3.450183 3.813360 37.058890 150 150 150 0
-3.358264 3.812084 37.046487 148 148 148 0
-3.266627 3.811065 37.036588 147 147 147 0
-3.176568 3.811881 37.044522 145 145 145 0
-3.085607 3.811632 37.042098 140 140 140 0
-2.996643 3.813909 37.064231 135 135 135 0
-2.906945 3.815366 37.078382 132 132 132 0
-2.820476 3.821290 37.135955 129 129 129 0
-2.735993 3.830391 37.224399 123 123 123 0
-2.649120 3.836657 37.285298 117 117 117 0
-2.564627 3.846941 37.385240 116 116 116 0
-2.251581 3.502460 34.037511 106 106 106 0
-2.186938 3.532747 34.331844 106 106 106 0
-2.215596 3.722201 36.172990 99 99 99 0
-2.158598 3.777546 36.710843 108 108 108 0
-2.107791 3.849009 37.405336 116 116 116 0
-2.049631 3.912931 38.026544 115 115 115 0
-1.984174 3.968348 38.565095 127 127 127 0
-1.906035 4.002673 38.898669 150 150 150 0
-1.810816 4.002855 38.900442 146 146 146 0
-1.700251 3.967252 38.554443 144 144 144 0
-1.587793 3.922782 38.122272 140 140 140 0
-1.478582 3.881277 37.718917 142 142 142 0
-1.374612 3.848914 37.404409 143 143 143 0
-1.276661 3.829982 37.220426 142 142 142 0
-1.183272 3.822878 37.151386 145 145 145 0
-1.087567 3.806484 36.992068 145 145 145 0
-0.993004 3.791471 36.846175 149 149 149 0
-0.897485 3.769436 36.632034 144 144 144 0
-0.807436 3.768032 36.618391 149 149 149 0
-0.715455 3.756140 36.502818 148 148 148 0
-0.623654 3.741924 36.364661 150 150 150 0
-0.534295 3.740064 36.346586 150 150 150 0
-0.444739 3.735812 36.305264 151 151 151 0
-0.355169 3.729277 36.241761 147 147 147 0
-0.266006 3.724081 36.191265 152 152 152 0
-0.177384 3.725064 36.200814 153 153 153 0
-0.088544 3.718842 36.140348 152 152 152 0
0.000000 3.712821 36.081833 151 151 151 0
0.088357 3.710991 36.064053 151 151 151 0
0.176680 3.710287 36.057209 153 153 153 0
0.264851 3.707917 36.034182 153 153 153 0
0.352897 3.705416 36.009874 151 151 151 0
0.441062 3.704922 36.005078 152 152 152 0
0.528958 3.702708 35.983557 152 152 152 0
0.617074 3.702443 35.980981 150 150 150 0
0.704813 3.700266 35.959828 145 145 145 0
0.793588 3.703413 35.990405 140 140 140 0
0.881596 3.702705 35.983529 134 134 134 0
0.970133 3.704145 35.997525 131 131 131 0
1.059673 3.708854 36.043289 131 131 131 0
1.149373 3.713359 36.087069 128 128 128 0
1.239838 3.719514 36.146881 126 126 126 0
1.327923 3.718186 36.133971 122 122 122 0
1.419715 3.726752 36.217217 118 118 118 0
1.512407 3.736534 36.312282 111 111 111 0
1.397348 3.260479 31.685900 103 103 103 0
1.480374 3.272405 31.801801 96 96 96 0
1.566476 3.289600 31.968902 92 92 92 0
1.649625 3.299250 32.062686 95 95 95 0
1.733180 3.308799 32.155478 101 101 101 0
2.085835 3.808917 37.015714 102 102 102 0
2.186460 3.826305 37.184697 102 102 102 0
1.978989 3.324702 32.310028 104 104 104 0
2.067474 3.339766 32.456422 95 95 95 0
2.156545 3.354626 32.600836 92 92 92 0
2.250431 3.375647 32.805119 89 89 89 0
2.318621 3.358003 32.633654 94 94 94 0
2.444742 3.422638 33.261790 88 88 88 0
2.873005 3.892459 37.827586 73 73 73 0
3.022513 3.967048 38.552460 70 70 70 0
3.300697 4.077331 39.624212 114 114 114 0
3.393683 4.072420 39.576480 137 137 137 0
3.488530 4.069952 39.552495 134 134 134 0
3.568754 4.051018 39.368498 132 132 132 0
3.643667 4.027211 39.137130 136 136 136 0
3.741065 4.028840 39.152961 137 137 137 0
3.814963 4.005711 38.928190 138 138 138 0
3.898530 3.993616 38.810653 141 141 141 0
3.985140 3.985140 38.728277 141 141 141 0
4.064858 3.970326 38.584317 139 139 139 0
4.161486 3.972328 38.603768 138 138 138 0
4.251201 3.967787 38.559645 144 144 144 0
4.322877 3.946975 38.357382 142 142 142 0
4.415731 3.945972 38.347641 142 142 142 0
4.500090 3.937579 38.266074 142 142 142 0
4.575141 3.921549 38.110293 143 143 143 0
4.658010 3.912729 38.024573 144 144 144 0
4.744204 3.906992 37.968821 145 145 145 0
4.826677 3.898470 37.886008 147 147 147 0
4.922992 3.901239 37.912916 150 150 150 0
5.005450 3.893128 37.834087 149 149 149 0
5.093479 3.889566 37.799474 152 152 152 0
5.180116 3.885087 37.755949 151 151 151 0
5.274020 3.886120 37.765983 152 152 152 0
5.350758 3.874687 37.654877 151 151 151 0
5.441197 3.873394 37.642314 147 147 147 0
5.541322 3.878925 37.696068 147 147 147 0
5.631648 3.877528 37.682491 145 145 145 0
5.711856 3.869322 37.602737 141 141 141 0
5.814310 3.876206 37.669644 137 137 137 0
5.542726 3.637414 35.349016 137 137 137 0
5.766158 3.725825 36.208212 136 136 136 0
6.137497 3.905680 37.956071 134 134 134 0
6.232233 3.906773 37.966696 129 129 129 0
6.473116 3.998101 38.854239 127 127 127 0
6.387835 3.888247 37.786660 123 123 123 0
6.513164 3.907898 37.977632 120 120 120 0
6.916016 4.091164 39.758641 116 116 116 0
7.171272 4.183242 40.653468 114 114 114 0
6.639263 3.819850 37.121964 111 111 111 0
6.907096 3.920244 38.097606 105 105 105 0
6.988512 3.913567 38.032720 101 101 101 0
7.181629 3.968795 38.569438 96 96 96 0
7.300827 3.982269 38.700379 95 95 95 0
7.108412 3.827607 37.197343 90 90 90 0
7.026672 3.735699 36.304170 70 70 70 0
-7.325680 3.937553 37.375917 145 145 145 0
-7.228594 3.934551 37.347427 151 151 151 0
-7.136221 3.934071 37.342862 146 146 146 0
-7.048618 3.936241 37.363467 145 145 145 0
-6.957684 3.936584 37.366725 145 145 145 0
-6.867688 3.937474 37.375173 147 147 147 0
-6.775077 3.936869 37.369425 147 147 147 0
-6.689929 3.940643 37.405253 145 145 145 0
-6.595768 3.939139 37.390977 149 149 149 0
-6.499449 3.936286 37.363891 145 145 145 0
-6.410112 3.937640 37.376747 152 152 152 0
-6.320330 3.938757 37.387344 150 150 150 0
-6.218566 3.932329 37.326329 150 150 150 0
-6.123374 3.929927 37.303528 152 152 152 0
-6.039955 3.935122 37.352845 151 151 151 0
-5.932910 3.924848 37.255324 152 152 152 0
-5.837017 3.921746 37.225876 152 152 152 0
-5.746664 3.922327 37.231386 151 151 151 0
-5.642384 3.913266 37.145384 152 152 152 0
-5.544004 3.908068 37.096042 153 153 153 0
-5.454490 3.909051 37.105374 151 151 151 0
-5.365573 3.910502 37.119146 148 148 148 0
-5.270898 3.907735 37.092881 147 147 147 0
-5.179849 3.907605 37.091650 145 145 145 0
-5.091856 3.909818 37.112651 142 142 142 0
-5.007818 3.915203 37.163767 137 137 137 0
-4.915217 3.913969 37.152054 137 137 137 0
-4.830433 3.919030 37.200098 137 137 137 0
-4.740615 3.920124 37.210483 138 138 138 0
-4.654116 3.924059 37.247827 144 144 144 0
-4.560570 3.922090 37.229140 147 147 147 0
-4.477436 3.929178 37.296423 147 147 147 0
-4.387130 3.930137 37.305527 149 149 149 0
-4.292371 3.927063 37.276342 153 153 153 0
-4.197021 3.923302 37.240647 151 151 151 0
-4.111392 3.928663 37.291533 152 152 152 0
-4.010758 3.919604 37.205543 152 152 152 0
-3.915566 3.915566 37.167219 153 153 153 0
-3.823474 3.914509 37.157177 149 149 149 0
-3.728118 3.909977 37.114163 151 151 151 0
-3.631303 3.903650 37.054109 151 151 151 0
-3.536937 3.899699 37.016605 149 149 149 0
-3.447372 3.900974 37.028704 149 149 149 0
-3.356588 3.900900 37.028003 150 150 150 0
-3.265457 3.900407 37.023319 147 147 147 0
-3.171553 3.896479 36.986041 145 145 145 0
-3.080583 3.896031 36.981783 141 141 141 0
-2.993561 3.900701 37.026115 134 134 134 0
-2.901719 3.899186 37.011728 133 133 133 0
-2.819112 3.910381 37.117996 127 127 127 0
-2.731346 3.914930 37.161176 126 126 126 0
-2.643498 3.919669 37.206160 121 121 121 0
-2.565325 3.939606 37.395410 118 118 118 0
-2.489301 3.964442 37.631151 106 106 106 0
-2.188831 3.619989 34.361550 105 105 105 0
-2.208038 3.797825 36.049595 98 98 98 0
-2.152212 3.856046 36.602244 112 112 112 0
-2.109353 3.943573 37.433063 106 106 106 0
-2.047774 4.002468 37.992105 115 115 115 0
-1.981956 4.058291 38.521983 131 131 131 0
-1.904599 4.094888 38.869368 152 152 152 0
-1.807358 4.090337 38.826165 144 144 144 0
-1.700157 4.061487 38.552316 139 139 139 0
-1.588921 4.019036 38.149368 140 140 140 0
-1.477773 3.971516 37.698303 137 137 137 0
-1.375740 3.943787 37.435092 139 139 139 0
-1.275825 3.918605 37.196063 143 143 143 0
-1.181285 3.907329 37.089023 145 145 145 0
-1.086461 3.893153 36.954468 147 147 147 0
-0.992327 3.879095 36.821028 146 146 146 0
-0.898016 3.861470 36.653722 150 150 150 0
-0.806460 3.853084 36.574129 147 147 147 0
-0.715636 3.846541 36.512017 148 148 148 0
-0.622866 3.826175 36.318703 154 154 154 0
-0.533983 3.826881 36.325404 149 149 149 0
-0.444583 3.823415 36.292500 149 149 149 0
-0.354780 3.813888 36.202071 152 152 152 0
-0.265689 3.808206 36.148136 151 151 151 0
-0.177278 3.811473 36.179148 153 153 153 0
-0.088417 3.801948 36.088737 153 153 153 0
0.000000 3.799411 36.064651 152 152 152 0
0.088333 3.798325 36.054339 154 154 154 0
0.176574 3.796351 36.035602 156 156 156 0
0.264617 3.792841 36.002287 151 151 151 0
0.352868 3.793334 36.006965 154 154 154 0
0.440931 3.792007 35.994374 153 153 153 0
0.528976 3.790992 35.984737 153 153 153 0
0.616647 3.787972 35.956071 152 152 152 0
0.704900 3.788838 35.964294 148 148 148 0
0.793066 3.789095 35.966728 140 140 140 0
0.881448 3.790228 35.977485 134 134 134 0
0.970283 3.792925 36.003089 131 131 131 0
1.058813 3.794082 36.014063 131 131 131 0
1.148444 3.798701 36.057912 130 130 130 0
1.238281 3.803293 36.101496 127 127 127 0
1.327819 3.806415 36.131136 123 123 123 0
1.417782 3.810288 36.167900 119 119 119 0
1.510375 3.820360 36.263499 111 111 111 0
1.603272 3.830038 36.355371 100 100 100 0
1.480447 3.350486 31.803377 92 92 92 0
1.564597 3.363883 31.930547 93 93 93 0
1.648510 3.375521 32.041012 94 94 94 0
1.730968 3.383255 32.114429 99 99 99 0
2.088929 3.905389 37.070614 101 101 101 0
2.186247 3.917026 37.181072 105 105 105 0
2.282295 3.925547 37.261955 104 104 104 0
2.378981 3.934469 37.346647 100 100 100 0
2.168693 3.453844 32.784470 93 93 93 0
2.220351 3.409824 32.366628 88 88 88 0
2.362141 3.502485 33.246180 90 90 90 0
2.440350 3.497835 33.202041 92 92 92 0
2.466199 3.420856 32.471344 78 78 78 0
3.176713 4.139354 39.291447 70 70 70 0
3.294458 4.166521 39.549320 121 121 121 0
3.391285 4.166435 39.548509 129 129 129 0
3.477213 4.153338 39.424185 132 132 132 0
3.569622 4.148480 39.378069 135 135 135 0
3.640507 4.119521 39.103187 137 137 137 0
3.729113 4.111586 39.027869 138 138 138 0
3.813668 4.099693 38.914982 141 141 141 0
3.900083 4.090331 38.826114 140 140 140 0
3.990107 4.085110 38.776553 142 142 142 0
4.063381 4.063381 38.570301 141 141 141 0
4.162511 4.067908 38.613273 139 139 139 0
4.239867 4.051428 38.456844 140 140 140 0
4.323820 4.041832 38.365750 140 140 140 0
4.413167 4.037579 38.325379 141 141 141 0
4.496209 4.027854 38.233066 141 141 141 0
4.582561 4.021431 38.172104 140 140 140 0
4.655000 4.003300 38.000000 143 143 143 0
4.744009 3.999851 37.967261 144 144 144 0
4.826806 3.991397 37.887018 146 146 146 0
4.917183 3.989412 37.868175 150 150 150 0
5.001060 3.982326 37.800908 151 151 151 0
5.088528 3.978303 37.762729 152 152 152 0
5.181040 3.978299 37.762686 151 151 151 0
5.273356 3.978146 37.761234 150 150 150 0
5.350705 3.966902 37.654507 147 147 147 0
5.445837 3.969000 37.674415 146 146 146 0
5.541913 3.971704 37.700086 145 145 145 0
5.632828 3.970682 37.690388 143 143 143 0
5.714694 3.963417 37.621419 140 140 140 0
5.810881 3.966157 37.647434 137 137 137 0
5.914528 3.973824 37.720205 134 134 134 0
5.998993 3.968564 37.670284 133 133 133 0
6.085560 3.964834 37.634876 130 130 130 0
6.233584 4.000658 37.974926 127 127 127 0
6.473501 4.093538 38.856551 126 126 126 0
6.568958 4.093698 38.858077 120 120 120 0
6.664346 4.093813 38.859162 117 117 117 0
6.454482 3.909052 37.105385 115 115 115 0
6.391917 3.817395 36.235356 114 114 114 0
6.796964 4.003691 38.003710 110 110 110 0
6.917016 4.019347 38.152324 107 107 107 0
6.825399 3.913229 37.145030 103 103 103 0
7.163137 4.052828 38.470123 98 98 98 0
7.293466 4.072974 38.661360 88 88 88 0
7.268875 4.007200 38.037024 86 86 86 0
7.366200 4.009451 38.058384 70 70 70 0
-7.316666 4.024166 37.329928 150 150 150 0
-7.223310 4.023109 37.320122 145 145 145 0
-7.127608 4.020702 37.297794 144 144 144 0
-7.046925 4.026815 37.354495 145 145 145 0
-6.951291 4.024431 37.332388 149 149 149 0
-6.855772 4.022053 37.310322 145 145 145 0
-6.767769 4.024079 37.329117 146 146 146 0
-6.683082 4.028159 37.366966 144 144 144 0
-6.585863 4.024694 37.334825 148 148 148 0
-6.493979 4.024438 37.332444 149 149 149 0
-6.403448 4.025025 37.337891 147 147 147 0
-6.314748 4.026796 37.354324 151 151 151 0
-6.210323 4.018445 37.276851 151 151 151 0
-6.120655 4.019535 37.286965 151 151 151 0
-6.029085 4.019390 37.285624 151 151 151 0
-5.924597 4.010496 37.203120 151 151 151 0
-5.826905 4.005997 37.161387 151 151 151 0
-5.737912 4.007430 37.174680 151 151 151 0
-5.638622 4.001603 37.120619 150 150 150 0
-5.545571 4.000084 37.106528 150 150 150 0
-5.449149 3.996043 37.069042 151 151 151 0
-5.357984 3.995785 37.066649 149 149 149 0
-5.264029 3.993401 37.044539 149 149 149 0
-5.178673 3.997572 37.083230 143 143 143 0
-5.088117 3.997806 37.085398 141 141 141 0
-5.002999 4.002399 37.128005 138 138 138 0
-4.911772 4.002184 37.126015 136 136 136 0
-4.825474 4.006054 37.161910 137 137 137 0
-4.737732 4.008850 37.187849 138 138 138 0
-4.655371 4.016399 37.257872 143 143 143 0
-4.559633 4.012477 37.221495 146 146 146 0
-4.472597 4.016209 37.256117 151 151 151 0
-4.381275 4.016169 37.255743 150 150 150 0
-4.286515 4.012908 37.225492 151 151 151 0
-4.194150 4.011796 37.215173 150 150 150 0
-4.104932 4.013711 37.232945 150 150 150 0
-4.005725 4.005725 37.158862 152 152 152 0
-3.908428 3.999322 37.099460 152 152 152 0
-3.815920 3.997631 37.083771 150 150 150 0
-3.724229 3.996734 37.075452 151 151 151 0
-3.626994 3.989693 37.010140 152 152 152 0
-3.537632 3.991175 37.023887 150 150 150 0
-3.443652 3.987386 36.988742 148 148 148 0
-3.351025 3.985003 36.966630 149 149 149 0
-3.261455 3.986223 36.977947 145 145 145 0
-3.169064 3.983967 36.957020 145 145 145 0
-3.081015 3.987196 36.986979 144 144 144 0
-2.991074 3.988098 36.995345 138 138 138 0
-2.902537 3.990988 37.022155 133 133 133 0
-2.815273 3.995872 37.067456 126 126 126 0
-2.732529 4.007709 37.177268 123 123 123 0
-2.641059 4.007125 37.171842 120 120 120 0
-2.562428 4.026672 37.353172 117 117 117 0
-2.476054 4.035050 37.430895 115 115 115 0
-2.183957 3.695927 34.285042 100 100 100 0
-2.234232 3.932248 36.477251 99 99 99 0
-2.138521 3.920623 36.369411 100 100 100 0
-2.097345 4.012312 37.219961 113 113 113 0
-2.041972 4.083944 37.884455 120 120 120 0
-1.978282 4.144972 38.450572 136 136 136 0
-1.899637 4.179201 38.768098 154 154 154 0
-1.805641 4.181484 38.789274 146 146 146 0
-1.699704 4.154832 38.542039 139 139 139 0
-1.586106 4.105216 38.081781 137 137 137 0
-1.476246 4.059678 37.659347 139 139 139 0
-1.373728 4.029601 37.380345 138 138 138 0
-1.275403 4.008409 37.183758 141 141 141 0
-1.180375 3.995117 37.060453 145 145 145 0
-1.085760 3.981119 36.930600 148 148 148 0
-0.990398 3.961593 36.749476 147 147 147 0
-0.896404 3.944177 36.587912 145 145 145 0
-0.805465 3.937828 36.529017 150 150 150 0
-0.714162 3.927891 36.436832 146 146 146 0
-0.622915 3.915464 36.321557 151 151 151 0
-0.533982 3.915868 36.325309 151 151 151 0
-0.444085 3.907949 36.251850 153 153 153 0
-0.354671 3.901381 36.190918 151 151 151 0
-0.265531 3.894460 36.126716 151 151 151 0
-0.177118 3.896590 36.146471 155 155 155 0
-0.088387 3.889042 36.076453 153 153 153 0
0.000000 3.885420 36.042861 155 155 155 0
0.088287 3.884645 36.035672 155 155 155 0
0.176528 3.883619 36.026147 155 155 155 0
0.264621 3.881114 36.002909 154 154 154 0
0.352672 3.879391 35.986929 155 155 155 0
0.440516 3.876541 35.960495 156 156 156 0
0.528451 3.875308 35.949053 158 158 158 0
0.616389 3.874444 35.941042 154 154 154 0
0.704708 3.875892 35.954471 149 149 149 0
0.791990 3.871953 35.917932 141 141 141 0
0.880739 3.875251 35.948522 136 136 136 0
0.969356 3.877423 35.968673 133 133 133 0
1.057758 3.878447 35.978173 134 134 134 0
1.148397 3.886882 36.056418 131 131 131 0
1.238107 3.891195 36.096425 130 130 130 0
1.326712 3.891688 36.101003 123 123 123 0
1.416531 3.895461 36.136002 118 118 118 0
1.511593 3.912357 36.292739 111 111 111 0
1.604273 3.921555 36.378062 99 99 99 0
1.476424 3.419088 31.716954 93 93 93 0
1.567190 3.447818 31.983473 91 91 91 0
1.646872 3.450589 32.009174 94 94 94 0
1.733459 3.466919 32.160656 98 98 98 0
2.088617 3.995616 37.065082 102 102 102 0
2.187539 4.010489 37.203051 106 106 106 0
2.283226 4.018478 37.277163 105 105 105 0
2.066184 3.496619 32.436167 102 102 102 0
2.154135 3.510442 32.564393 93 93 93 0
2.301050 3.615936 33.543002 84 84 84 0
2.333488 3.540465 32.842900 94 94 94 0
2.445408 3.586599 33.270859 96 96 96 0
2.496380 3.543249 32.868728 78 78 78 0
3.150216 4.200288 38.963708 67 67 67 0
3.286404 4.252993 39.452623 119 119 119 0
3.382280 4.252009 39.443499 130 130 130 0
3.482516 4.256409 39.484311 131 131 131 0
3.561495 4.235292 39.288422 139 139 139 0
3.643046 4.218264 39.130461 138 138 138 0
3.727839 4.205767 39.014532 144 144 144 0
3.813531 4.194884 38.913584 141 141 141 0
3.899372 4.184692 38.819034 141 141 141 0
3.989451 4.179425 38.770176 140 140 140 0
4.069983 4.164634 38.632966 140 140 140 0
4.166718 4.166718 38.652297 138 138 138 0
4.251971 4.157483 38.566629 138 138 138 0
4.326986 4.138856 38.393844 139 139 139 0
4.422699 4.140399 38.408155 138 138 138 0
4.497984 4.123152 38.248166 138 138 138 0
4.581507 4.114006 38.163320 137 137 137 0
4.667600 4.107488 38.102855 140 140 140 0
4.742584 4.091641 37.955854 142 142 142 0
4.831294 4.088018 37.922244 143 143 143 0
4.920864 4.085246 37.896529 143 143 143 0
5.008846 4.081282 37.859758 143 143 143 0
5.091887 4.073510 37.787660 145 145 145 0
5.183150 4.072475 37.778063 142 142 142 0
5.276453 4.073051 37.783407 143 143 143 0
5.354056 4.061697 37.678084 139 139 139 0
5.446751 4.061984 37.680739 138 138 138 0
5.545590 4.066766 37.725101 136 136 136 0
5.636378 4.065584 37.714138 134 134 134 0
5.720956 4.060033 37.662645 132 132 132 0
5.821556 4.065848 37.716590 129 129 129 0
5.916603 4.067664 37.733436 127 127 127 0
6.006702 4.066075 37.718696 123 123 123 0
6.138995 4.092663 37.965337 120 120 120 0
6.233971 4.093951 37.977280 116 116 116 0
6.181238 3.999624 37.102268 116 116 116 0
6.570074 4.189612 38.864678 115 115 115 0
6.499032 4.085106 37.895231 114 114 114 0
6.916147 4.286063 39.759396 112 112 112 0
7.015128 4.287022 39.768297 112 112 112 0
7.273954 4.384301 40.670694 110 110 110 0
7.536671 4.481264 41.570165 106 106 106 0
6.986668 4.098845 38.022685 103 103 103 0
7.084720 4.101680 38.048982 97 97 97 0
7.255799 4.146171 38.461695 95 95 95 0
6.748879 3.807060 35.315958 92 92 92 0
7.365038 4.102046 38.052378 73 73 73 0
-7.306812 4.110082 37.279652 150 150 150 0
-7.211663 4.107909 37.259946 146 146 146 0
-7.122042 4.108870 37.268665 147 147 147 0
-7.036210 4.112071 37.297694 145 145 145 0
-6.944825 4.112068 37.297666 146 146 146 0
-6.848948 4.109369 37.273184 147 147 147 0
-6.763930 4.113201 37.307941 146 146 146 0
-6.674922 4.114678 37.321343 146 146 146 0
-6.576635 4.110397 37.282512 147 147 147 0
-6.484140 4.109666 37.275882 147 147 147 0
-6.398345 4.113222 37.308135 147 147 147 0
-6.305010 4.111963 37.296717 149 149 149 0
-6.208812 4.108773 37.267781 152 152 152 0
-6.110484 4.104057 37.225004 149 149 149 0
-6.018682 4.103647 37.221288 151 151 151 0
-5.914656 4.094762 37.140696 151 151 151 0
-5.821020 4.092905 37.123851 151 151 151 0
-5.726905 4.090646 37.103369 149 149 149 0
-5.629553 4.085966 37.060915 152 152 152 0
-5.538460 4.085749 37.058947 152 152 152 0
-5.444374 4.083281 37.036558 154 154 154 0
-5.353024 4.082815 37.032333 149 149 149 0
-5.260424 4.081363 37.019168 146 146 146 0
-5.171556 4.082807 37.032266 144 144 144 0
-5.085656 4.086688 37.067461 144 144 144 0
-4.996575 4.088107 37.080332 139 139 139 0
-4.906240 4.088533 37.084202 135 135 135 0
-4.820960 4.093268 37.127150 137 137 137 0
-4.735384 4.097928 37.169417 141 141 141 0
-4.647038 4.100327 37.191177 143 143 143 0
-4.554551 4.099096 37.180012 150 150 150 0
-4.470146 4.105236 37.235698 148 148 148 0
-4.375407 4.101944 37.205843 152 152 152 0
-4.284514 4.102195 37.208114 154 154 154 0
-4.190374 4.099279 37.181672 152 152 152 0
-4.099102 4.099102 37.180060 151 151 151 0
-4.003132 4.094113 37.134810 150 150 150 0
-3.905080 4.086712 37.067679 151 151 151 0
-3.813341 4.085723 37.058711 152 152 152 0
-3.719307 4.082166 37.026449 153 153 153 0
-3.622958 4.075827 36.968956 151 151 151 0
-3.530916 4.074134 36.953600 153 153 153 0
-3.440077 4.073775 36.950338 150 150 150 0
-3.350233 4.074608 36.957898 149 149 149 0
-3.257934 4.072417 36.938024 145 145 145 0
-3.167408 4.072382 36.937704 146 146 146 0
-3.078275 4.074187 36.954076 144 144 144 0
-2.990323 4.077713 36.986060 135 135 135 0
-2.901252 4.079886 37.005767 132 132 132 0
-2.812665 4.082900 37.033110 127 127 127 0
-2.726828 4.090242 37.099702 123 123 123 0
-2.640807 4.097803 37.168285 124 124 124 0
-2.557121 4.109659 37.275816 119 119 119 0
-2.482968 4.138280 37.535417 113 113 113 0
-2.171877 3.759018 34.095400 108 108 108 0
-2.215367 3.987660 36.169256 98 98 98 0
-2.148481 4.028403 36.538800 107 107 107 0
-2.089092 4.087354 37.073502 107 107 107 0
-2.036872 4.166329 37.789835 114 114 114 0
-1.978538 4.239724 38.455550 138 138 138 0
-1.898022 4.270549 38.735137 153 153 153 0
-1.802654 4.269443 38.725106 148 148 148 0
-1.697710 4.244274 38.496820 141 141 141 0
-1.589643 4.207879 38.166705 140 140 140 0
-1.477244 4.154750 37.684806 134 134 134 0
-1.373223 4.119669 37.366614 139 139 139 0
-1.274300 4.095966 37.151615 144 144 144 0
-1.180189 4.085271 37.054610 144 144 144 0
-1.085508 4.070656 36.922054 145 145 145 0
-0.991494 4.056111 36.790120 144 144 144 0
-0.896549 4.034469 36.593826 147 147 147 0
-0.804873 4.024365 36.502177 148 148 148 0
-0.715242 4.023237 36.491945 150 150 150 0
-0.622779 4.003577 36.313621 152 152 152 0
-0.533360 4.000200 36.282997 151 151 151 0
-0.443727 3.993545 36.222633 150 150 150 0
-0.354376 3.986727 36.160787 151 151 151 0
-0.265507 3.982609 36.123441 152 152 152 0
-0.177007 3.982666 36.123955 153 153 153 0
-0.088374 3.976829 36.071016 153 153 153 0
0.000000 3.973614 36.041851 156 156 156 0
0.088221 3.969930 36.008434 157 157 157 0
0.176369 3.968306 35.993709 157 157 157 0
0.264441 3.966616 35.978380 156 156 156 0
0.352484 3.965441 35.967723 158 158 158 0
0.440424 3.963819 35.953010 159 159 159 0
0.528346 3.962597 35.941926 156 156 156 0
0.616015 3.960098 35.919258 156 156 156 0
0.704442 3.962486 35.940915 151 151 151 0
0.792235 3.961173 35.929008 141 141 141 0
0.880434 3.961952 35.936074 136 136 136 0
0.969142 3.964672 35.960742 131 131 131 0
1.058636 3.969885 36.008024 132 132 132 0
1.148320 3.974955 36.054016 130 130 130 0
1.237062 3.976270 36.065944 128 128 128 0
1.327044 3.981132 36.110038 124 124 124 0
1.417828 3.987642 36.169092 116 116 116 0
1.510926 3.999511 36.276740 109 109 109 0
1.397688 3.494221 31.693610 101 101 101 0
1.480766 3.507076 31.810217 93 93 93 0
1.565567 3.522526 31.950354 95 95 95 0
1.896249 4.063392 36.856160 93 93 93 0
1.992345 4.075251 36.963730 100 100 100 0
2.090857 4.090807 37.104830 103 103 103 0
2.186711 4.100084 37.188968 106 106 106 0
2.286031 4.114856 37.322956 105 105 105 0
2.377922 4.115634 37.330013 101 101 101 0
2.165718 3.609529 32.739496 90 90 90 0
2.229128 3.582527 32.494577 87 87 87 0
2.340339 3.631560 32.939318 96 96 96 0
2.447030 3.670545 33.292929 98 98 98 0
2.860279 4.152018 37.660025 85 85 85 0
3.161353 4.310936 39.101463 67 67 67 0
3.284745 4.347457 39.432717 121 121 121 0
3.382902 4.349446 39.450757 136 136 136 0
3.476671 4.345839 39.418040 137 137 137 0
3.565565 4.336498 39.333316 144 144 144 0
3.643075 4.314167 39.130770 139 139 139 0
3.731702 4.305810 39.054963 143 143 143 0
3.818219 4.295496 38.961415 142 142 142 0
3.906423 4.287537 38.889227 141 141 141 0
3.991180 4.276264 38.786979 136 136 136 0
4.078748 4.268457 38.716162 135 135 135 0
4.172977 4.267818 38.710366 134 134 134 0
4.251712 4.251712 38.564285 138 138 138 0
4.334239 4.240016 38.458199 137 137 137 0
4.424901 4.236607 38.427274 139 139 139 0
4.506297 4.224654 38.318855 139 139 139 0
4.584309 4.210079 38.186662 136 136 136 0
4.668769 4.201892 38.112403 137 137 137 0
4.752149 4.193072 38.032402 137 137 137 0
4.836937 4.185811 37.966537 138 138 138 0
4.923092 4.179984 37.913686 137 137 137 0
5.008494 4.173745 37.857097 135 135 135 0
5.098732 4.171690 37.838459 133 133 133 0
5.188177 4.169071 37.814703 133 133 133 0
5.279879 4.168325 37.807939 133 133 133 0
5.361516 4.159797 37.730581 130 130 130 0
5.453037 4.159096 37.724228 128 128 128 0
5.553203 4.164902 37.776888 127 127 127 0
5.641668 4.161886 37.749532 124 124 124 0
5.730100 4.158944 37.722846 122 122 122 0
5.833105 4.166503 37.791413 117 117 117 0
5.954836 4.186994 37.977273 114 114 114 0
6.047476 4.186714 37.974732 110 110 110 0
6.121469 4.173729 37.856948 108 108 108 0
6.379262 4.284579 38.862395 108 108 108 0
6.476609 4.285991 38.875203 109 109 109 0
6.573147 4.286835 38.882859 108 108 108 0
6.668284 4.286754 38.882125 108 108 108 0
6.918901 4.385219 39.775226 108 108 108 0
6.705069 4.190668 38.010597 109 109 109 0
7.433681 4.582406 41.563776 109 109 109 0
7.215561 4.387841 39.799014 108 108 108 0
7.039921 4.223952 38.312493 103 103 103 0
7.176596 4.249301 38.542409 96 96 96 0
7.341788 4.290655 38.917507 87 87 87 0
6.902850 3.982413 36.121664 84 84 84 0
7.378541 4.202966 38.122145 84 84 84 0
-7.301892 4.198588 37.254551 146 146 146 0
-7.203660 4.194536 37.218600 147 147 147 0
-7.112829 4.194745 37.220455 145 145 145 0
-7.030301 4.199920 37.266373 147 147 147 0
-6.939115 4.199991 37.267000 147 147 147 0
-6.842969 4.197021 37.240647 146 146 146 0
-6.756928 4.200252 37.269319 147 147 147 0
-6.668641 4.202157 37.286224 146 146 146 0
-6.572043 4.198805 37.256478 148 148 148 0
-6.477296 4.196558 37.236541 147 147 147 0
-6.392175 4.200572 37.272157 147 147 147 0
-6.294319 4.196213 37.233475 148 148 148 0
-6.198891 4.193368 37.208231 151 151 151 0
-6.105830 4.192062 37.196649 150 150 150 0
-6.007147 4.186799 37.149950 151 151 151 0
-5.906667 4.180103 37.090528 150 150 150 0
-5.816882 4.180884 37.097462 151 151 151 0
-5.718809 4.175639 37.050920 148 148 148 0
-5.624612 4.173099 37.028385 149 149 149 0
-5.532180 4.171808 37.016929 152 152 152 0
-5.439795 4.170510 37.005410 150 150 150 0
-5.348350 4.169900 37.000000 149 149 149 0
-5.257492 4.169735 36.998534 149 149 149 0
-5.168833 4.171339 37.012767 146 146 146 0
-5.079409 4.172372 37.021931 143 143 143 0
-4.991869 4.175018 37.045409 140 140 140 0
-4.902415 4.176131 37.055289 137 137 137 0
-4.819541 4.182998 37.116222 135 135 135 0
-4.729799 4.184053 37.125579 140 140 140 0
-4.643465 4.188223 37.162584 142 142 142 0
-4.552772 4.188550 37.165483 149 149 149 0
-4.467156 4.193657 37.210800 150 150 150 0
-4.375269 4.192966 37.204667 154 154 154 0
-4.275878 4.184902 37.133112 151 151 151 0
-4.186782 4.186782 37.149792 151 151 151 0
-4.096022 4.187045 37.152128 152 152 152 0
-3.996173 4.177818 37.070253 152 152 152 0
-3.904261 4.176651 37.059902 151 151 151 0
-3.807983 4.170648 37.006638 152 152 152 0
-3.714480 4.167465 36.978395 153 153 153 0
-3.622344 4.165695 36.962689 150 150 150 0
-3.528946 4.162347 36.932981 148 148 148 0
-3.437429 4.161099 36.921904 148 148 148 0
-3.346227 4.160174 36.913698 148 148 148 0
-3.255774 4.160155 36.913535 147 147 147 0
-3.163303 4.157483 36.889826 144 144 144 0
-3.074816 4.160045 36.912556 139 139 139 0
-2.988570 4.165885 36.964373 136 136 136 0
-2.899578 4.168144 36.984415 129 129 129 0
-2.812560 4.173476 37.031734 125 125 125 0
-2.729107 4.184631 37.130706 121 121 121 0
-2.640317 4.188088 37.161386 116 116 116 0
-2.556545 4.200038 37.267414 115 115 115 0
-2.477835 4.221497 37.457830 113 113 113 0
-2.163539 3.827800 33.964508 108 108 108 0
-2.266250 4.169900 37.000000 99 99 99 0
-2.140915 4.103421 36.410126 97 97 97 0
-2.092110 4.184220 37.127060 109 109 109 0
-2.039128 4.263631 37.831682 115 115 115 0
-1.977836 4.332403 38.441909 146 146 146 0
-1.894370 4.357050 38.660606 157 157 157 0
-1.802361 4.363612 38.718825 147 147 147 0
-1.698575 4.340802 38.516436 144 144 144 0
-1.589272 4.300384 38.157796 141 141 141 0
-1.478500 4.250686 37.716826 139 139 139 0
-1.373397 4.211752 37.371357 141 141 141 0
-1.274784 4.188577 37.165727 144 144 144 0
-1.179955 4.175227 37.047266 145 145 145 0
-1.086396 4.164518 36.952247 149 149 149 0
-0.992448 4.150238 36.825539 144 144 144 0
-0.897374 4.127920 36.627508 148 148 148 0
-0.805029 4.114594 36.509261 147 147 147 0
-0.713668 4.103593 36.411655 148 148 148 0
-0.621740 4.085718 36.253048 152 152 152 0
-0.533156 4.087529 36.269115 152 152 152 0
-0.444009 4.084879 36.245597 149 149 149 0
-0.354325 4.074739 36.155628 152 152 152 0
-0.265238 4.066989 36.086855 154 154 154 0
-0.176978 4.070504 36.118045 154 154 154 0
-0.088342 4.063752 36.058137 155 155 155 0
0.000000 4.060384 36.028254 157 157 157 0
0.088221 4.058174 36.008644 158 158 158 0
0.176281 4.054461 35.975696 158 158 158 0
0.264365 4.053593 35.967997 162 162 162 0
0.352403 4.052638 35.959524 158 158 158 0
0.440218 4.050009 35.936196 157 157 157 0
0.527936 4.047512 35.914038 156 156 156 0
0.616142 4.048933 35.926648 154 154 154 0
0.703967 4.047808 35.916666 148 148 148 0
0.792230 4.049175 35.928791 140 140 140 0
0.880624 4.050870 35.943830 134 134 134 0
0.969596 4.054676 35.977601 133 133 133 0
1.058425 4.057298 36.000866 133 133 133 0
1.147959 4.062010 36.042677 131 131 131 0
1.236755 4.063624 36.057002 127 127 127 0
1.326435 4.067734 36.093471 124 124 124 0
1.417794 4.076159 36.168223 114 114 114 0
1.511955 4.091174 36.301452 103 103 103 0
1.397898 3.572406 31.698365 100 100 100 0
1.483056 3.590557 31.859427 95 95 95 0
1.568609 3.607802 32.012439 93 93 93 0
1.651727 3.618068 32.103531 96 96 96 0
1.733789 3.625195 32.166767 101 101 101 0
2.090427 4.180854 37.097194 101 101 101 0
2.190261 4.197999 37.249330 101 101 101 0
2.286969 4.208024 37.338277 99 99 99 0
2.071366 3.664724 32.517520 97 97 97 0
2.158105 3.676772 32.624420 88 88 88 0
2.251536 3.698953 32.821230 92 92 92 0
2.346910 3.722684 33.031805 103 103 103 0
2.445930 3.750426 33.277957 98 98 98 0
2.821055 4.186081 37.143577 86 86 86 0
3.145277 4.384326 38.902623 75 75 75 0
3.284874 4.444241 39.434256 123 123 123 0
3.375340 4.436161 39.362563 134 134 134 0
3.472788 4.437451 39.374011 140 140 140 0
3.553975 4.418456 39.205464 141 141 141 0
3.647609 4.415527 39.179473 142 142 142 0
3.730295 4.399835 39.040236 141 141 141 0
3.819234 4.392119 38.971776 138 138 138 0
3.908479 4.385123 38.909700 139 139 139 0
3.996384 4.376992 38.837554 135 135 135 0
4.081989 4.366779 38.746931 138 138 138 0
4.176210 4.366037 38.740348 133 133 133 0
4.257853 4.352472 38.619985 132 132 132 0
4.340294 4.340294 38.511924 134 134 134 0
4.428949 4.334716 38.462435 133 133 133 0
4.516012 4.327844 38.401459 135 135 135 0
4.590821 4.309750 38.240908 131 131 131 0
4.674673 4.300699 38.160594 134 134 134 0
4.760280 4.293586 38.097482 129 129 129 0
4.844291 4.285334 38.024263 128 128 128 0
4.934770 4.283008 38.003620 126 126 126 0
5.017013 4.273751 37.921486 124 124 124 0
5.113369 4.276636 37.947080 124 124 124 0
5.202910 4.273819 37.922088 123 123 123 0
5.288019 4.267524 37.866232 122 122 122 0
5.370968 4.259733 37.797098 120 120 120 0
5.468202 4.263344 37.829140 117 117 117 0
5.564393 4.266035 37.853014 115 115 115 0
5.656363 4.265454 37.847861 113 113 113 0
5.749255 4.265576 37.848947 110 110 110 0
5.859387 4.278282 37.961690 107 107 107 0
5.951787 4.277847 37.957827 105 105 105 0
6.042964 4.276559 37.946402 103 103 103 0
6.152949 4.288419 38.051634 103 103 103 0
6.252391 4.292686 38.089495 106 106 106 0
6.353537 4.297981 38.136478 105 105 105 0
6.576006 4.384004 38.899771 104 104 104 0
6.553042 4.306285 38.210157 105 105 105 0
7.076229 4.584599 40.679675 103 103 103 0
7.021291 4.485825 39.803236 104 104 104 0
7.277961 4.586112 40.693101 107 107 107 0
6.965473 4.329888 38.419595 106 106 106 0
6.665929 4.088437 36.277167 104 104 104 0
7.089230 4.290850 38.073200 99 99 99 0
7.293120 4.356929 38.659531 87 87 87 0
7.093441 4.183311 37.118998 83 83 83 0
7.561014 4.402616 39.064914 80 80 80 0
-7.294885 4.285745 37.218803 148 148 148 0
-7.200555 4.283875 37.202559 143 143 143 0
-7.106900 4.282363 37.189432 148 148 148 0
-7.020195 4.285054 37.212800 149 149 149 0
-6.927823 4.284312 37.206355 147 147 147 0
-6.834898 4.283203 37.196726 149 149 149 0
-6.748800 4.286400 37.224492 147 147 147 0
-6.657691 4.286458 37.224996 148 148 148 0
-6.564334 4.285051 37.212779 149 149 149 0
-6.472718 4.284757 37.210221 150 150 150 0
-6.388164 4.289196 37.248768 149 149 149 0
-6.283830 4.280290 37.171427 149 149 149 0
-6.190328 4.278609 37.156833 149 149 149 0
-6.092518 4.273856 37.115556 151 151 151 0
-6.002745 4.274682 37.122729 149 149 149 0
-5.901270 4.267072 37.056638 148 148 148 0
-5.805632 4.263511 37.025712 150 150 150 0
-5.713415 4.262389 37.015971 150 150 150 0
-5.620300 4.260550 37.000000 151 151 151 0
-5.528664 4.259790 36.993402 151 151 151 0
-5.433562 4.256290 36.963005 152 152 152 0
-5.344481 4.257468 36.973235 151 151 151 0
-5.252919 4.256675 36.966352 149 149 149 0
-5.162314 4.256645 36.966084 148 148 148 0
-5.075374 4.259689 36.992519 143 143 143 0
-4.988704 4.263074 37.021921 139 139 139 0
-4.899581 4.264450 37.033870 135 135 135 0
-4.815266 4.270142 37.083297 138 138 138 0
-4.724630 4.270339 37.085010 142 142 142 0
-4.636633 4.272976 37.107910 145 145 145 0
-4.547586 4.274730 37.123148 150 150 150 0
-4.463961 4.281758 37.184178 151 151 151 0
-4.367723 4.276729 37.140500 149 149 149 0
-4.276511 4.276511 37.138608 152 152 152 0
-4.181917 4.272828 37.106626 154 154 154 0
-4.088153 4.269849 37.080752 151 151 151 0
-3.994413 4.266759 37.053921 153 153 153 0
-3.901860 4.264824 37.037119 152 152 152 0
-3.804887 4.257850 36.976554 151 151 151 0
-3.711478 4.254621 36.948508 151 151 151 0
-3.620825 4.254469 36.947193 151 151 151 0
-3.526630 4.250041 36.908738 150 150 150 0
-3.431563 4.244302 36.858898 149 149 149 0
-3.344182 4.248015 36.891139 148 148 148 0
-3.254077 4.248378 36.894296 146 146 146 0
-3.163332 4.247903 36.890168 144 144 144 0
-3.072821 4.247724 36.888613 136 136 136 0
-2.987426 4.254819 36.950230 132 132 132 0
-2.900278 4.259783 36.993342 127 127 127 0
-2.811036 4.261894 37.011670 122 122 122 0
-2.730414 4.277649 37.148495 120 120 120 0
-2.641402 4.280894 37.176671 116 116 116 0
-2.557195 4.292434 37.276889 118 118 118 0
-2.481634 4.319881 37.515246 108 108 108 0
-2.397328 4.333632 37.634667 110 110 110 0
-2.087573 3.924637 34.082821 106 106 106 0
-2.150934 4.212245 36.580504 101 101 101 0
-2.096937 4.285045 37.212720 105 105 105 0
-2.035596 4.348773 37.766158 115 115 115 0
-1.979828 4.431044 38.480626 143 143 143 0
-1.895112 4.453514 38.675758 159 159 159 0
-1.802221 4.458127 38.715820 151 151 151 0
-1.698077 4.433868 38.505154 142 142 142 0
-1.596381 4.413523 38.328467 144 144 144 0
-1.475633 4.334672 37.643696 137 137 137 0
-1.372932 4.301853 37.358687 136 136 136 0
-1.273921 4.276733 37.140542 142 142 142 0
-1.179855 4.265630 37.044117 149 149 149 0
-1.086075 4.253793 36.941316 144 144 144 0
-0.991169 4.234996 36.778081 143 143 143 0
-0.896710 4.214536 36.600402 143 143 143 0
-0.806158 4.209937 36.560457 145 145 145 0
-0.713473 4.191652 36.401663 146 146 146 0
-0.621395 4.172224 36.232944 148 148 148 0
-0.532914 4.174492 36.252643 154 154 154 0
-0.443627 4.170089 36.214409 152 152 152 0
-0.354186 4.161680 36.141380 152 152 152 0
-0.265305 4.156445 36.095917 154 154 154 0
-0.176810 4.155033 36.083653 157 157 157 0
-0.088318 4.150928 36.048010 156 156 156 0
0.000000 4.146181 36.006781 156 156 156 0
0.088201 4.145456 36.000490 159 159 159 0
0.176181 4.140260 35.955362 160 160 160 0
0.264312 4.140890 35.960836 159 159 159 0
0.352501 4.141891 35.969529 159 159 159 0
0.440021 4.136201 35.920111 157 157 157 0
0.527960 4.135687 35.915645 155 155 155 0
0.615892 4.135276 35.912078 151 151 151 0
0.704018 4.136105 35.919276 144 144 144 0
0.792190 4.136994 35.926997 138 138 138 0
0.880625 4.138937 35.943871 135 135 135 0
0.969821 4.143780 35.985928 132 132 132 0
1.058498 4.145782 36.003321 132 132 132 0
1.148458 4.152116 36.058328 131 131 131 0
1.238238 4.156943 36.100241 123 123 123 0
1.327343 4.159009 36.118188 118 118 118 0
1.419066 4.168508 36.200676 111 111 111 0
1.513537 4.184484 36.339416 102 102 102 0
1.403660 3.665113 31.829033 96 96 96 0
1.490201 3.686287 32.012918 93 93 93 0
1.802295 4.235393 36.781530 96 96 96 0
1.655188 3.704468 32.170803 99 99 99 0
1.997801 4.268030 37.064958 99 99 99 0
2.094846 4.280773 37.175620 103 103 103 0
1.911256 3.742877 32.504362 101 101 101 0
2.290704 4.306524 37.399254 97 97 97 0
2.083198 3.765781 32.703269 93 93 93 0
2.174904 3.785945 32.878373 94 94 94 0
2.612197 4.384759 38.078669 100 100 100 0
2.714873 4.399967 38.210740 106 106 106 0
2.812946 4.406948 38.271368 101 101 101 0
2.496251 3.784638 32.867029 91 91 91 0
3.283396 4.538813 39.416523 125 125 125 0
3.379226 4.537818 39.407888 138 138 138 0
3.473435 4.534762 39.381348 142 142 142 0
3.556792 4.518087 39.236534 136 136 136 0
3.647591 4.511494 39.179277 141 141 141 0
3.736502 4.502964 39.105200 138 138 138 0
3.823239 4.492306 39.012647 136 136 136 0
3.911403 4.483804 38.938807 134 134 134 0
4.006369 4.483317 38.934585 133 133 133 0
4.094614 4.475508 38.866765 133 133 133 0
4.182004 4.467141 38.794104 132 132 132 0
4.271468 4.461311 38.743475 130 130 130 0
4.349795 4.444356 38.596233 131 131 131 0
4.436166 4.436166 38.525109 129 129 129 0
4.524506 4.430245 38.473687 130 130 130 0
4.607972 4.419891 38.383770 127 127 127 0
4.682715 4.401752 38.226247 123 123 123 0
4.779343 4.404492 38.250040 121 121 121 0
4.865841 4.397971 38.193412 119 119 119 0
4.949600 4.389268 38.117825 119 119 119 0
5.030332 4.378252 38.022160 118 118 118 0
5.122375 4.377303 38.013918 120 120 120 0
5.221643 4.382450 38.058621 118 118 118 0
5.299192 4.369510 37.946241 115 115 115 0
5.398287 4.374474 37.989350 115 115 115 0
5.485069 4.369461 37.945823 114 114 114 0
5.588709 4.377822 38.018431 112 112 112 0
5.681029 4.377186 38.012908 109 109 109 0
5.779012 4.380864 38.044844 108 108 108 0
5.882089 4.388225 38.108769 107 107 107 0
5.972966 4.386397 38.092897 102 102 102 0
6.075258 4.392879 38.149188 103 103 103 0
6.183424 4.403348 38.240100 102 102 102 0
6.282612 4.407205 38.273601 103 103 103 0
6.484489 4.481926 38.922503 100 100 100 0
6.581395 4.482979 38.931648 101 101 101 0
6.592378 4.426311 38.439521 104 104 104 0
6.926656 4.585251 39.819809 104 104 104 0
7.182588 4.688634 40.717619 103 103 103 0
7.441456 4.791074 41.607246 105 105 105 0
7.383081 4.689254 40.723007 104 104 104 0
7.647937 4.792707 41.621424 102 102 102 0
7.217352 4.463363 38.761290 97 97 97 0
7.319257 4.467598 38.798073 83 83 83 0
7.646125 4.607281 40.011122 76 76 76 0
7.382466 4.392100 38.142425 88 88 88 0
-7.286317 4.371790 37.175087 148 148 148 0
-7.190426 4.368866 37.150223 146 146 146 0
-7.103195 4.371197 37.170041 146 146 146 0
-7.013768 4.372219 37.178736 147 147 147 0
-6.920101 4.370590 37.164883 149 149 149 0
-6.827541 4.369626 37.156684 147 147 147 0
-6.743557 4.374199 37.195572 146 146 146 0
-6.649237 4.372101 37.177733 149 149 149 0
-6.556415 4.370944 37.167887 150 150 150 0
-6.464275 4.370214 37.161687 149 149 149 0
-6.372586 4.369773 37.157935 149 149 149 0
-6.279717 4.368498 37.147096 150 150 150 0
-6.181212 4.363209 37.102115 149 149 149 0
-6.085368 4.359666 37.071994 148 148 148 0
-5.986535 4.353843 37.022479 149 149 149 0
-5.897336 4.354956 37.031940 150 150 150 0
-5.800822 4.350617 36.995039 151 151 151 0
-5.705367 4.346946 36.963830 154 154 154 0
-5.613934 4.346271 36.958088 150 150 150 0
-5.521655 4.344909 36.946505 150 150 150 0
-5.429654 4.343724 36.936425 151 151 151 0
-5.339240 4.343789 36.936979 150 150 150 0
-5.252001 4.346484 36.959895 149 149 149 0
-5.158533 4.344027 36.939008 146 146 146 0
-5.070490 4.346134 36.956922 142 142 142 0
-4.985750 4.351200 37.000000 141 141 141 0
-4.895842 4.351859 37.005605 136 136 136 0
-4.809518 4.355790 37.039029 138 138 138 0
-4.720287 4.357188 37.050919 140 140 140 0
-4.635665 4.362979 37.100164 145 145 145 0
-4.545085 4.363282 37.102737 150 150 150 0
-4.457859 4.366883 37.133355 152 152 152 0
-4.364431 4.364431 37.112509 152 152 152 0
-4.269709 4.360554 37.079544 151 151 151 0
-4.179754 4.361483 37.087440 150 150 150 0
-4.082799 4.354985 37.032188 150 150 150 0
-3.990106 4.352843 37.013972 151 151 151 0
-3.893645 4.346394 36.959136 150 150 150 0
-3.799865 4.342703 36.927749 152 152 152 0
-3.707691 4.340712 36.910814 153 153 153 0
-3.613236 4.335883 36.869753 151 151 151 0
-3.521458 4.334102 36.854611 149 149 149 0
-3.429385 4.331854 36.835495 150 150 150 0
-3.342853 4.336674 36.876476 149 149 149 0
-3.250635 4.334180 36.855269 145 145 145 0
-3.158878 4.332176 36.838227 141 141 141 0
-3.071781 4.336632 36.876127 132 132 132 0
-2.986982 4.344701 36.944737 130 130 130 0
-2.897518 4.346276 36.958132 125 125 125 0
